ply
format ascii 1.0
element vertex 1196
property float x
property float y
property float z
property uchar diffuse_red
property uchar diffuse_green
property uchar diffuse_blue
end_header
0.183735 -0.111739 0.127765 68 58 41
0.0922627 -0.117837 -0.00508615 68 58 51
0.0911125 -0.115432 -0.00587366 66 61 51
0.0902286 -0.114386 -0.0067641 67 59 48
0.0897592 -0.113137 -0.00699035 70 58 43
0.0894951 -0.111783 -0.00688579 72 59 41
0.0890251 -0.110532 -0.00711235 71 63 43
0.0883509 -0.109391 -0.00766927 71 63 47
0.0878814 -0.108142 -0.00789557 67 61 54
0.0870075 -0.107115 -0.0087789 65 61 56
0.086138 -0.106094 -0.00965789 68 59 51
0.0852726 -0.105078 -0.0105325 66 61 50
0.0846087 -0.103952 -0.0110805 62 62 55
0.0841431 -0.102714 -0.0113049 59 55 53
0.0836774 -0.101475 -0.0115294 61 60 48
0.0832117 -0.100236 -0.0117539 64 64 53
0.082746 -0.0989972 -0.0119784 66 63 48
0.082475 -0.0976359 -0.0118811 67 60 47
0.0822034 -0.0962712 -0.0117835 69 56 43
0.0821262 -0.0947768 -0.0113621 66 62 51
0.0818531 -0.0934033 -0.0112636 62 62 54
0.0813844 -0.0921562 -0.0114895 63 62 53
0.0811099 -0.0907776 -0.0113911 61 65 62
0.0806404 -0.0895288 -0.0116174 54 67 69
0.080171 -0.0882799 -0.0118437 41 74 71
0.0797015 -0.0870309 -0.01207 39 77 77
0.0794245 -0.0856439 -0.0119722 39 75 76
0.0789543 -0.0843932 -0.0121988 38 74 75
0.078676 -0.0830009 -0.0121012 35 77 77
0.0782051 -0.0817485 -0.0123281 35 75 77
0.0777343 -0.0804959 -0.012555 34 75 82
0.0772634 -0.0792433 -0.012782 38 80 87
0.0769825 -0.0778425 -0.012685 46 85 97
0.0767008 -0.0764382 -0.0125877 51 101 114
0.0762287 -0.0751822 -0.0128153 54 127 136
0.0759456 -0.0737726 -0.0127181 64 153 161
0.0754728 -0.0725149 -0.012946 81 171 177
0.0751884 -0.0711 -0.0128489 93 181 179
0.074715 -0.0698405 -0.0130771 91 177 171
0.0742415 -0.0685809 -0.0133053 84 162 159
0.073768 -0.0673213 -0.0135336 76 142 146
0.0734809 -0.0658977 -0.0134371 63 124 133
0.0731931 -0.0644706 -0.0133405 48 110 128
0.0734662 -0.0625341 -0.0122613 43 106 124
0.073553 -0.0607503 -0.0115025 47 110 125
0.0745943 -0.058072 -0.00906188 58 132 140
0.0748798 -0.0560651 -0.00794005 107 174 172
0.0751681 -0.0540374 -0.00680662 131 191 189
0.0748734 -0.0525501 -0.00669846 101 172 176
0.094492 0.0114291 0.0440952 49 41 37
0.093367 0.0123561 0.0428176 31 27 23
0.0907338 0.0183327 0.0411824 35 29 27
0.202891 -0.141598 0.148102 134 83 65
0.20165 -0.139804 0.14696 119 77 61
0.201461 -0.137793 0.147413 110 71 58
0.200222 -0.136006 0.146272 102 68 55
0.198988 -0.134225 0.145135 93 65 53
0.198275 -0.132329 0.144792 86 63 50
0.197562 -0.130433 0.144448 81 64 49
0.196849 -0.128537 0.144105 73 60 45
0.196137 -0.12664 0.143761 72 56 48
0.194912 -0.12488 0.142632 68 60 49
0.1942 -0.122987 0.142289 65 58 47
0.193489 -0.121094 0.141946 67 57 44
0.192777 -0.119201 0.141603 75 55 43
0.192065 -0.117307 0.14126 70 58 50
0.18985 -0.115872 0.138586 68 55 44
0.185225 -0.115215 0.13216 71 55 39
0.182618 -0.113973 0.128851 70 56 40
0.181925 -0.112131 0.128517 68 55 40
0.0906201 -0.115387 -0.0041933 67 60 51
0.0901483 -0.114132 -0.00442066 68 61 49
0.0896765 -0.112877 -0.00464804 69 61 47
0.0892047 -0.111622 -0.00487546 70 61 45
0.0885278 -0.110475 -0.00543713 71 63 46
0.0878525 -0.10933 -0.00599746 70 62 48
0.0873818 -0.108078 -0.00622433 66 60 53
0.0865068 -0.107049 -0.00711399 66 61 51
0.0856363 -0.106025 -0.00799925 70 59 43
0.0843742 -0.105233 -0.00953205 70 58 42
0.0839079 -0.103993 -0.00975674 68 59 46
0.0832456 -0.102869 -0.0103056 64 56 50
0.0827799 -0.10163 -0.0105301 65 55 51
0.0823141 -0.100391 -0.0107546 66 61 49
0.0818483 -0.0991518 -0.0109791 68 61 51
0.0815762 -0.0977906 -0.0108805 69 61 49
0.0814975 -0.0963018 -0.0104573 66 59 46
0.0814184 -0.0948056 -0.010032 64 63 58
0.0809496 -0.0935585 -0.010258 65 62 54
0.0806745 -0.0921816 -0.010158 62 61 51
0.0803988 -0.0908012 -0.0100577 63 62 51
0.0801223 -0.0894172 -0.00995725 63 65 49
0.0796516 -0.0881651 -0.0101841 57 62 54
0.0791809 -0.0869129 -0.010411 57 63 66
0.0787101 -0.0856607 -0.0106378 45 70 69
0.078431 -0.0842682 -0.010538 36 75 74
0.0779596 -0.0830142 -0.0107652 35 77 76
0.0774882 -0.0817601 -0.0109924 34 76 78
0.0770167 -0.0805059 -0.0112197 33 77 78
0.076735 -0.079105 -0.0111205 37 76 79
0.0762629 -0.077849 -0.0113481 40 75 78
0.0757907 -0.076593 -0.0115756 39 79 83
0.075507 -0.0751852 -0.0114769 42 84 88
0.0750342 -0.0739274 -0.0117048 48 89 100
0.0745614 -0.0726696 -0.0119326 55 100 114
0.0740884 -0.0714116 -0.0121606 57 122 133
0.0738021 -0.0699952 -0.0120624 65 150 155
0.0733287 -0.0687355 -0.0122907 78 167 169
0.072855 -0.0674757 -0.0125189 91 177 175
0.0723814 -0.0662158 -0.0127472 92 174 172
0.0722778 -0.0646252 -0.0123232 84 163 163
0.0725462 -0.0626894 -0.0112389 72 141 147
0.0726295 -0.060906 -0.0104762 55 118 132
0.0736612 -0.0582293 -0.00802508 45 117 134
0.0741341 -0.0560423 -0.00655557 110 165 167
0.0744189 -0.0540117 -0.00541348 152 208 201
0.0741228 -0.0525224 -0.00530342 125 204 204
0.0734393 -0.051406 -0.0058856 104 184 188
0.199561 -0.13815 0.148152 124 82 64
0.198327 -0.136365 0.147012 114 77 62
0.197615 -0.134469 0.146668 107 69 59
0.196902 -0.132573 0.146325 99 64 55
0.196189 -0.130677 0.145982 93 64 53
0.195476 -0.128781 0.145638 86 61 52
0.194763 -0.126884 0.145294 74 59 47
0.193541 -0.125123 0.144162 72 60 45
0.192829 -0.12323 0.143819 66 60 52
0.192117 -0.121337 0.143476 67 57 46
0.191406 -0.119444 0.143133 71 59 40
0.190192 -0.1177 0.142007 68 59 42
0.188486 -0.116114 0.140107 67 56 45
0.183881 -0.115452 0.133659 67 55 43
0.181756 -0.114056 0.131081 66 56 43
0.180591 -0.112366 0.130006 66 55 44
0.0904471 -0.118153 -0.00306286 70 60 46
0.0899759 -0.1169 -0.00328992 69 62 49
0.0895047 -0.115647 -0.00351697 68 61 48
0.0892391 -0.11429 -0.00340762 68 61 46
0.0889728 -0.11293 -0.00329803 68 60 46
0.0887059 -0.111567 -0.00318813 66 60 48
0.0880278 -0.110417 -0.00375336 68 60 48
0.0871481 -0.109378 -0.00465244 69 58 46
0.0864744 -0.108235 -0.00521375 68 56 44
0.0860035 -0.106982 -0.00544062 67 59 44
0.0849324 -0.106069 -0.00666336 69 60 45
0.0834756 -0.105389 -0.00853137 69 59 46
0.0830093 -0.104148 -0.00875607 67 61 50
0.082348 -0.103024 -0.00930617 66 60 50
0.0818821 -0.101785 -0.0095306 67 58 44
0.0814163 -0.100546 -0.00975504 68 57 43
0.0809505 -0.0993064 -0.00997956 68 58 42
0.0804846 -0.0980672 -0.010204 69 56 42
0.0802107 -0.0967045 -0.0101045 66 58 45
0.0801285 -0.0952128 -0.00967942 62 61 54
0.0800459 -0.0937137 -0.00925217 63 60 53
0.0797696 -0.0923369 -0.00915093 63 57 50
0.0796857 -0.0908248 -0.00872086 67 60 45
0.079408 -0.0894391 -0.00861857 66 57 40
0.0789365 -0.0881853 -0.00884568 63 54 46
0.0784652 -0.0869315 -0.00907284 64 53 52
0.0779938 -0.0856775 -0.00929996 59 65 56
0.0775223 -0.0844235 -0.00952713 55 64 62
0.0772413 -0.0830276 -0.00942583 55 64 63
0.0767692 -0.0817718 -0.0096533 47 71 71
0.076297 -0.080516 -0.00988081 37 75 73
0.0760141 -0.0791132 -0.00977987 35 77 75
0.0755413 -0.0778556 -0.0100077 37 77 78
0.0750684 -0.0765979 -0.0102355 35 78 80
0.0745955 -0.0753401 -0.0104634 34 77 81
0.0741226 -0.0740822 -0.0106912 34 76 84
0.0736497 -0.0728242 -0.0109191 36 81 87
0.0731767 -0.0715662 -0.011147 37 85 93
0.0727037 -0.0703081 -0.0113749 45 94 103
0.0722307 -0.0690498 -0.0116028 54 105 116
0.0719419 -0.0676302 -0.011504 60 122 134
0.0714683 -0.0663702 -0.0117323 67 146 154
0.0711782 -0.0649452 -0.0116335 77 164 169
0.071626 -0.0628447 -0.0102163 87 169 173
0.0717056 -0.0610618 -0.00944972 84 164 167
0.0729178 -0.0582095 -0.0066476 77 157 162
0.0733865 -0.0560194 -0.00516732 120 184 179
0.0736677 -0.053986 -0.0040166 150 208 199
0.07337 -0.0524946 -0.00390455 123 192 198
0.0726867 -0.0513767 -0.00448928 109 182 189
0.072005 -0.0502615 -0.0050725 101 184 188
0.071325 -0.0491492 -0.00565432 92 182 190
0.0695237 -0.0491815 -0.008283 93 176 183
0.0686693 -0.0482715 -0.00919197 93 168 169
0.0678193 -0.0473659 -0.0100963 78 151 154
0.0661278 -0.040149 -0.00991922 54 65 74
0.0672886 -0.0370185 -0.00709024 57 55 62
0.196954 -0.13661 0.148545 142 91 69
0.194708 -0.135065 0.145825 126 82 64
0.193999 -0.133179 0.145484 109 72 60
0.194305 -0.131046 0.146721 103 66 57
0.193593 -0.129153 0.146378 101 64 54
0.192881 -0.12726 0.146035 89 60 52
0.191665 -0.125502 0.144904 85 58 41
0.190955 -0.123612 0.144561 74 60 43
0.190244 -0.121722 0.144219 67 59 44
0.189533 -0.119832 0.143877 72 58 45
0.188325 -0.11809 0.142751 70 57 43
0.18663 -0.116506 0.140853 67 55 44
0.183496 -0.115389 0.136674 64 53 44
0.18184 -0.113834 0.134823 64 50 45
0.179725 -0.112447 0.132238 68 53 44
0.180444 -0.110123 0.134151 70 57 39
0.089539 -0.118311 -0.00205101 69 61 43
0.0890678 -0.117058 -0.002278 68 62 45
0.0885965 -0.115805 -0.00250503 67 59 45
0.0885348 -0.114345 -0.00205589 65 58 43
0.0886788 -0.112773 -0.0012637 65 58 46
0.0882045 -0.111511 -0.0014922 67 55 47
0.0875252 -0.110358 -0.00206093 69 58 45
0.0866444 -0.109318 -0.0029665 69 60 45
0.085768 -0.108282 -0.00386755 66 56 44
0.0848959 -0.107251 -0.00476415 66 54 43
0.0836327 -0.10645 -0.0063186 66 57 44
0.0823819 -0.105657 -0.00785772 65 59 45
0.081916 -0.104418 -0.00808213 64 57 50
0.0812569 -0.103294 -0.00863237 68 60 51
0.0807915 -0.102056 -0.00885655 68 60 45
0.0803262 -0.100819 -0.00908069 71 62 44
0.0798608 -0.0995809 -0.00930486 71 61 47
0.0793954 -0.0983431 -0.00952908 68 59 46
0.07893 -0.0971052 -0.00975327 65 58 48
0.0786544 -0.0957428 -0.00965333 66 60 48
0.0785684 -0.0942504 -0.00922763 63 61 48
0.0781011 -0.0930076 -0.00945273 64 59 42
0.0787784 -0.0909804 -0.00771112 61 58 45
0.0786917 -0.089461 -0.0072764 63 57 49
0.0782197 -0.0882056 -0.00750377 62 59 51
0.0775565 -0.0870869 -0.00806181 63 58 52
0.077085 -0.0858329 -0.00828893 63 60 48
0.0766134 -0.0845788 -0.00851607 63 60 49
0.0761419 -0.0833245 -0.00874324 57 57 55
0.075859 -0.0819271 -0.00864094 58 64 56
0.0755754 -0.080526 -0.00853842 56 59 57
0.0751026 -0.0792684 -0.0087662 50 65 63
0.0748177 -0.0778621 -0.00866373 43 70 71
0.0743442 -0.0766028 -0.00889182 39 75 76
0.0738706 -0.0753433 -0.00911994 36 78 77
0.0733971 -0.0740837 -0.00934806 35 76 79
0.0729235 -0.0728241 -0.0095762 35 78 80
0.0724498 -0.0715644 -0.00980438 33 77 81
0.0719762 -0.0703045 -0.0100326 34 77 83
0.0713187 -0.0692042 -0.010589 37 80 86
0.0708455 -0.0679458 -0.010817 38 86 94
0.0705549 -0.0665246 -0.0107172 42 98 105
0.0700811 -0.0652644 -0.0109454 53 111 117
0.0707056 -0.0630001 -0.00919348 64 126 134
0.0705967 -0.0613889 -0.00875738 67 140 148
0.0719832 -0.058367 -0.00560912 71 153 161
0.0728281 -0.0558148 -0.00342768 93 165 170
0.0729143 -0.0539603 -0.0026159 106 171 174
0.0724231 -0.0526539 -0.0028525 90 161 170
0.0719319 -0.0513473 -0.00308916 87 163 169
0.0712501 -0.0502307 -0.00367497 91 174 176
0.0705703 -0.0491168 -0.00425928 96 179 184
0.0691442 -0.0487701 -0.00622013 103 180 185
0.0679196 -0.0482381 -0.00781746 109 186 188
0.0668887 -0.0475217 -0.00906293 96 185 193
0.066406 -0.0462379 -0.00929544 95 178 189
0.0659233 -0.044954 -0.00952799 97 172 172
0.0672669 -0.0361366 -0.00429993 46 65 81
0.0684625 -0.0329006 -0.00135216 62 54 51
0.194051 -0.137193 0.147692 163 96 72
0.192837 -0.135423 0.146561 148 92 69
0.191628 -0.13366 0.145435 129 84 67
0.191924 -0.131536 0.146667 113 76 62
0.191717 -0.129524 0.147116 109 71 58
0.191007 -0.127634 0.146774 104 67 55
0.189796 -0.125878 0.145643 98 63 50
0.189087 -0.123992 0.145301 85 61 47
0.188377 -0.122105 0.14496 76 61 43
0.187668 -0.120219 0.144618 76 59 42
0.186466 -0.118479 0.143493 72 55 38
0.185268 -0.116746 0.142372 70 51 35
0.182626 -0.115476 0.138944 70 56 41
0.181446 -0.113765 0.137842 69 62 46
0.179798 -0.112216 0.135987 70 57 42
0.180521 -0.109878 0.137931 69 50 39
0.0881595 -0.117216 -0.00126591 67 63 45
0.0880967 -0.11576 -0.000813629 67 60 42
0.0872247 -0.110191 -1.66111e-05 70 57 42
0.0861382 -0.109256 -0.00127191 67 57 43
0.0852607 -0.108218 -0.00217947 65 54 46
0.0839894 -0.107408 -0.00375446 64 52 47
0.0827305 -0.106606 -0.00531387 65 53 45
0.081484 -0.105812 -0.00685794 65 56 45
0.0804412 -0.104913 -0.00806193 66 56 44
0.0799769 -0.103678 -0.0082855 69 58 44
0.0793224 -0.102559 -0.00883352 68 59 45
0.0790485 -0.101209 -0.00873269 70 61 44
0.0785841 -0.0999738 -0.00895632 71 59 45
0.0783088 -0.0986184 -0.00885561 67 59 44
0.0778438 -0.0973819 -0.00907954 68 56 42
0.0775672 -0.0960214 -0.00897883 69 59 44
0.0771016 -0.0947832 -0.00920306 64 56 48
0.0768237 -0.0934176 -0.00910243 68 60 46
0.076733 -0.0919192 -0.00867542 65 63 53
0.0773999 -0.0898837 -0.00692801 65 61 57
0.0771191 -0.0884965 -0.00682346 59 59 53
0.076458 -0.0873788 -0.00738163 63 58 46
0.075987 -0.0861262 -0.00760845 64 58 44
0.0757044 -0.0847341 -0.00750482 65 58 44
0.0752327 -0.0834797 -0.00773199 59 59 51
0.0749487 -0.0820823 -0.00762841 61 61 46
0.0746639 -0.0806814 -0.00752461 62 58 46
0.0743784 -0.0792769 -0.00742055 60 58 52
0.0739049 -0.0780175 -0.0076486 57 65 59
0.0734313 -0.076758 -0.00787668 53 65 59
0.0729577 -0.0754984 -0.00810478 53 68 65
0.072484 -0.0742388 -0.0083329 48 69 69
0.0720104 -0.072979 -0.00856104 42 72 74
0.0715366 -0.0717192 -0.00878918 38 76 76
0.0710629 -0.0704593 -0.00901734 35 77 77
0.0705891 -0.0691993 -0.00924551 34 77 81
0.0701153 -0.0679392 -0.00947372 34 77 83
0.0696414 -0.066679 -0.00970195 33 79 83
0.0691676 -0.0654187 -0.00993013 36 82 85
0.0694195 -0.0634914 -0.00883649 40 88 95
0.0696738 -0.0615446 -0.00773184 43 97 106
0.0710483 -0.0585245 -0.00457041 50 110 121
0.0718848 -0.0559736 -0.00237959 57 120 130
0.0719672 -0.0541197 -0.00156371 61 126 137
0.071476 -0.0528131 -0.00180032 58 131 139
0.0711749 -0.051318 -0.00168526 61 139 144
0.0704933 -0.0501997 -0.00227359 69 148 151
0.0698133 -0.0490844 -0.00286045 78 155 159
0.0683903 -0.0487373 -0.00483282 88 164 167
0.067351 -0.0480144 -0.00609766 95 173 176
0.0663195 -0.0472969 -0.00735291 102 184 189
0.0656551 -0.0462019 -0.00792436 118 184 192
0.0653514 -0.0447224 -0.00781913 126 190 187
0.0654075 -0.0428457 -0.00703366 101 186 193
0.0660104 -0.0403508 -0.00520877 94 180 194
0.0674981 -0.0330612 -0.000281688 66 69 67
0.067375 -0.0312947 0.000197861 83 82 75
0.0672512 -0.0295186 0.000679944 87 81 76
0.0669373 -0.0279574 0.000800658 81 81 77
0.0671919 -0.02571 0.00201826 76 78 70
0.0666856 -0.0243635 0.00177442 75 71 63
0.0669402 -0.0220846 0.00300369 71 65 60
0.19168 -0.13766 0.147635 172 96 73
0.190973 -0.135781 0.147295 169 98 73
0.190267 -0.133902 0.146955 161 98 74
0.18956 -0.132023 0.146614 145 92 70
0.189848 -0.129893 0.147851 125 83 64
0.189139 -0.128007 0.14751 113 73 60
0.187934 -0.126254 0.146379 108 66 57
0.186733 -0.124506 0.145253 99 65 54
0.186027 -0.122627 0.144913 87 65 46
0.18532 -0.120747 0.144573 78 59 42
0.184613 -0.118867 0.144232 70 54 39
0.183421 -0.117137 0.143112 69 51 36
0.181274 -0.115715 0.140453 69 56 42
0.180572 -0.113849 0.140115 69 57 42
0.179396 -0.11214 0.139011 70 58 38
0.179168 -0.110116 0.139439 67 58 39
0.178466 -0.108249 0.139101 65 55 41
0.0830826 -0.107565 -0.00274458 64 55 47
0.081052 -0.107206 -0.00563365 66 53 44
0.0800107 -0.106302 -0.0068421 67 56 40
0.0793561 -0.10518 -0.00739181 67 57 39
0.0788924 -0.103947 -0.0076151 69 54 40
0.0784287 -0.102713 -0.00783839 67 54 45
0.0779649 -0.10148 -0.00806172 69 60 43
0.0776891 -0.100128 -0.00795996 70 60 45
0.0772247 -0.098893 -0.00818358 67 60 46
0.0769476 -0.097536 -0.00808192 68 59 45
0.0764825 -0.0962994 -0.00830584 70 58 46
0.0760175 -0.0950626 -0.00852978 67 53 46
0.0757384 -0.0936989 -0.00842842 68 59 49
0.0754587 -0.0923319 -0.00832684 68 56 48
0.0764921 -0.0900393 -0.00591792 67 60 50
0.0760212 -0.0887867 -0.0061447 64 59 46
0.0755501 -0.0875341 -0.00637149 64 54 43
0.0748917 -0.0864188 -0.00692953 63 56 45
0.0746079 -0.0850287 -0.00682515 64 49 47
0.0741369 -0.0837758 -0.00705202 63 55 46
0.0738517 -0.0823804 -0.00694771 66 55 42
0.0737523 -0.0808368 -0.00651061 65 59 44
0.0734656 -0.0794324 -0.00640525 65 56 46
0.0729919 -0.0781729 -0.00663331 62 60 51
0.0727038 -0.0767632 -0.00652799 59 59 48
0.0722295 -0.0755019 -0.00675639 60 61 50
0.0717552 -0.0742406 -0.00698475 58 62 51
0.0710971 -0.073134 -0.00754566 57 63 54
0.0706233 -0.0718741 -0.00777378 53 66 61
0.0703321 -0.070456 -0.00767 50 70 69
0.0696756 -0.0693539 -0.00823012 44 73 75
0.0692017 -0.0680937 -0.00845828 36 75 78
0.0687278 -0.0668334 -0.00868649 33 77 78
0.0682539 -0.065573 -0.00891472 32 77 80
0.0681396 -0.0639803 -0.00848108 30 78 83
0.0682055 -0.0622104 -0.00771175 33 79 85
0.0690028 -0.0597343 -0.00558497 36 83 89
0.0698145 -0.0572137 -0.00342005 37 90 97
0.0706408 -0.0546475 -0.00121602 40 99 106
0.0705286 -0.0529724 -0.000747915 43 108 115
0.0700372 -0.0516657 -0.000984546 47 114 121
0.0695458 -0.0503588 -0.00122116 51 121 128
0.068867 -0.0492431 -0.00180938 56 128 135
0.06745 -0.0488949 -0.00378848 61 137 142
0.0664142 -0.0481713 -0.00505733 68 146 153
0.0655664 -0.0472623 -0.00597566 81 160 164
0.0649021 -0.0461658 -0.00654962 100 168 172
0.0649564 -0.0442946 -0.00575927 111 177 178
0.0655558 -0.0418109 -0.00392446 105 191 195
0.0659803 -0.0394931 -0.00241319 122 192 203
0.0660397 -0.0375613 -0.00159233 137 187 185
0.0660994 -0.0356143 -0.000765022 96 158 155
0.0662203 -0.0316738 0.000909198 101 102 90
0.0659062 -0.0301216 0.00102982 94 98 93
0.0657784 -0.0283422 0.00151411 77 89 99
0.0660265 -0.0260998 0.00273386 69 85 91
0.0657091 -0.0245254 0.00285796 73 79 77
0.0652026 -0.0231786 0.00261411 84 78 71
0.0645092 -0.0220648 0.00200327 85 77 69
0.0640033 -0.0207196 0.00175971 75 71 66
0.0634974 -0.0193743 0.00151612 68 64 61
0.0629915 -0.018029 0.00127252 61 61 57
0.0623017 -0.0169231 0.000664193 54 59 51
0.0617965 -0.0155793 0.000420887 52 50 43
0.188199 -0.132265 0.148134 174 105 77
0.187492 -0.130386 0.147794 153 99 76
0.187278 -0.128379 0.148243 132 87 70
0.186078 -0.126628 0.147114 114 75 63
0.184397 -0.125017 0.145206 100 68 60
0.183693 -0.123144 0.144867 95 65 51
0.183472 -0.12113 0.145309 82 60 48
0.182767 -0.119254 0.144969 73 58 44
0.181101 -0.117673 0.143073 69 54 42
0.179922 -0.115954 0.141962 68 53 44
0.17922 -0.114088 0.141624 69 52 43
0.178518 -0.112221 0.141286 72 56 42
0.177816 -0.110355 0.140948 70 60 43
0.177114 -0.108488 0.14061 67 57 41
0.176412 -0.106621 0.140272 69 55 45
0.178545 -0.103715 0.144594 71 58 48
0.0791159 -0.106456 -0.00584568 68 55 38
0.0784624 -0.105334 -0.00639657 68 58 37
0.0779985 -0.104101 -0.00661984 68 55 39
0.0775347 -0.102867 -0.00684312 65 54 43
0.0770709 -0.101634 -0.00706642 66 58 45
0.076607 -0.100401 -0.00728972 67 60 47
0.0763295 -0.0990471 -0.00718701 68 57 42
0.0760512 -0.0976902 -0.00708413 70 59 44
0.0755861 -0.0964534 -0.00730803 71 58 46
0.0751209 -0.0952165 -0.00753195 67 55 46
0.0746557 -0.0939796 -0.00775589 67 59 46
0.0741905 -0.0927425 -0.00797987 65 57 45
0.0740934 -0.0912458 -0.00755106 63 57 45
0.0747388 -0.08921 -0.00579962 65 55 45
0.0742689 -0.0879604 -0.00602586 66 57 45
0.0737989 -0.0867108 -0.00625209 65 59 47
0.0735141 -0.0853226 -0.00614699 65 49 47
0.0732286 -0.0839309 -0.00604164 60 53 44
0.0729422 -0.0825356 -0.00593608 65 55 45
0.0726552 -0.0811367 -0.00583024 65 55 49
0.0725524 -0.0795879 -0.00538982 66 55 49
0.0722638 -0.0781799 -0.0052829 65 59 49
0.0721596 -0.0766177 -0.00483948 63 56 44
0.0716841 -0.0753531 -0.0050684 63 58 43
0.0712085 -0.0740885 -0.00529734 67 55 43
0.0705494 -0.0729793 -0.00586173 65 58 47
0.0700743 -0.0717161 -0.00609041 60 55 54
0.0695992 -0.0704528 -0.00631913 60 61 58
0.0689428 -0.0693492 -0.00688159 58 65 59
0.068288 -0.0682483 -0.00744268 51 67 61
0.0676348 -0.0671501 -0.0080024 46 70 69
0.0671614 -0.0658911 -0.00823031 41 73 75
0.0668659 -0.0644668 -0.00812728 34 75 78
0.0667481 -0.0628711 -0.00769169 31 76 78
0.0677108 -0.0602375 -0.00523398 32 77 79
0.0677756 -0.058435 -0.00444451 30 80 83
0.0683923 -0.0560798 -0.00261348 32 86 90
0.0692057 -0.0535031 -0.000402134 36 92 99
0.0689023 -0.0520125 -0.000285503 40 97 105
0.0684115 -0.0507073 -0.000521835 41 102 110
0.067735 -0.0495924 -0.00111013 43 109 116
0.0659631 -0.0496204 -0.00378286 46 115 122
0.0652967 -0.0485182 -0.00436103 49 120 128
0.0648113 -0.0472276 -0.00459471 56 129 135
0.064685 -0.0455499 -0.00414019 66 136 143
0.0651011 -0.0432712 -0.00264002 70 146 155
0.0657063 -0.04076 -0.000766542 78 163 169
0.0655802 -0.0390368 -0.000294399 103 172 178
0.0656381 -0.0370955 0.000538025 129 175 172
0.0655108 -0.0353511 0.00101665 98 156 152
0.0650685 -0.0320519 0.00161888 88 84 77
0.0649388 -0.0302824 0.00210348 93 94 83
0.0644371 -0.0289482 0.00186195 91 91 81
0.064864 -0.0264886 0.00344776 88 85 73
0.0645454 -0.0249167 0.00357268 90 77 65
0.0640395 -0.0235716 0.00332915 91 75 63
0.0633484 -0.0224586 0.00271817 92 81 69
0.0628431 -0.0211151 0.00247495 124 85 79
0.0623378 -0.0197715 0.00223171 164 101 86
0.0618326 -0.0184278 0.00198846 126 119 87
0.0613272 -0.017084 0.00174518 88 61 61
0.0608218 -0.0157401 0.00150186 72 68 56
0.0603164 -0.0143961 0.00125856 60 56 45
0.183261 -0.12726 0.146277 137 92 72
0.182078 -0.125524 0.14516 115 79 64
0.1809 -0.123794 0.144046 105 66 53
0.180199 -0.121931 0.143709 93 64 47
0.179973 -0.119926 0.144146 85 62 46
0.179271 -0.11806 0.143809 74 60 45
0.178097 -0.116343 0.142698 72 57 42
0.177397 -0.11448 0.14236 71 56 42
0.176696 -0.112617 0.142023 76 54 43
0.176463 -0.110593 0.142457 74 59 46
0.174829 -0.109053 0.140581 68 63 50
0.173668 -0.107358 0.13948 69 61 49
0.17297 -0.105501 0.139144 73 59 43
0.172271 -0.103644 0.138808 72 56 40
0.0782209 -0.106611 -0.00484904 66 55 40
0.0775684 -0.105488 -0.00540116 67 59 37
0.0771046 -0.104255 -0.00562439 67 58 38
0.0766407 -0.103022 -0.00584767 66 56 41
0.0761767 -0.101788 -0.00607097 64 56 48
0.0757128 -0.100555 -0.00629423 65 59 49
0.0756198 -0.0990812 -0.00586231 68 56 41
0.0751546 -0.0978444 -0.0060862 68 58 44
0.0748744 -0.0964842 -0.00598174 68 55 42
0.0744087 -0.0952457 -0.00620594 65 58 44
0.0739428 -0.0940071 -0.00643013 65 56 43
0.0734769 -0.0927684 -0.00665435 63 57 46
0.0731943 -0.0913999 -0.00655056 63 58 47
0.0730943 -0.089896 -0.00611722 64 55 50
0.0726266 -0.0886525 -0.0063423 66 59 46
0.0727087 -0.0870019 -0.00557616 67 60 45
0.0726068 -0.0854776 -0.00513774 65 56 47
0.0723201 -0.0840859 -0.00503111 60 57 46
0.0720326 -0.0826907 -0.00492425 60 59 47
0.0719284 -0.0811477 -0.00448212 64 56 51
0.0720086 -0.0794499 -0.00370037 65 57 50
0.0717184 -0.0780381 -0.00359112 68 60 42
0.0714275 -0.0766227 -0.00348155 67 56 40
0.0711358 -0.0752036 -0.00337174 65 55 44
0.070659 -0.0739357 -0.00360123 69 53 47
0.0701821 -0.0726677 -0.00383077 65 58 50
0.0695224 -0.0715573 -0.00439843 61 55 53
0.0690461 -0.0702907 -0.0046277 64 58 50
0.068208 -0.0693445 -0.00552955 66 60 47
0.0675533 -0.0682421 -0.00609298 64 60 50
0.066722 -0.0673044 -0.00698787 62 62 56
0.0662484 -0.0660453 -0.00721576 57 66 62
0.0657749 -0.0647862 -0.00744366 49 68 67
0.0654776 -0.0633604 -0.00733967 43 70 70
0.0667849 -0.0603935 -0.00420527 38 73 74
0.0670276 -0.0584156 -0.00306856 34 76 77
0.0674557 -0.0562375 -0.00157287 31 80 83
0.0682605 -0.0536621 0.000647862 32 84 90
0.0677702 -0.0523585 0.000411931 33 88 92
0.0672799 -0.0510548 0.000175942 35 91 95
0.0667895 -0.049751 -6.00629e-05 36 95 99
0.0652066 -0.0495889 -0.00239545 38 97 102
0.0645401 -0.0484852 -0.0029761 40 102 109
0.0642333 -0.047001 -0.00286388 41 109 114
0.0653748 -0.0439423 5.49741e-05 45 113 120
0.0665432 -0.0408113 0.00304279 47 121 127
0.0656737 -0.0398984 0.00208043 53 127 133
0.0655466 -0.0381615 0.00256315 67 133 140
0.0650482 -0.0368364 0.00232329 80 134 142
0.0641036 -0.0322124 0.00268992 70 69 62
0.0636031 -0.0308818 0.00244905 77 75 67
0.0634694 -0.0291089 0.00293582 81 77 67
0.0637043 -0.0268763 0.00415995 84 78 68
0.0633845 -0.0253069 0.00428564 87 78 70
0.0626952 -0.0241931 0.00367426 88 79 71
0.0621906 -0.0228514 0.00343138 91 84 74
0.0616859 -0.0215095 0.00318849 113 92 90
0.0611812 -0.0201676 0.00294559 147 112 120
0.0606765 -0.0188256 0.00270267 131 134 137
0.0601717 -0.0174834 0.00245975 100 71 67
0.059847 -0.0159009 0.00258305 82 73 60
0.0593415 -0.0145568 0.00233974 74 71 60
0.058836 -0.0132126 0.00209646 42 36 30
0.178833 -0.126289 0.14357 148 97 72
0.178137 -0.124436 0.143235 127 81 61
0.177908 -0.122447 0.143669 106 72 52
0.177678 -0.120449 0.144104 97 66 52
0.176979 -0.11859 0.143768 85 62 49
0.17628 -0.11673 0.143431 76 60 45
0.175115 -0.115022 0.142325 72 58 42
0.174417 -0.113165 0.141989 74 56 41
0.173719 -0.111309 0.141653 72 58 47
0.172104 -0.109774 0.13979 71 60 50
0.170954 -0.108088 0.138697 72 60 45
0.17026 -0.106241 0.138363 69 57 41
0.168666 -0.104733 0.136522 68 57 42
0.170227 -0.102024 0.139973 69 60 43
0.0777023 -0.106544 -0.0031896 64 57 41
0.0768613 -0.105531 -0.00407572 68 58 38
0.0762104 -0.10441 -0.0046288 68 58 37
0.0757464 -0.103176 -0.00485205 66 57 41
0.0752824 -0.101942 -0.00507532 62 57 49
0.0750031 -0.100591 -0.00496985 65 59 47
0.0747231 -0.0992356 -0.0048642 67 59 45
0.0744424 -0.097877 -0.00475822 65 59 49
0.0718284 -0.0903135 -0.00577439 65 57 47
0.0715431 -0.08894 -0.00566944 65 59 45
0.0712572 -0.087563 -0.00556422 64 58 43
0.0720666 -0.0853555 -0.00345811 65 55 44
0.0715947 -0.0841008 -0.00368517 64 60 47
0.0703652 -0.0718805 -0.000752162 65 59 49
0.0698846 -0.0706026 -0.000983413 62 59 49
0.0694039 -0.0693247 -0.00121469 65 58 45
0.0689232 -0.0680467 -0.00144599 66 58 45
0.0668165 -0.068236 -0.00473979 66 58 48
0.0661633 -0.0671347 -0.00530418 67 59 51
0.0653354 -0.0661996 -0.00620104 67 62 54
0.0650375 -0.0647754 -0.00609547 65 62 56
0.0661596 -0.0619972 -0.00328694 61 63 60
0.0665795 -0.0598558 -0.00180214 55 66 66
0.0682957 -0.0564281 0.00216993 46 70 69
0.0678054 -0.0551246 0.00193403 39 72 72
0.0673151 -0.053821 0.0016981 35 75 78
0.0668248 -0.0525173 0.00146217 34 78 80
0.0663344 -0.0512136 0.00122619 32 81 84
0.065844 -0.0499097 0.000990201 29 83 90
0.0649899 -0.0489878 4.81345e-05 29 87 94
0.0641401 -0.0480706 -0.000889193 31 91 96
0.0647355 -0.0456066 0.000990737 33 93 99
0.0660806 -0.0422968 0.00434946 37 97 101
0.0665157 -0.0399421 0.00594141 39 101 105
0.065827 -0.0388172 0.00533206 41 104 114
0.065326 -0.0374852 0.00509099 46 112 119
0.0644551 -0.0365759 0.00411816 51 113 116
0.0641393 -0.0350342 0.00424274 41 84 92
0.0636389 -0.0337037 0.0040019 46 54 50
0.0629557 -0.0325894 0.00339668 54 54 44
0.0628204 -0.0308234 0.00388533 62 61 53
0.0628677 -0.0288257 0.00474425 66 63 56
0.0627313 -0.0270378 0.00523973 70 65 57
0.0622267 -0.0256961 0.00499693 73 67 60
0.0615396 -0.0245832 0.0043854 75 69 63
0.0610357 -0.0232431 0.00414287 79 74 67
0.0605316 -0.0219029 0.00390032 89 82 75
0.0600275 -0.0205627 0.00365775 105 94 94
0.0595233 -0.0192223 0.0034152 110 104 106
0.0591981 -0.0176442 0.00353966 95 78 68
0.0586932 -0.0163018 0.00329671 82 71 57
0.0583664 -0.0147175 0.00342113 76 72 60
0.0578608 -0.0133732 0.00317784 52 45 37
0.175866 -0.12494 0.143197 157 102 76
0.175634 -0.122958 0.143629 131 90 67
0.174938 -0.121109 0.143294 113 76 62
0.174242 -0.119259 0.14296 104 68 56
0.173547 -0.11741 0.142625 91 66 52
0.172851 -0.11556 0.14229 80 62 47
0.172155 -0.11371 0.141955 76 58 43
0.171005 -0.112017 0.140858 72 57 45
0.17031 -0.11017 0.140524 71 59 46
0.168717 -0.108648 0.138676 70 59 44
0.167579 -0.106972 0.13759 68 58 44
0.166445 -0.105303 0.136509 69 59 45
0.166197 -0.103298 0.136925 70 59 47
0.075966 -0.105686 -0.00307874 71 57 40
0.0753161 -0.104564 -0.003633 68 57 37
0.074852 -0.10333 -0.00385625 64 57 43
0.074388 -0.102097 -0.0040795 62 60 49
0.0742916 -0.100627 -0.00364208 66 61 43
0.0740103 -0.09927 -0.00353458 68 61 46
0.0737282 -0.0979097 -0.00342683 67 60 53
0.0674148 -0.0547328 0.00405909 56 61 55
0.0667377 -0.0536098 0.00346345 50 64 61
0.0662461 -0.0523027 0.00322688 44 68 67
0.0657543 -0.0509954 0.00299035 39 73 73
0.0650801 -0.0498784 0.00239677 37 75 77
0.064589 -0.0485727 0.00216046 32 76 82
0.0640978 -0.0472668 0.00192418 28 80 84
0.0650637 -0.0443827 0.00456263 29 82 90
0.06605 -0.0414376 0.00725687 28 87 93
0.0659226 -0.0396885 0.00775788 28 92 96
0.0654195 -0.0383512 0.00751587 33 94 99
0.0643598 -0.0376464 0.00616371 39 93 100
0.0638586 -0.0363141 0.00592263 39 85 90
0.0631742 -0.0351951 0.0053141 31 53 60
0.0624915 -0.0340788 0.00470713 33 37 34
0.0618107 -0.0329655 0.00410176 38 39 33
0.0614917 -0.0314207 0.00422615 43 44 38
0.0615335 -0.0294305 0.00508415 49 48 43
0.0613938 -0.0276488 0.00557922 54 51 45
0.0608904 -0.0263106 0.00533709 58 53 47
0.060387 -0.0249722 0.0050949 63 55 49
0.0598836 -0.0236339 0.0048527 68 59 51
0.0595593 -0.0220638 0.00497896 71 65 55
0.0590551 -0.0207234 0.0047364 77 71 63
0.0585509 -0.019383 0.00449384 84 74 65
0.0580467 -0.0180424 0.00425125 79 71 64
0.0577194 -0.0164625 0.00437683 76 65 52
0.0573912 -0.0148782 0.0045027 72 67 58
0.0568855 -0.0135338 0.00425944 54 48 38
0.173376 -0.123466 0.14359 169 110 82
0.173139 -0.121485 0.144022 142 93 73
0.172445 -0.119639 0.143688 124 81 65
0.17175 -0.117792 0.143354 107 74 58
0.170603 -0.116095 0.142256 92 68 54
0.169909 -0.114251 0.141922 86 62 49
0.168767 -0.112563 0.140829 78 59 46
0.167629 -0.11088 0.13974 72 56 44
0.166054 -0.109363 0.137904 69 55 43
0.165366 -0.107533 0.137573 67 56 43
0.16424 -0.105868 0.136496 68 59 46
0.163989 -0.103872 0.136911 68 60 49
0.162433 -0.102386 0.135092 68 59 49
0.0744216 -0.104718 -0.00263705 69 59 42
0.0739575 -0.103485 -0.00286029 68 57 44
0.0734933 -0.102251 -0.00308349 66 60 48
0.0732117 -0.100899 -0.00297556 68 62 45
0.0731122 -0.0994246 -0.00253486 68 60 46
0.0661572 -0.0533976 0.00523809 68 59 46
0.0654807 -0.0522747 0.00464011 64 59 46
0.064806 -0.0511546 0.00404367 61 60 50
0.0643142 -0.0498471 0.00380712 54 65 61
0.0638223 -0.0485395 0.00357056 51 68 67
0.0633304 -0.0472319 0.00333394 45 70 72
0.0659586 -0.0425254 0.00931892 35 75 80
0.0656428 -0.0409816 0.00945138 33 80 81
0.065139 -0.0396424 0.00920907 25 80 85
0.0644493 -0.0385132 0.00859304 24 82 87
0.0637614 -0.0373868 0.00797859 28 82 84
0.0628921 -0.0364753 0.00699558 23 62 71
0.0623909 -0.0351428 0.00675449 22 36 40
0.061347 -0.034453 0.00541067 25 28 26
0.0606685 -0.0333405 0.00480518 27 30 26
0.0601698 -0.0320148 0.0045653 30 33 31
0.0600273 -0.0302516 0.0050558 36 36 34
0.0600633 -0.0282566 0.00591711 41 37 36
0.0597401 -0.026697 0.00604453 45 38 36
0.0592373 -0.0253603 0.00580269 49 40 37
0.0589126 -0.0237946 0.00593007 53 43 38
0.0584089 -0.022456 0.00568788 54 48 39
0.0579054 -0.0211173 0.00544566 57 52 44
0.0574018 -0.0197785 0.00520344 64 57 51
0.057074 -0.018203 0.0053301 61 53 54
0.0567454 -0.0166231 0.00545712 70 62 49
0.0564158 -0.015039 0.00558445 67 63 53
0.05591 -0.0136945 0.00534121 50 44 36
0.169753 -0.120298 0.142887 147 98 74
0.169062 -0.118461 0.142554 125 84 65
0.167925 -0.116771 0.141464 110 78 61
0.167236 -0.114938 0.141132 102 67 55
0.166546 -0.113105 0.140801 90 62 49
0.165416 -0.111427 0.139716 79 57 45
0.163855 -0.109914 0.137887 72 55 41
0.162305 -0.108411 0.136071 68 57 41
0.161193 -0.106757 0.135004 67 58 43
0.16051 -0.104943 0.134676 67 59 44
0.159828 -0.103128 0.134348 68 59 45
0.160424 -0.100794 0.136237 70 58 45
0.0730627 -0.103639 -0.00186415 71 57 42
0.0727806 -0.102289 -0.00175465 72 58 43
0.0724976 -0.100936 -0.001645 69 60 47
0.0655734 -0.0531842 0.00702224 65 59 48
0.0648959 -0.0520586 0.00642036 62 59 48
0.0640385 -0.051125 0.00545815 63 58 47
0.0633656 -0.0500062 0.00486063 65 62 48
0.0628737 -0.0486986 0.00462409 62 67 57
0.0654916 -0.044025 0.0106382 58 63 57
0.0651751 -0.0424833 0.0107724 51 65 59
0.0646713 -0.0411441 0.0105301 55 68 65
0.0641674 -0.0398048 0.0102878 38 69 74
0.063479 -0.0386752 0.0096704 26 73 76
0.0627923 -0.0375486 0.00905453 23 64 71
0.0621073 -0.0364248 0.0084403 20 40 45
0.0614242 -0.0353039 0.00782764 20 27 28
0.0557711 -0.0167838 0.00653762 62 58 46
0.0554402 -0.0151998 0.00666641 63 57 44
0.0549344 -0.0138551 0.00642318 44 36 31
0.166402 -0.119123 0.141764 158 103 76
0.165715 -0.117297 0.141433 138 90 70
0.165028 -0.11547 0.141103 121 78 64
0.163905 -0.113794 0.140021 107 69 54
0.162354 -0.112277 0.138198 94 64 47
0.160815 -0.110772 0.136388 83 60 42
0.15971 -0.109119 0.135324 74 59 42
0.15903 -0.107311 0.134998 69 57 42
0.15835 -0.105504 0.134671 68 56 40
0.157669 -0.103696 0.134344 70 58 41
0.156989 -0.101888 0.134017 70 59 44
0.0657931 -0.0557892 0.00892412 63 58 44
0.0651145 -0.0546588 0.00831907 63 57 42
0.06462 -0.0533445 0.00808138 61 57 40
0.0641255 -0.0520302 0.00784368 58 59 46
0.0634498 -0.0509059 0.00724073 65 63 48
0.0625961 -0.0499751 0.0062764 67 65 47
0.0633664 -0.0473077 0.00859815 65 62 51
0.0647074 -0.0439851 0.0120935 64 64 51
0.0642035 -0.0426459 0.0118513 57 59 52
0.0636996 -0.0413066 0.0116091 63 61 53
0.0631957 -0.0399672 0.0113668 52 54 52
0.0625084 -0.0388373 0.0107479 32 42 45
0.0618229 -0.0377103 0.0101307 24 35 40
0.0611392 -0.0365862 0.00951502 23 27 30
0.0551282 -0.0185242 0.00748837 38 32 26
0.0547968 -0.0169445 0.00761833 51 53 40
0.0544644 -0.0153606 0.00774853 51 46 36
0.163955 -0.117674 0.142156 171 107 83
0.162836 -0.115998 0.141074 147 95 77
0.161292 -0.114476 0.139251 124 82 62
0.160184 -0.112814 0.13818 111 72 53
0.159079 -0.111157 0.137113 97 66 47
0.157979 -0.109507 0.13605 84 60 46
0.1573 -0.107702 0.135724 75 57 43
0.156621 -0.105898 0.135397 73 57 38
0.155942 -0.104093 0.135071 72 57 38
0.155263 -0.102288 0.134745 71 58 43
0.154998 -0.100309 0.135151 70 60 51
0.06515 -0.0574476 0.00985375 66 53 46
0.0646555 -0.0561334 0.00961608 63 59 47
0.064161 -0.0548192 0.00937842 63 58 43
0.0636664 -0.0535049 0.0091407 63 54 43
0.0631719 -0.0521905 0.00890302 61 52 46
0.0626773 -0.0508759 0.0086653 65 58 45
0.0621827 -0.0495613 0.00842756 66 64 46
0.0639209 -0.043945 0.013553 64 59 46
0.0632318 -0.0428085 0.0129304 63 58 51
0.0627278 -0.0414691 0.0126882 64 61 54
0.0620411 -0.0403372 0.0120676 64 56 54
0.0613562 -0.0392082 0.0114487 48 40 37
0.060673 -0.0380821 0.0108313 30 28 27
0.160659 -0.116522 0.141046 171 107 83
0.159552 -0.114856 0.139972 143 96 70
0.158449 -0.113196 0.138902 124 83 62
0.157349 -0.111542 0.137836 110 73 56
0.156254 -0.109893 0.136774 94 65 51
0.155576 -0.108092 0.136448 84 60 45
0.154898 -0.10629 0.136122 81 58 39
0.15422 -0.104488 0.135796 76 55 37
0.153542 -0.102687 0.135471 71 56 43
0.152864 -0.100885 0.135145 71 60 50
0.0618251 -0.0617378 0.00534742 68 60 54
0.0632913 -0.0585091 0.00907539 68 58 49
0.0635206 -0.0564768 0.0103064 66 57 48
0.0630266 -0.0551642 0.010069 65 57 44
0.0627127 -0.0536653 0.0102003 64 58 46
0.0622181 -0.0523507 0.00996256 61 57 49
0.0619026 -0.050846 0.0100937 58 56 50
0.0622598 -0.0429712 0.0140097 66 59 48
0.0615737 -0.0418373 0.0133874 64 60 55
0.0608894 -0.0407063 0.0127667 67 60 56
0.0602068 -0.0395782 0.0121477 63 54 45
0.0597046 -0.0382437 0.0119064 46 43 36
0.0592024 -0.0369092 0.011665 32 35 29
0.157818 -0.115235 0.140691 167 109 83
0.15672 -0.113577 0.139622 143 96 73
0.155625 -0.111925 0.138556 122 84 64
0.154123 -0.110433 0.136761 105 72 57
0.153448 -0.108638 0.136437 94 63 51
0.152772 -0.106842 0.136112 88 59 45
0.152097 -0.105047 0.135788 79 56 44
0.151016 -0.103418 0.134735 70 56 46
0.150745 -0.101456 0.135138 68 58 45
0.0610265 -0.0635228 0.00590617 69 58 49
0.0605433 -0.0622388 0.00567402 69 57 53
0.0604065 -0.0606079 0.00615269 67 56 51
0.0618524 -0.0573629 0.00989211 67 58 50
0.061895 -0.0555084 0.0107581 69 58 47
0.0617588 -0.0538257 0.01126 68 59 46
0.0614427 -0.0523228 0.0113929 65 61 51
0.0614697 -0.0429297 0.0154721 65 59 48
0.0606028 -0.0419997 0.0144655 66 59 52
0.0599197 -0.0408683 0.0138434 66 61 51
0.0587055 -0.0403602 0.0120923 67 62 48
0.0582052 -0.0390308 0.011852 62 58 45
0.058057 -0.0372815 0.0123631 47 49 38
0.0575554 -0.0359485 0.0121221 37 38 31
0.154584 -0.114105 0.1396 160 94 74
0.153497 -0.112457 0.138538 139 93 69
0.152821 -0.110662 0.138214 117 82 61
0.151335 -0.10918 0.136426 102 70 56
0.150661 -0.107391 0.136103 94 64 54
0.149988 -0.105602 0.135779 83 64 55
0.148517 -0.104142 0.134007 72 61 54
0.147846 -0.102359 0.133684 66 59 50
0.0599566 -0.0620529 0.00742363 67 57 48
0.0605148 -0.0597157 0.00935345 66 57 49
0.0617942 -0.0566153 0.0127951 66 60 53
0.0612995 -0.0553007 0.0125575 69 60 54
0.0604961 -0.0430927 0.0165532 65 59 50
0.0596317 -0.0421621 0.0155438 69 61 47
0.0584175 -0.0416464 0.0137814 67 60 46
0.0573903 -0.0409317 0.0124118 66 61 45
0.0572403 -0.0391919 0.0129232 65 59 46
0.0590251 -0.0251113 0.0219677 42 37 36
0.0559902 -0.0269771 0.0161909 34 31 29
0.0546085 -0.0267623 0.0140236 29 29 25
0.152195 -0.112687 0.13999 150 91 68
0.15071 -0.111197 0.138197 134 84 63
0.149236 -0.109718 0.136416 121 77 58
0.148565 -0.107935 0.136093 108 73 58
0.147499 -0.106313 0.135047 93 70 58
0.146044 -0.104859 0.133287 80 66 55
0.142679 -0.104229 0.128013 73 62 51
0.141641 -0.102641 0.126999 72 61 48
0.138009 -0.102208 0.121195 73 61 44
0.135189 -0.101465 0.116869 72 57 41
0.13419 -0.0999212 0.115899 69 48 39
0.133194 -0.0983828 0.114933 66 49 36
0.132201 -0.0968496 0.11397 65 50 39
0.0598826 -0.0428466 0.0184091 68 62 51
0.0590175 -0.0419141 0.017392 70 61 44
0.0583344 -0.0407796 0.0167644 70 60 44
0.0615395 -0.0228583 0.0299454 143 58 41
0.0604391 -0.0221793 0.0284284 137 59 45
0.0591612 -0.0217481 0.0265095 94 36 24
0.0571672 -0.0222808 0.0229842 47 23 22
0.148217 -0.111879 0.137452 160 96 72
0.14676 -0.110406 0.135683 141 86 65
0.145701 -0.108787 0.134643 126 79 62
0.144647 -0.107175 0.133607 113 75 60
0.141689 -0.106362 0.129046 99 72 58
0.139162 -0.105408 0.125265 83 64 56
0.136316 -0.104628 0.120874 76 61 52
0.134593 -0.103389 0.118559 74 60 45
0.13324 -0.102003 0.116925 70 53 37
0.132247 -0.100464 0.115959 66 49 38
0.131608 -0.0987646 0.115652 63 47 36
0.130968 -0.0970648 0.115345 68 48 40
0.130328 -0.0953649 0.115038 63 54 41
0.0652541 -0.0233865 0.0388084 73 56 43
0.0641129 -0.02269 0.0372194 97 54 39
0.0631778 -0.0217517 0.0360812 135 50 30
0.060516 -0.0230284 0.0310813 160 54 31
0.0594198 -0.0223486 0.0295597 163 58 38
0.0585183 -0.0214317 0.0284679 141 42 26
0.0574378 -0.020763 0.0269676 113 20 13
0.0563662 -0.0200998 0.0254796 65 19 22
0.143539 -0.111386 0.133531 158 99 74
0.142496 -0.10978 0.132504 143 89 68
0.141078 -0.108334 0.130777 129 79 63
0.138557 -0.107363 0.126981 116 75 60
0.135716 -0.106562 0.122573 100 70 58
0.133996 -0.105314 0.120249 83 65 54
0.132646 -0.103922 0.11861 73 58 43
0.131654 -0.102379 0.117641 69 50 35
0.131014 -0.10068 0.117334 66 49 41
0.130374 -0.09898 0.117027 67 51 40
0.129735 -0.0972801 0.116719 71 56 38
0.129095 -0.0955801 0.116412 67 58 39
0.128455 -0.09388 0.116105 66 46 33
0.128505 -0.0918248 0.117117 65 53 35
0.0661021 -0.0254665 0.0422918 65 54 42
0.06475 -0.0250028 0.040231 63 54 43
0.0636109 -0.0242995 0.0386359 83 51 37
0.0630704 -0.0228636 0.0383765 117 49 27
0.0621382 -0.0219246 0.0372351 140 45 21
0.0596811 -0.022956 0.0326441 150 42 18
0.0587739 -0.0220323 0.0315377 154 45 19
0.0576863 -0.0213574 0.0300163 148 40 18
0.0564252 -0.020931 0.0280912 136 24 8
0.0553577 -0.0202669 0.0265986 83 16 18
0.0534155 -0.0208124 0.0230915 39 23 24
0.138974 -0.110904 0.129705 163 100 76
0.137217 -0.109619 0.127316 147 90 71
0.135117 -0.108498 0.124272 130 80 65
0.1334 -0.10724 0.121939 113 74 60
0.132051 -0.105841 0.120294 97 69 55
0.131061 -0.104295 0.119323 84 62 46
0.130421 -0.102595 0.119015 74 58 39
0.129781 -0.100895 0.118708 65 57 43
0.129141 -0.0991955 0.118401 61 52 44
0.128501 -0.0974955 0.118094 65 58 40
0.127861 -0.0957953 0.117787 65 59 40
0.127221 -0.094095 0.11748 63 50 37
0.126581 -0.0923946 0.117173 68 51 35
0.125941 -0.0906941 0.116866 61 45 35
0.0653926 -0.0273356 0.0432686 69 59 42
0.0646464 -0.0261322 0.0425546 68 55 41
0.0637031 -0.0251774 0.0413932 66 56 43
0.0625683 -0.0244731 0.0397932 88 52 36
0.0620278 -0.0230372 0.0395338 126 45 21
0.0609049 -0.0223448 0.0379484 138 38 14
0.0588438 -0.0228835 0.0342114 137 31 12
0.0577513 -0.0222022 0.0326724 139 33 9
0.0566679 -0.0215264 0.0311463 135 27 10
0.0555935 -0.0208562 0.0296328 132 15 5
0.0545278 -0.0201914 0.0281318 93 13 11
0.0527668 -0.0204984 0.025009 48 18 22
0.0517271 -0.0198438 0.0235471 31 22 26
0.134159 -0.11058 0.125291 161 100 77
0.132804 -0.109165 0.12363 143 90 71
0.131107 -0.10791 0.121312 128 80 63
0.130467 -0.106211 0.121005 116 75 58
0.129481 -0.104667 0.120033 103 71 55
0.129187 -0.102811 0.120391 86 66 51
0.128547 -0.101111 0.120084 71 60 45
0.127907 -0.099411 0.119776 63 53 40
0.127267 -0.0977108 0.119469 59 52 39
0.126969 -0.0958399 0.119826 66 54 40
0.126328 -0.0941366 0.119519 66 55 41
0.125687 -0.0924332 0.119211 64 47 38
0.125046 -0.0907296 0.118903 62 50 36
0.0648863 -0.0289592 0.0446975 65 58 45
0.0641408 -0.0277534 0.0439815 66 56 41
0.0635964 -0.0263074 0.0437204 67 58 39
0.062656 -0.025352 0.0425556 67 58 40
0.0615256 -0.0246469 0.0409507 88 50 33
0.0609849 -0.0232108 0.0406913 124 41 19
0.0598665 -0.0225176 0.039101 134 32 12
0.0580038 -0.0228108 0.0357832 130 29 11
0.0567286 -0.022372 0.0338074 129 31 9
0.0556494 -0.0216955 0.0322766 122 22 8
0.054579 -0.0210244 0.0307584 119 6 3
0.0535175 -0.0203588 0.0292528 100 6 4
0.05194 -0.0204237 0.0265277 67 13 15
0.0509022 -0.0197685 0.0250577 37 19 22
0.130513 -0.109826 0.122994 154 98 75
0.129527 -0.108276 0.122019 143 89 69
0.128888 -0.106579 0.121713 133 82 63
0.128249 -0.104882 0.121406 120 79 61
0.127954 -0.103027 0.121766 105 74 59
0.127313 -0.101327 0.121459 86 65 52
0.127016 -0.099462 0.121819 71 58 45
0.126717 -0.0975908 0.122181 67 53 41
0.126075 -0.0958846 0.121872 69 51 42
0.125092 -0.094352 0.120896 64 52 39
0.124112 -0.0928246 0.119923 60 52 36
0.123472 -0.0911237 0.119616 66 52 35
0.0639797 -0.0310581 0.0452142 65 58 48
0.063436 -0.0296142 0.0449534 66 58 47
0.0628923 -0.0281701 0.0446926 66 57 44
0.0623487 -0.026726 0.0444318 67 58 41
0.061413 -0.0257707 0.0432668 67 57 40
0.0604827 -0.0248207 0.0421083 79 49 34
0.0597495 -0.0236305 0.0414021 109 41 23
0.0588278 -0.0226904 0.0402538 126 33 14
0.0569753 -0.0229817 0.0369248 127 32 12
0.055889 -0.0222988 0.0353724 125 32 13
0.0546306 -0.0218646 0.0334071 116 28 11
0.0535645 -0.0211927 0.0318843 109 12 5
0.052507 -0.0205262 0.030374 101 1 3
0.0509377 -0.0205896 0.0276397 85 4 8
0.0499039 -0.0199336 0.0261652 52 12 14
0.127952 -0.108641 0.122725 159 96 73
0.127314 -0.106947 0.122419 146 88 67
0.127017 -0.105098 0.122779 132 83 65
0.12672 -0.103243 0.123141 121 79 63
0.126079 -0.101542 0.122834 105 73 59
0.126121 -0.0995132 0.123869 87 65 52
0.125479 -0.097807 0.123561 75 56 43
0.124836 -0.0961007 0.123253 71 51 42
0.123855 -0.0945676 0.122274 66 50 39
0.122878 -0.0930396 0.121299 61 58 40
0.122237 -0.0913386 0.120992 69 52 33
0.121597 -0.0896376 0.120685 71 56 35
0.0627332 -0.0314697 0.0459227 64 55 45
0.0621903 -0.0300278 0.0456623 66 57 47
0.0616473 -0.0285857 0.0454019 66 59 45
0.0611042 -0.0271436 0.0451415 67 58 42
0.0601735 -0.0261882 0.0439762 68 57 40
0.0594396 -0.0249944 0.0432662 71 53 38
0.0585174 -0.0240491 0.0421111 90 45 31
0.0576003 -0.023109 0.0409624 116 37 19
0.0557624 -0.0233957 0.0376312 125 33 14
0.0548645 -0.022469 0.0365094 125 30 14
0.0537913 -0.0217908 0.0349652 118 30 14
0.0527271 -0.0211182 0.0334338 108 23 12
0.0514964 -0.0206937 0.0314954 96 4 10
0.0501069 -0.0205151 0.0291645 88 0 7
0.0489054 -0.0200989 0.0272729 56 5 7
0.126084 -0.107162 0.12379 154 94 71
0.125446 -0.105468 0.123484 140 87 68
0.125146 -0.103616 0.123846 132 82 65
0.124845 -0.101758 0.12421 120 78 63
0.124205 -0.100058 0.123903 103 71 58
0.12424 -0.0980232 0.124941 85 62 49
0.12326 -0.0964869 0.12396 72 55 43
0.122284 -0.0949556 0.122982 68 51 40
0.12131 -0.0934294 0.122007 63 55 44
0.119682 -0.0922604 0.119713 67 50 35
0.118394 -0.0909261 0.118095 68 57 36
0.11776 -0.0892418 0.117791 60 55 40
0.0611428 -0.0302028 0.0468253 63 57 47
0.0605998 -0.0287606 0.0465649 64 58 44
0.0596704 -0.0278007 0.0453955 65 56 40
0.0589372 -0.0266046 0.0446836 68 57 39
0.0582061 -0.0254118 0.0439738 69 56 39
0.0572886 -0.0244665 0.0428183 77 51 35
0.0561901 -0.0237706 0.0412258 103 41 25
0.0547349 -0.0235665 0.0387715 121 31 15
0.0536593 -0.0228818 0.0372136 123 29 15
0.0527709 -0.0219602 0.0360977 120 25 16
0.0518872 -0.0210436 0.0349879 115 32 18
0.0506594 -0.0206188 0.0330382 102 14 14
0.0491029 -0.0206813 0.0302784 87 5 11
0.0479067 -0.0202641 0.0283808 52 9 9
0.123211 -0.106141 0.122855 154 95 73
0.122909 -0.1043 0.123215 143 87 69
0.122939 -0.102294 0.124243 130 82 65
0.122635 -0.100436 0.124607 117 76 61
0.121996 -0.0987385 0.124301 101 69 56
0.121025 -0.0972085 0.123326 83 64 49
0.119401 -0.0960226 0.121028 69 56 44
0.117793 -0.0948484 0.118754 65 53 45
0.115883 -0.0938566 0.115857 63 52 39
0.114625 -0.0925346 0.114273 62 55 37
0.113375 -0.0912211 0.1127 60 48 35
0.111214 -0.0904395 0.109255 61 48 36
0.0595521 -0.0289356 0.0477281 63 57 42
0.0584348 -0.0282149 0.0461012 62 54 39
0.0577043 -0.0270199 0.0453894 66 56 39
0.0567881 -0.0260699 0.0442299 69 53 40
0.0558771 -0.0251253 0.0430769 68 52 37
0.0549712 -0.0241859 0.0419304 83 48 28
0.0535265 -0.0239791 0.0394747 117 31 18
0.0526358 -0.0230518 0.0383494 124 32 18
0.0517501 -0.0221296 0.0372303 121 41 21
0.0508693 -0.0212124 0.0361174 119 42 23
0.0498199 -0.0205437 0.0345855 112 38 22
0.0482681 -0.0206068 0.0318092 100 29 19
0.0469079 -0.0204293 0.0294889 80 17 15
0.04573 -0.0200155 0.0276058 48 16 15
0.0445647 -0.0196061 0.0257429 24 17 17
0.119391 -0.105587 0.119964 161 99 77
0.118762 -0.103917 0.119662 143 90 68
0.118133 -0.102247 0.119361 131 82 62
0.117825 -0.100418 0.119711 120 76 59
0.117195 -0.0987448 0.119409 100 72 54
0.115612 -0.0975668 0.117162 77 64 51
0.114044 -0.0964003 0.114937 70 57 46
0.1128 -0.0950785 0.113366 64 56 43
0.111564 -0.0937653 0.111806 63 51 35
0.110336 -0.0924605 0.110256 63 42 32
0.108517 -0.0915062 0.107479 59 45 37
0.107903 -0.0898759 0.107185 65 52 36
0.0566622 -0.0271936 0.0465462 67 57 42
0.055378 -0.0267244 0.0444848 68 58 46
0.0546568 -0.0255395 0.0437802 66 59 45
0.0537556 -0.0246001 0.0426334 73 57 36
0.0525001 -0.0241497 0.0406138 115 42 23
0.0516122 -0.0232218 0.0394854 125 38 21
0.0507293 -0.0222991 0.0383631 122 44 28
0.0500254 -0.0211378 0.0376777 121 44 26
0.0489779 -0.0204684 0.0361373 118 45 28
0.0475998 -0.0202902 0.033765 111 45 29
0.0462404 -0.0201143 0.031425 100 40 29
0.045391 -0.0192195 0.030349 82 36 29
0.0432564 -0.0202441 0.0260349 58 32 26
0.0422708 -0.0196002 0.0245924 40 27 21
0.0414489 -0.0187243 0.023556 27 24 19
0.116276 -0.10474 0.118416 158 98 75
0.115651 -0.103081 0.118117 146 91 67
0.114713 -0.101579 0.117174 132 83 60
0.114089 -0.0999229 0.116875 116 77 57
0.112536 -0.0987506 0.114662 98 70 57
0.111303 -0.0974276 0.1131 84 62 51
0.109475 -0.0964397 0.110301 70 60 48
0.108562 -0.0949722 0.109387 70 49 35
0.107651 -0.0935093 0.108475 66 44 37
0.106743 -0.092051 0.107566 61 50 37
0.106131 -0.0904258 0.107273 61 51 35
0.105519 -0.0888006 0.106979 61 54 38
0.0548943 -0.0261748 0.0469901 67 62 47
0.0536217 -0.0257118 0.0449291 66 59 46
0.0525431 -0.0250132 0.0433345 68 52 44
0.0512961 -0.024561 0.0413139 87 50 37
0.0504127 -0.0236332 0.0401851 110 46 29
0.0497082 -0.0224685 0.0394962 120 45 30
0.0490057 -0.021307 0.0388092 121 47 31
0.048305 -0.0201485 0.0381241 110 50 35
0.0474359 -0.0192389 0.0370118 100 53 38
0.0460682 -0.0190689 0.0346335 94 54 39
0.0455453 -0.0176805 0.034383 88 53 39
0.0440365 -0.0177661 0.0316235 78 50 40
0.041602 -0.0192881 0.0264819 64 47 36
0.0404694 -0.0188859 0.0246424 46 42 31
0.0399616 -0.0175377 0.0243992 35 32 29
0.113201 -0.103904 0.116889 163 98 75
0.112273 -0.102411 0.115954 146 89 67
0.111043 -0.101078 0.114391 128 81 59
0.110122 -0.099596 0.113465 117 79 58
0.108905 -0.0982788 0.111917 100 75 58
0.107695 -0.0969699 0.110379 78 63 52
0.106787 -0.0955061 0.109467 71 54 43
0.105882 -0.0940469 0.108558 69 55 44
0.105271 -0.0924244 0.108265 66 52 35
0.10437 -0.0909723 0.10736 60 44 32
0.103759 -0.0893521 0.107067 66 58 38
0.102862 -0.087907 0.106165 65 58 45
0.0515121 -0.0251847 0.0444788 64 53 44
0.0500952 -0.0249712 0.0420122 72 51 42
0.0492164 -0.0240434 0.040883 85 51 39
0.048687 -0.022638 0.0406294 97 49 35
0.0481576 -0.0212325 0.0403758 102 49 35
0.0474571 -0.0200725 0.0396877 92 51 39
0.0467584 -0.0189155 0.0390013 81 54 43
0.0460617 -0.0177617 0.0383169 77 56 43
0.0431918 -0.00664359 0.0387054 46 27 25
0.0423316 -0.00576544 0.0375852 39 25 27
0.110469 -0.102926 0.116014 159 98 74
