ply
format ascii 1.0
element vertex 1197
property float x
property float y
property float z
property uchar diffuse_red
property uchar diffuse_green
property uchar diffuse_blue
end_header
0.177491 -0.252908 -0.0174245 73 69 61
0.175735 -0.254325 -0.0173864 74 69 59
0.173985 -0.255737 -0.0173486 73 67 61
0.171537 -0.256723 -0.0167058 73 64 60
0.170507 -0.258544 -0.0172735 71 64 59
0.167389 -0.259094 -0.0160333 71 66 58
0.165676 -0.26048 -0.0159987 73 66 58
0.163971 -0.261861 -0.0159644 72 67 59
0.16295 -0.263663 -0.0165266 70 67 59
0.16193 -0.265466 -0.0170889 73 63 61
0.160234 -0.266835 -0.0170525 74 63 67
0.158545 -0.268198 -0.0170164 69 67 74
0.157528 -0.269994 -0.0175766 70 70 75
0.156512 -0.271791 -0.0181368 76 68 74
0.155495 -0.273587 -0.0186971 76 69 68
0.154478 -0.275384 -0.0192574 75 68 63
0.152803 -0.276728 -0.0192172 67 68 67
0.151135 -0.278068 -0.0191772 73 66 59
0.148827 -0.278948 -0.0185416 69 63 60
0.177793 -0.250099 -0.0186688 74 69 64
0.176036 -0.251522 -0.0186284 74 72 62
0.174999 -0.253353 -0.0191995 75 70 69
0.173963 -0.255184 -0.0197706 69 70 79
0.172926 -0.257015 -0.0203417 64 70 86
0.170478 -0.257999 -0.0196859 64 70 89
0.168745 -0.259398 -0.0196438 68 77 89
0.165638 -0.259944 -0.0183898 76 84 86
0.163928 -0.261328 -0.0183507 87 95 85
0.162906 -0.263135 -0.0189142 98 105 83
0.161883 -0.264941 -0.0194777 105 107 82
0.159511 -0.265881 -0.0188345 104 113 88
0.157823 -0.267246 -0.018795 99 128 101
0.156806 -0.269043 -0.0193553 94 130 108
0.155789 -0.270839 -0.0199156 96 124 102
0.154772 -0.272636 -0.0204761 96 104 90
0.152441 -0.273541 -0.0198329 100 108 85
0.150777 -0.274884 -0.0197918 85 97 90
0.149119 -0.276222 -0.0197509 67 72 89
0.146828 -0.277106 -0.0191157 64 67 73
0.144555 -0.277984 -0.0184854 70 64 63
0.143553 -0.279753 -0.0190374 71 63 60
0.177056 -0.249125 -0.0204856 73 69 63
0.176018 -0.25096 -0.0210579 84 81 73
0.174979 -0.252794 -0.0216302 91 105 91
0.173228 -0.254212 -0.021584 83 124 113
0.172191 -0.256043 -0.0221553 68 127 129
0.169745 -0.257031 -0.0214923 58 123 139
0.168014 -0.258432 -0.0214468 54 120 142
0.16491 -0.258983 -0.0201822 52 115 137
0.163886 -0.260793 -0.0207469 53 109 124
0.16218 -0.262177 -0.0207033 59 101 109
0.16048 -0.263555 -0.0206599 64 93 97
0.158787 -0.264927 -0.0206168 67 91 94
0.157769 -0.266727 -0.0211783 68 94 95
0.15675 -0.268527 -0.0217398 65 93 95
0.155067 -0.269887 -0.0216947 67 89 92
0.15405 -0.271684 -0.0222553 67 89 95
0.151722 -0.272593 -0.0216052 64 105 110
0.150059 -0.273938 -0.0215608 60 124 137
0.148402 -0.275278 -0.0215166 66 132 143
0.146114 -0.276166 -0.0208746 81 119 113
0.143843 -0.277048 -0.0202377 81 103 93
0.142214 -0.278369 -0.0201966 73 73 82
0.138737 -0.278346 -0.0183933 72 65 67
0.135918 -0.278764 -0.0171948 73 68 60
0.17632 -0.248151 -0.0223026 68 70 67
0.175281 -0.249985 -0.022875 61 74 80
0.174242 -0.25182 -0.0234475 59 79 86
0.173203 -0.253655 -0.02402 57 84 86
0.172165 -0.25549 -0.0245925 51 84 87
0.170418 -0.256903 -0.0245406 48 83 88
0.167979 -0.257887 -0.0238683 47 83 87
0.16487 -0.258443 -0.0225868 51 82 87
0.163843 -0.260257 -0.0231528 54 78 85
0.162133 -0.261644 -0.0231045 54 75 81
0.159755 -0.262599 -0.0224459 55 75 78
0.158064 -0.263973 -0.0223994 56 73 77
0.157045 -0.265773 -0.022961 56 72 75
0.156026 -0.267573 -0.0235226 56 71 76
0.155007 -0.269373 -0.0240843 58 67 72
0.153327 -0.270732 -0.0240348 56 71 74
0.151002 -0.271645 -0.023378 48 76 81
0.14934 -0.272992 -0.0233302 31 89 93
0.147685 -0.274334 -0.0232827 40 97 103
0.145399 -0.275226 -0.0226339 56 115 115
0.143131 -0.276111 -0.0219903 67 133 135
0.141503 -0.277434 -0.0219459 77 123 131
0.138032 -0.277419 -0.0201294 81 101 97
0.135822 -0.278284 -0.019504 76 79 73
0.13423 -0.279586 -0.019465 72 67 58
0.175261 -0.249418 -0.0253186 69 72 65
0.17422 -0.251256 -0.0258923 65 69 67
0.173179 -0.253095 -0.026466 63 69 65
0.172138 -0.254934 -0.0270399 60 71 64
0.170388 -0.256351 -0.0269831 56 71 65
0.168645 -0.257762 -0.0269265 60 69 65
0.164141 -0.257481 -0.0243834 66 68 63
0.163114 -0.259294 -0.0249494 67 66 62
0.162087 -0.261108 -0.0255155 64 68 62
0.159704 -0.262067 -0.0248462 63 69 63
0.15734 -0.263019 -0.0241823 64 66 64
0.156321 -0.264819 -0.024744 64 65 64
0.155302 -0.266619 -0.0253057 64 69 66
0.154283 -0.268419 -0.0258675 66 66 62
0.152605 -0.269781 -0.0258147 68 66 62
0.150282 -0.270697 -0.025151 58 63 61
0.148622 -0.272046 -0.0250999 48 67 63
0.146968 -0.27339 -0.025049 48 65 66
0.14532 -0.274729 -0.0249983 34 76 78
0.143047 -0.275618 -0.0243444 38 94 105
0.141417 -0.276945 -0.0242955 55 124 130
0.137327 -0.276491 -0.0218658 75 138 134
0.135725 -0.277802 -0.0218222 83 120 113
0.13413 -0.279107 -0.0217789 78 85 83
0.132541 -0.280408 -0.0217357 74 65 63
0.147903 -0.2711 -0.0268698 67 72 63
0.14625 -0.272446 -0.0268156 65 67 61
0.144604 -0.273786 -0.0267617 53 65 59
0.142334 -0.274679 -0.026101 44 64 66
0.14133 -0.276453 -0.0266545 36 78 87
0.137233 -0.276003 -0.0241976 49 114 116
0.135021 -0.276876 -0.0235557 72 139 134
0.13403 -0.278626 -0.0241019 84 127 127
0.132438 -0.27993 -0.0240544 81 86 92
0.130852 -0.28123 -0.024007 73 61 64
0.175944 -0.248684 -0.0308772 74 73 62
0.17562 -0.250948 -0.0320994 73 69 62
0.17457 -0.252802 -0.032678 73 69 61
0.173521 -0.254656 -0.0332567 70 68 61
0.171039 -0.255662 -0.0325414 68 69 62
0.169284 -0.257083 -0.0324736 68 67 61
0.166135 -0.25765 -0.0311281 68 63 61
0.164404 -0.259056 -0.0310637 66 65 62
0.162679 -0.260457 -0.0309996 64 68 62
0.158251 -0.260151 -0.0284268 66 68 61
0.155893 -0.26111 -0.027749 68 65 63
0.154873 -0.26291 -0.0283109 72 63 61
0.153854 -0.264711 -0.0288729 73 68 60
0.152177 -0.266079 -0.0288143 71 68 60
0.150506 -0.267442 -0.028756 75 63 61
0.148842 -0.268801 -0.0286979 70 63 60
0.147828 -0.270591 -0.0292568 70 73 63
0.145532 -0.271501 -0.0285826 69 66 61
0.144522 -0.273285 -0.0291393 68 65 60
0.142879 -0.274624 -0.029081 63 62 61
0.140616 -0.275514 -0.0284115 40 61 64
0.13837 -0.276397 -0.0277473 27 71 75
0.135531 -0.276831 -0.0264863 41 105 106
0.133325 -0.2777 -0.0258357 75 139 137
0.132334 -0.279451 -0.0263821 93 130 127
0.130745 -0.280754 -0.0263304 79 84 84
0.129162 -0.282052 -0.0262789 70 63 60
0.176974 -0.246256 -0.032779 75 74 65
0.176652 -0.248519 -0.0340077 74 77 79
0.1756 -0.250377 -0.0345875 75 83 84
0.174548 -0.252234 -0.0351675 79 87 83
0.173496 -0.254092 -0.0357474 83 91 83
0.171725 -0.255525 -0.0356728 85 95 83
0.169251 -0.256528 -0.0349478 86 97 83
0.166796 -0.257523 -0.0342288 88 100 83
0.164361 -0.25851 -0.0335156 92 104 84
0.162633 -0.259914 -0.0334466 95 104 84
0.157524 -0.259192 -0.0302175 97 107 82
0.155169 -0.260155 -0.0295328 97 105 84
0.154149 -0.261956 -0.0300949 98 102 81
0.15313 -0.263756 -0.0306569 90 97 80
0.151454 -0.265127 -0.030595 76 86 78
0.149784 -0.266492 -0.0305333 70 71 81
0.148121 -0.267852 -0.0304718 68 62 78
0.147107 -0.269643 -0.0310308 71 67 67
0.146094 -0.271433 -0.0315898 69 64 62
0.143805 -0.272341 -0.0309067 68 65 64
0.142794 -0.274124 -0.0314636 69 66 63
0.140527 -0.275018 -0.0307837 54 67 62
0.138898 -0.276349 -0.0307226 28 56 59
0.136658 -0.277229 -0.0300496 19 63 74
0.133828 -0.277658 -0.0287755 52 110 113
0.13223 -0.278969 -0.0287191 90 147 142
0.130638 -0.280276 -0.0286629 86 117 116
0.129052 -0.281577 -0.028607 78 65 58
0.177688 -0.24608 -0.0359238 64 79 76
0.176634 -0.247941 -0.0365049 58 97 112
0.17558 -0.249803 -0.0370861 58 115 131
0.174526 -0.251664 -0.0376673 62 122 132
0.172749 -0.253105 -0.0375887 65 121 128
0.171697 -0.254963 -0.0381688 65 120 125
0.169218 -0.255971 -0.0374325 64 119 122
0.166758 -0.25697 -0.0367021 64 118 119
0.164318 -0.257961 -0.0359777 64 114 117
0.162587 -0.25937 -0.0359037 69 110 114
0.159496 -0.25992 -0.0345461 69 111 111
0.155108 -0.25962 -0.0319437 69 111 110
0.154086 -0.261424 -0.032507 71 110 109
0.152405 -0.262802 -0.0324413 67 112 113
0.150731 -0.264174 -0.032376 63 116 121
0.149062 -0.265541 -0.0323109 56 110 127
0.148047 -0.267335 -0.032871 65 100 113
0.147031 -0.26913 -0.0334311 84 95 89
0.145373 -0.270485 -0.0333643 78 86 80
0.144359 -0.272276 -0.0339234 68 70 79
0.142709 -0.273622 -0.0338558 67 67 67
0.141066 -0.274964 -0.0337884 54 66 63
0.139429 -0.276301 -0.0337214 30 55 57
0.137798 -0.277632 -0.0336546 13 48 59
0.135559 -0.278509 -0.0329691 30 78 86
0.133945 -0.279829 -0.0329043 65 124 126
0.131131 -0.280244 -0.031614 82 122 128
0.129537 -0.28155 -0.0315523 79 67 62
0.178408 -0.245902 -0.0390945 67 70 66
0.177349 -0.247772 -0.0396781 58 78 80
0.176291 -0.249641 -0.0402618 52 87 90
0.174503 -0.251092 -0.0401777 47 89 93
0.172723 -0.252537 -0.0400938 47 88 93
0.17095 -0.253977 -0.0400105 48 89 92
0.169184 -0.255411 -0.0399274 47 89 91
0.166017 -0.255991 -0.0385292 44 87 90
0.164275 -0.25741 -0.0384499 41 86 91
0.16254 -0.258823 -0.0383709 40 84 92
0.159444 -0.259377 -0.036996 38 83 90
0.155714 -0.259503 -0.0349997 35 83 89
0.153361 -0.260467 -0.0342951 34 85 90
0.152339 -0.262271 -0.0348585 31 89 92
0.150007 -0.263221 -0.0341573 33 97 102
0.148341 -0.264591 -0.0340888 35 97 104
0.147325 -0.266385 -0.034649 46 94 100
0.146309 -0.268179 -0.0352093 64 99 101
0.145292 -0.269973 -0.0357696 67 115 114
0.143638 -0.271327 -0.0356983 66 103 112
0.142623 -0.273118 -0.0362576 74 94 88
0.140977 -0.274464 -0.0361856 55 73 69
0.139337 -0.275804 -0.0361138 25 53 58
0.137703 -0.277139 -0.0360424 12 47 53
0.136076 -0.278469 -0.0359713 16 61 67
0.134455 -0.279794 -0.0359005 39 93 102
0.13345 -0.281569 -0.0364547 73 107 114
0.130627 -0.281975 -0.0351391 76 65 63
0.17881 -0.248014 -0.0435552 70 69 61
0.177745 -0.249895 -0.0441426 65 70 62
0.17448 -0.250517 -0.0426986 59 69 65
0.172697 -0.251966 -0.0426096 58 71 64
0.17092 -0.25341 -0.042521 59 74 63
0.16915 -0.254848 -0.0424329 56 73 64
0.165977 -0.255433 -0.0410167 55 70 65
0.164231 -0.256856 -0.0409324 56 70 65
0.161801 -0.257848 -0.0401913 57 68 65
0.159391 -0.258832 -0.039456 52 68 64
0.154985 -0.258542 -0.0367951 49 69 63
0.15396 -0.260353 -0.0373608 49 68 60
0.151613 -0.261315 -0.036647 43 68 63
0.149284 -0.262268 -0.0359389 41 66 63
0.147619 -0.26364 -0.035867 43 68 64
0.146602 -0.265434 -0.0364273 35 67 68
0.14623 -0.267662 -0.0376232 30 69 81
0.145212 -0.26946 -0.0381847 35 89 98
0.142917 -0.270379 -0.0374735 46 104 110
0.141902 -0.27217 -0.0380329 65 112 108
0.140257 -0.273517 -0.0379575 48 78 83
0.139245 -0.275305 -0.0385159 21 50 61
0.137608 -0.276644 -0.0384398 11 47 53
0.135977 -0.277978 -0.038364 11 55 63
0.134968 -0.279759 -0.0389204 28 76 90
0.13396 -0.281541 -0.0394768 69 94 99
0.13173 -0.282405 -0.0387677 76 65 61
0.14588 -0.264483 -0.038206 50 65 61
0.145506 -0.266709 -0.0394054 39 58 63
0.144488 -0.268507 -0.039967 29 57 62
0.142831 -0.269867 -0.0398876 24 62 70
0.141181 -0.271221 -0.0398085 31 78 86
0.140166 -0.273013 -0.0403681 22 64 77
0.138525 -0.274359 -0.0402883 11 49 61
0.137512 -0.276147 -0.0408468 10 49 55
0.135878 -0.277485 -0.0407663 11 56 61
0.134867 -0.27927 -0.0413239 29 76 85
0.133856 -0.281055 -0.0418814 69 91 95
0.132233 -0.28238 -0.0417992 73 66 58
0.145158 -0.263532 -0.0399849 65 64 58
0.144782 -0.265756 -0.041188 62 61 61
0.143764 -0.267554 -0.0417497 50 61 58
0.142745 -0.269353 -0.0423115 35 52 54
0.141092 -0.270711 -0.0422276 20 47 50
0.139445 -0.272064 -0.0421441 12 46 51
0.13843 -0.273856 -0.0427038 9 48 52
0.137415 -0.275648 -0.0432636 10 49 54
0.135778 -0.276989 -0.0431784 13 58 61
0.134765 -0.278778 -0.0437371 29 80 83
0.133752 -0.280566 -0.0442958 65 86 94
0.132126 -0.281896 -0.0442089 72 64 57
0.181779 -0.247914 -0.0540533 72 68 61
0.180698 -0.249823 -0.0546496 72 69 63
0.179617 -0.251731 -0.0552459 72 70 62
0.177037 -0.252779 -0.0544194 73 70 62
0.173743 -0.253391 -0.0528973 74 68 60
0.169047 -0.253146 -0.0500123 74 67 59
0.16515 -0.253325 -0.0478625 72 68 60
0.162701 -0.254338 -0.0470892 68 67 61
0.160961 -0.255763 -0.046993 69 65 60
0.158544 -0.25676 -0.046228 66 65 61
0.152799 -0.255658 -0.042183 68 63 59
0.151772 -0.25747 -0.042749 65 63 58
0.150746 -0.259282 -0.0433152 65 65 59
0.147761 -0.259827 -0.0419306 68 63 59
0.146095 -0.261207 -0.0418472 72 62 59
0.145077 -0.263005 -0.042409 68 64 56
0.144058 -0.264803 -0.0429709 65 65 59
0.143039 -0.266601 -0.0435327 64 63 58
0.142021 -0.2684 -0.0440946 58 59 56
0.141002 -0.270199 -0.0446566 37 50 51
0.139352 -0.271555 -0.0445682 18 45 50
0.137708 -0.272907 -0.0444803 11 46 50
0.136693 -0.274699 -0.0450401 12 49 51
0.135678 -0.276491 -0.0456 18 60 62
0.134663 -0.278284 -0.04616 38 81 80
0.133648 -0.280076 -0.0467199 65 80 87
0.184386 -0.246241 -0.0575033 74 70 65
0.182533 -0.247739 -0.0573812 84 87 72
0.181447 -0.249656 -0.0579801 96 98 76
0.180362 -0.251573 -0.0585791 100 103 76
0.177768 -0.252626 -0.0577354 103 108 78
0.175196 -0.25367 -0.0568987 103 108 78
0.170457 -0.253422 -0.053955 101 106 76
0.165107 -0.252758 -0.0503854 97 106 79
0.163352 -0.254195 -0.050282 93 103 79
0.16091 -0.255205 -0.0494991 93 95 78
0.157805 -0.255785 -0.0480497 91 94 78
0.152069 -0.254697 -0.0439796 94 97 77
0.151043 -0.256509 -0.0445457 90 93 74
0.150017 -0.258321 -0.045112 84 84 71
0.147685 -0.259291 -0.0443682 81 81 72
0.146662 -0.261096 -0.0449322 71 71 72
0.14564 -0.262901 -0.0454963 65 64 66
0.144617 -0.264707 -0.0460605 64 65 61
0.143594 -0.266512 -0.0466246 67 62 57
0.142572 -0.268318 -0.0471889 68 63 58
0.140912 -0.269684 -0.0470953 51 59 56
0.139259 -0.271045 -0.0470021 25 49 51
0.137612 -0.2724 -0.0469094 12 44 49
0.135971 -0.27375 -0.046817 9 47 54
0.134956 -0.275543 -0.047377 20 61 65
0.133941 -0.277335 -0.0479371 52 83 75
0.132926 -0.279128 -0.0484972 64 75 72
0.184383 -0.245638 -0.060136 66 78 81
0.182526 -0.24714 -0.0600084 67 97 99
0.181438 -0.249061 -0.0606086 76 104 102
0.179591 -0.250554 -0.0604803 81 106 98
0.178505 -0.252471 -0.0610794 86 110 96
0.175918 -0.25352 -0.0602255 86 109 96
0.171152 -0.253272 -0.0572355 88 109 95
0.165064 -0.252189 -0.0529189 86 108 94
0.163306 -0.25363 -0.0528103 88 107 94
0.160167 -0.254223 -0.051332 87 100 92
0.157065 -0.25481 -0.0498717 91 102 92
0.152665 -0.254559 -0.0470973 91 108 93
0.150973 -0.255962 -0.047003 90 107 91
0.149287 -0.257359 -0.0469091 85 101 91
0.147608 -0.258752 -0.0468156 76 106 105
0.146583 -0.260561 -0.0473809 60 100 112
0.145559 -0.26237 -0.0479462 62 91 101
0.146481 -0.265477 -0.0505092 71 84 78
0.14545 -0.267297 -0.0510779 69 70 69
0.143126 -0.268236 -0.0503079 69 68 65
0.140821 -0.269167 -0.049544 58 64 58
0.139165 -0.270532 -0.0494459 34 53 50
0.136888 -0.271449 -0.0486899 14 44 47
0.135871 -0.273245 -0.0492511 6 47 57
0.134234 -0.274594 -0.0491544 18 63 72
0.133219 -0.276386 -0.0497145 59 92 78
0.132203 -0.278179 -0.0502747 64 71 64
0.18438 -0.245031 -0.0627802 63 72 73
0.182519 -0.246539 -0.0626468 58 78 85
0.181428 -0.248464 -0.0632485 59 81 89
0.179577 -0.249961 -0.0631145 58 79 86
0.177733 -0.251452 -0.0629811 56 78 86
0.17515 -0.252506 -0.0621193 56 77 85
0.170392 -0.252268 -0.05911 56 77 85
0.16573 -0.252036 -0.0561621 56 76 84
0.163259 -0.253062 -0.0553491 54 75 84
0.160807 -0.25408 -0.0545428 55 74 83
0.157689 -0.25467 -0.0530573 58 75 83
0.152598 -0.254006 -0.0495697 57 74 84
0.151565 -0.255829 -0.0501394 50 75 86
0.149872 -0.257232 -0.0500391 39 81 91
0.148841 -0.259052 -0.0506078 36 96 106
0.146504 -0.260023 -0.0498395 39 109 120
0.147434 -0.263122 -0.052419 56 108 114
0.147714 -0.265819 -0.0543466 74 116 102
0.146677 -0.26765 -0.0549188 68 102 101
0.144334 -0.268594 -0.054129 67 86 90
0.141369 -0.269088 -0.0526728 65 72 71
0.13907 -0.270016 -0.0518997 43 53 53
0.13679 -0.270938 -0.0511327 19 43 48
0.135147 -0.272294 -0.0510321 8 47 60
0.13413 -0.27409 -0.0515934 19 63 75
0.133113 -0.275886 -0.0521548 60 91 81
0.131481 -0.27723 -0.0520525 66 67 62
0.150831 -0.254861 -0.0519478 50 68 69
0.149798 -0.256684 -0.0525177 36 68 69
0.148765 -0.258508 -0.0530877 31 68 66
0.147732 -0.260331 -0.0536578 32 66 67
0.148014 -0.263017 -0.0555903 32 65 73
0.147636 -0.265286 -0.0568491 36 88 95
0.146596 -0.267121 -0.0574227 48 110 117
0.144902 -0.268511 -0.0573075 68 117 117
0.142566 -0.269451 -0.0565084 68 97 93
0.138976 -0.269499 -0.0543634 44 63 62
0.136691 -0.270425 -0.0535853 19 46 50
0.135045 -0.271784 -0.0534799 9 50 62
0.133406 -0.273139 -0.0533748 19 66 82
0.132389 -0.274935 -0.0539363 62 93 90
0.131371 -0.276732 -0.0544978 70 62 59
0.149064 -0.255717 -0.0543266 61 64 66
0.14869 -0.257961 -0.0555778 61 64 63
0.148314 -0.260215 -0.0568342 61 65 62
0.147936 -0.262478 -0.0580956 39 65 61
0.146896 -0.264313 -0.0586693 22 60 64
0.146515 -0.266589 -0.059937 21 61 71
0.144817 -0.267983 -0.0598167 34 81 89
0.143126 -0.269372 -0.0596968 33 81 92
0.138246 -0.26854 -0.0561588 19 57 70
0.135964 -0.269469 -0.0553738 12 44 52
0.13432 -0.270831 -0.055265 8 52 63
0.132682 -0.272188 -0.0551566 18 72 81
0.131664 -0.273984 -0.0557182 62 96 94
0.130647 -0.275781 -0.0562798 68 63 58
0.184047 -0.245561 -0.0721502 74 65 60
0.18217 -0.24708 -0.0719962 74 66 60
0.179535 -0.248166 -0.0710857 72 65 60
0.174671 -0.247971 -0.0679454 71 65 60
0.17137 -0.248617 -0.0663303 69 65 59
0.164531 -0.247182 -0.0611453 67 65 59
0.161365 -0.247819 -0.0596078 65 64 60
0.158926 -0.248856 -0.0587862 69 64 62
0.156506 -0.249885 -0.0579712 73 61 59
0.153433 -0.250497 -0.0564744 69 65 59
0.150396 -0.251102 -0.0549954 66 64 57
0.149363 -0.252925 -0.0555655 67 64 58
0.148989 -0.255164 -0.0568194 65 65 63
0.148613 -0.257412 -0.0580783 67 68 64
0.147576 -0.259243 -0.0586508 69 66 59
0.147197 -0.261505 -0.059916 65 68 57
0.146816 -0.263775 -0.0611863 55 66 59
0.145774 -0.265614 -0.0617612 33 64 65
0.144732 -0.267453 -0.0623362 24 67 73
0.142388 -0.268401 -0.061514 22 67 72
0.140062 -0.269342 -0.0606984 15 55 59
0.135863 -0.268952 -0.0578403 6 42 51
0.133594 -0.269878 -0.0570504 3 53 64
0.132575 -0.271678 -0.0576132 17 74 83
0.131555 -0.273478 -0.058176 61 94 100
0.130535 -0.275278 -0.0587388 76 65 58
0.185931 -0.243417 -0.0750101 74 69 63
0.184042 -0.244947 -0.0748495 89 84 71
0.182161 -0.246471 -0.0746896 94 94 74
0.180288 -0.247989 -0.0745304 90 92 73
0.173901 -0.246953 -0.0698444 87 90 72
0.169873 -0.247188 -0.067482 85 90 71
0.163778 -0.246188 -0.063002 82 86 71
0.15923 -0.246019 -0.060045 78 85 70
0.156809 -0.24706 -0.059225 77 82 70
0.153733 -0.247689 -0.0577207 78 74 66
0.150033 -0.247909 -0.0555532 72 75 66
0.148346 -0.249326 -0.0554427 72 73 68
0.147971 -0.251549 -0.0566914 67 69 67
0.148913 -0.254609 -0.0593225 68 67 69
0.147876 -0.256441 -0.0598951 66 64 64
0.146838 -0.258272 -0.0604677 68 61 60
0.146457 -0.260531 -0.0617366 71 65 59
0.146075 -0.262799 -0.0630107 68 71 64
0.145033 -0.264638 -0.0635857 58 82 82
0.143991 -0.266477 -0.0641608 49 94 99
0.14165 -0.26743 -0.0633314 31 82 91
0.139968 -0.268817 -0.0632052 10 55 69
0.137656 -0.269755 -0.0623846 4 47 61
0.134111 -0.269801 -0.060198 4 59 70
0.131849 -0.270724 -0.059399 20 78 82
0.130829 -0.272524 -0.0599619 60 91 100
0.129809 -0.274325 -0.0605248 74 66 57
0.185145 -0.242377 -0.0769495 69 74 73
0.184037 -0.244331 -0.0775607 80 95 88
0.182152 -0.24586 -0.0773948 88 110 93
0.179506 -0.246956 -0.0764579 85 112 96
0.172389 -0.245519 -0.0709962 86 113 97
0.169109 -0.246179 -0.0693657 86 114 97
0.162321 -0.244787 -0.0641421 87 113 98
0.157111 -0.244234 -0.060479 85 112 96
0.154034 -0.24488 -0.0589673 83 111 96
0.150331 -0.245122 -0.0567899 81 108 95
0.147337 -0.245754 -0.0553209 76 107 97
0.146312 -0.247563 -0.0558867 73 105 99
0.147238 -0.250582 -0.0584974 61 94 104
0.147517 -0.253224 -0.0604458 59 82 102
0.147138 -0.255469 -0.0617122 64 77 88
0.1461 -0.2573 -0.0622849 69 74 73
0.145718 -0.259557 -0.0635575 70 74 72
0.145334 -0.261824 -0.0648354 66 93 94
0.144292 -0.263663 -0.0654105 60 116 121
0.142598 -0.265064 -0.0652796 46 110 120
0.140911 -0.266459 -0.0651492 27 89 100
0.139873 -0.268291 -0.0657222 29 90 91
0.138195 -0.269677 -0.0655913 39 92 92
0.13589 -0.270611 -0.0647614 30 81 87
0.132358 -0.270651 -0.0625562 40 80 78
0.131334 -0.272459 -0.0631215 65 86 91
0.13031 -0.274266 -0.0636868 69 71 59
0.18593 -0.242172 -0.0804565 57 69 73
0.183251 -0.243291 -0.0795006 52 76 86
0.182143 -0.245246 -0.0801119 51 80 88
0.178725 -0.245923 -0.0783856 50 82 91
0.17162 -0.244503 -0.0728919 50 85 94
0.168345 -0.245169 -0.0712498 48 87 97
0.159479 -0.242594 -0.0638514 44 89 102
0.154335 -0.242071 -0.0602139 45 93 103
0.15063 -0.242336 -0.0580267 45 97 104
0.147633 -0.242984 -0.0565505 47 103 109
0.146608 -0.244793 -0.0571164 46 110 116
0.145583 -0.246602 -0.0576823 47 116 125
0.145853 -0.249213 -0.0596159 47 126 136
0.146126 -0.251844 -0.0615649 52 127 134
0.145745 -0.254081 -0.0628311 69 123 119
0.145362 -0.256328 -0.0641024 82 122 106
0.144325 -0.25816 -0.0646753 75 118 113
0.143939 -0.260419 -0.0659529 68 135 138
0.142898 -0.262255 -0.066527 53 128 140
0.141211 -0.263655 -0.0663943 42 115 126
0.140173 -0.265487 -0.0669673 46 121 124
0.139135 -0.267319 -0.0675404 57 131 132
0.138096 -0.269152 -0.0681135 56 119 123
0.136421 -0.270536 -0.067978 31 77 92
0.135385 -0.272365 -0.0685501 51 82 75
0.131843 -0.272392 -0.0663064 61 76 77
0.144588 -0.243055 -0.0575526 39 73 72
0.144209 -0.245248 -0.058796 33 74 71
0.143186 -0.247054 -0.0593609 27 75 72
0.144092 -0.250065 -0.0619873 30 72 74
0.144357 -0.2527 -0.063946 38 83 91
0.143323 -0.254524 -0.0645166 56 121 123
0.142937 -0.256767 -0.0657889 68 152 152
0.142548 -0.259019 -0.0670663 58 142 153
0.14151 -0.260851 -0.0676394 46 134 146
0.140472 -0.262683 -0.0682125 52 143 149
0.139434 -0.264516 -0.0687857 65 147 151
0.138396 -0.266348 -0.0693589 67 138 141
0.137357 -0.268181 -0.0699322 49 104 109
0.136957 -0.270461 -0.0712207 27 77 81
0.13528 -0.271846 -0.0710788 65 88 79
0.134242 -0.273679 -0.0716522 66 69 66
0.143222 -0.241713 -0.0586624 65 64 61
0.142203 -0.243512 -0.0592252 61 68 62
0.14182 -0.245702 -0.0604695 52 71 71
0.141435 -0.247901 -0.0617188 49 80 87
0.141048 -0.250109 -0.062973 56 122 120
0.140023 -0.251919 -0.0635393 64 153 155
0.14027 -0.254551 -0.0654965 58 141 158
0.139879 -0.256786 -0.0667658 53 139 152
0.140128 -0.259454 -0.0687477 62 154 158
0.139734 -0.261712 -0.0700311 72 158 163
0.138695 -0.263544 -0.0706045 72 144 149
0.138297 -0.265815 -0.0718943 67 120 122
0.137257 -0.267651 -0.0724688 49 95 99
0.136216 -0.269488 -0.0730434 24 62 79
0.135175 -0.271324 -0.073618 68 95 86
0.134135 -0.273161 -0.0741926 71 64 62
0.185927 -0.240284 -0.0887167 66 69 63
0.184807 -0.24226 -0.089335 66 67 67
0.1462 -0.235733 -0.0594391 70 66 61
0.143259 -0.236413 -0.0579693 66 69 59
0.142243 -0.238205 -0.05853 68 61 56
0.141228 -0.239997 -0.0590907 73 60 60
0.140212 -0.241789 -0.0596514 66 68 69
0.139826 -0.243967 -0.0608918 55 86 92
0.139439 -0.246155 -0.0621371 67 133 125
0.138419 -0.247954 -0.0627002 67 159 158
0.1374 -0.249753 -0.0632632 58 145 157
0.138267 -0.252768 -0.0659027 55 147 159
0.138508 -0.255404 -0.0678694 69 164 167
0.13875 -0.258061 -0.0698518 78 165 169
0.138354 -0.260312 -0.0711351 73 145 152
0.137956 -0.262572 -0.0724235 72 124 128
0.138198 -0.26528 -0.0744402 67 106 110
0.137156 -0.26712 -0.0750159 38 73 86
0.136113 -0.26896 -0.0755918 16 59 78
0.13507 -0.2708 -0.0761676 69 101 94
0.134027 -0.272641 -0.0767435 70 62 56
0.186251 -0.237256 -0.0900603 69 67 64
0.185131 -0.239232 -0.0906787 68 75 79
0.143552 -0.233669 -0.0591875 71 69 64
0.141272 -0.234724 -0.0583987 62 69 62
0.14026 -0.236509 -0.0589573 68 65 64
0.139876 -0.238669 -0.0601916 62 65 72
0.13949 -0.240837 -0.0614306 56 87 101
0.138474 -0.242629 -0.0619915 72 146 138
0.137459 -0.244421 -0.0625525 64 162 162
0.136443 -0.246214 -0.0631134 59 146 157
0.136049 -0.248401 -0.0643608 59 151 160
0.135654 -0.250598 -0.0656132 72 166 170
0.136511 -0.253618 -0.0682667 78 164 171
0.138014 -0.257093 -0.0716637 73 144 152
0.138256 -0.259767 -0.0736693 71 126 128
0.138499 -0.262464 -0.0756911 66 106 112
0.138099 -0.264742 -0.0769965 48 73 87
0.137054 -0.266586 -0.0775735 24 52 59
0.136009 -0.26843 -0.0781507 9 63 76
0.134964 -0.270274 -0.0787278 68 104 100
0.133919 -0.272118 -0.079305 66 64 60
0.140689 -0.229137 -0.0570453 97 111 92
0.138441 -0.2302 -0.0562724 81 101 94
0.137439 -0.231968 -0.0568256 60 88 96
0.136437 -0.233735 -0.057379 58 79 103
0.136049 -0.235869 -0.0585983 57 91 113
0.136277 -0.238382 -0.0604948 79 155 151
0.135886 -0.240538 -0.0617274 64 161 166
0.135494 -0.242701 -0.0629649 61 150 162
0.134482 -0.244487 -0.0635238 62 156 169
0.134704 -0.247054 -0.0654545 74 168 174
0.134307 -0.249244 -0.0667066 78 161 170
0.135781 -0.252657 -0.0700645 74 141 151
0.137278 -0.256124 -0.0734759 72 125 128
0.138157 -0.25922 -0.0762141 66 106 112
0.1384 -0.26192 -0.0782501 47 72 86
0.137999 -0.264202 -0.0795635 25 49 56
0.136952 -0.266049 -0.0801418 15 45 48
0.135904 -0.267897 -0.0807202 11 67 73
0.134857 -0.269745 -0.0812986 62 97 101
0.133174 -0.271141 -0.0811362 66 68 61
0.133043 -0.221997 -0.0497815 53 93 106
0.133254 -0.224401 -0.0516013 51 110 123
0.133466 -0.226823 -0.0534351 52 124 140
0.13368 -0.229263 -0.0552829 46 136 157
0.132688 -0.231014 -0.055831 58 163 175
0.132296 -0.233122 -0.0570359 80 174 172
0.133721 -0.236332 -0.0602416 66 160 170
0.133327 -0.23847 -0.0614667 66 154 163
0.132932 -0.240618 -0.0626965 65 160 173
0.132536 -0.242773 -0.0639312 76 171 179
0.13275 -0.245324 -0.0658561 77 161 172
0.132965 -0.247895 -0.067796 72 139 150
0.135679 -0.252102 -0.072572 72 124 128
0.137178 -0.255572 -0.0760103 71 104 110
0.138701 -0.259098 -0.0795038 58 74 86
0.138301 -0.261374 -0.0808199 31 50 58
0.137898 -0.263659 -0.0821411 13 44 46
0.136206 -0.265069 -0.0819767 12 44 50
0.135159 -0.266917 -0.0825552 23 72 70
0.134111 -0.268766 -0.0831337 59 87 96
0.133064 -0.270614 -0.0837123 67 66 58
0.129209 -0.217088 -0.0465522 57 71 68
0.129402 -0.219441 -0.0483362 56 68 71
0.130184 -0.222143 -0.0507676 50 71 75
0.130975 -0.224876 -0.0532265 44 80 91
0.131178 -0.227295 -0.0550631 53 108 132
0.130191 -0.229036 -0.0556083 80 169 174
0.129797 -0.231128 -0.0568059 65 159 175
0.129997 -0.233586 -0.0586668 69 158 165
0.131401 -0.236793 -0.061879 71 161 176
0.131609 -0.239301 -0.0637811 82 175 179
0.13121 -0.24145 -0.0650156 78 161 170
0.130204 -0.243225 -0.0655715 70 138 148
0.131017 -0.246162 -0.068189 69 125 128
0.136841 -0.252361 -0.0765299 67 114 116
0.137716 -0.255435 -0.0792864 66 90 96
0.138603 -0.258546 -0.0820763 56 59 64
0.138201 -0.260825 -0.0834002 24 44 45
0.137151 -0.262677 -0.08398 10 42 44
0.136102 -0.264529 -0.0845597 12 43 50
0.135052 -0.266381 -0.0851394 40 77 70
0.133365 -0.267786 -0.0849692 59 81 85
0.127366 -0.215548 -0.0470048 65 64 63
0.126401 -0.21725 -0.0475377 61 63 69
0.127739 -0.220244 -0.0505765 57 75 79
0.128512 -0.22295 -0.0530207 63 119 123
0.129293 -0.225687 -0.0554925 84 170 173
0.128309 -0.227422 -0.0560357 67 157 174
0.127913 -0.229504 -0.0572298 73 165 167
0.127515 -0.231593 -0.0584285 74 164 176
0.127706 -0.234048 -0.0602921 82 175 179
0.129089 -0.237252 -0.0635107 80 160 166
0.129288 -0.239758 -0.0654156 73 137 145
0.128885 -0.241904 -0.0666511 69 124 127
0.128481 -0.244058 -0.0678913 63 118 117
0.136739 -0.251801 -0.0790708 60 117 118
0.138259 -0.255296 -0.0825891 69 109 110
0.138503 -0.257991 -0.0846595 65 76 72
0.137454 -0.259843 -0.0852392 27 41 43
0.136404 -0.261695 -0.085819 11 41 43
0.135354 -0.263546 -0.0863989 11 43 51
0.134305 -0.265398 -0.0869788 52 82 71
0.133255 -0.267251 -0.0875587 61 77 72
0.125928 -0.212016 -0.046307 66 62 64
0.126107 -0.214329 -0.0480738 62 68 67
0.125715 -0.216344 -0.0492287 57 83 87
0.125322 -0.218365 -0.0503879 69 129 124
0.126076 -0.221046 -0.0528174 82 174 174
0.126839 -0.223757 -0.0552743 68 156 174
0.126442 -0.22582 -0.0564602 74 170 171
0.126043 -0.227891 -0.0576508 75 170 176
0.126227 -0.230318 -0.0595009 83 176 178
0.125241 -0.232056 -0.0600454 79 158 163
0.126009 -0.234867 -0.0625765 73 135 141
0.126786 -0.23771 -0.0651368 72 122 123
0.127571 -0.240587 -0.0677267 68 102 105
0.127166 -0.242735 -0.0689668 50 84 90
0.136637 -0.251238 -0.0816223 38 85 90
0.138159 -0.254736 -0.0851684 47 92 96
0.137756 -0.257008 -0.0864987 48 72 79
0.137352 -0.25929 -0.0878345 26 39 42
0.135657 -0.260712 -0.0876585 12 42 40
0.134607 -0.262564 -0.0882384 9 43 58
0.133557 -0.264416 -0.0888184 57 89 77
0.132507 -0.266268 -0.0893985 63 71 64
0.12507 -0.208822 -0.0462287 67 64 61
0.124679 -0.210811 -0.0473717 64 68 68
0.124286 -0.212807 -0.0485189 58 86 89
0.124459 -0.215124 -0.050294 75 144 133
0.124064 -0.21714 -0.0514532 79 171 172
0.123667 -0.219163 -0.0526167 70 153 171
0.124412 -0.221849 -0.0550588 75 169 176
0.124588 -0.22423 -0.0568819 77 170 178
0.124187 -0.22629 -0.0580688 82 177 178
0.124363 -0.228702 -0.0599137 79 158 160
0.12396 -0.230782 -0.0611132 72 134 137
0.123555 -0.232871 -0.0623172 71 122 119
0.124313 -0.235686 -0.0648615 70 103 100
0.125079 -0.238535 -0.0674351 64 78 80
0.12645 -0.241793 -0.0707279 52 63 67
0.136535 -0.250673 -0.0841843 40 62 65
0.137413 -0.253755 -0.0870041 33 61 65
0.137655 -0.256449 -0.0890966 24 48 60
0.136603 -0.258305 -0.0896778 17 39 40
0.135551 -0.260161 -0.090259 11 42 40
0.13386 -0.261581 -0.0900783 6 44 67
0.13281 -0.263434 -0.0906584 57 92 87
0.131759 -0.265286 -0.0912386 64 69 65
0.124218 -0.205651 -0.046151 62 68 62
0.123827 -0.207627 -0.0472898 62 66 71
0.123434 -0.20961 -0.0484327 56 88 100
0.12304 -0.211601 -0.0495799 77 150 140
0.122644 -0.213599 -0.0507313 77 173 171
0.122247 -0.215605 -0.0518871 72 152 167
0.121848 -0.217618 -0.0530471 73 166 175
0.122012 -0.219961 -0.054846 78 171 178
0.122748 -0.222652 -0.0573007 80 172 178
0.122345 -0.224701 -0.0584841 77 154 158
0.121941 -0.226758 -0.0596719 72 133 136
0.121535 -0.228824 -0.0608643 71 120 117
0.122276 -0.231595 -0.0633811 70 102 96
0.121868 -0.233685 -0.0645896 68 79 76
0.125141 -0.240476 -0.0717964 61 62 59
0.135794 -0.249697 -0.0860091 58 62 57
0.136668 -0.252774 -0.08884 48 56 54
0.136906 -0.255464 -0.0909402 30 41 44
0.135854 -0.25732 -0.0915215 17 38 40
0.134802 -0.259176 -0.0921028 12 39 43
0.133112 -0.260599 -0.0919185 6 48 71
0.132062 -0.262451 -0.0924987 54 90 95
0.131012 -0.264303 -0.093079 63 71 67
0.122261 -0.201934 -0.0448625 68 64 59
0.122424 -0.204176 -0.0465985 59 71 74
0.122589 -0.206436 -0.0483472 62 95 113
0.122194 -0.208413 -0.0494901 79 153 152
0.121798 -0.210398 -0.0506372 73 171 173
0.120842 -0.212085 -0.0511657 73 157 168
0.120443 -0.214081 -0.0523181 73 168 176
0.120042 -0.216084 -0.0534748 79 173 178
0.119639 -0.218095 -0.0546358 80 172 176
0.119795 -0.220436 -0.0564373 75 150 155
0.119952 -0.222794 -0.0582522 70 132 135
0.12011 -0.225171 -0.0600808 68 118 119
0.119703 -0.227225 -0.0612695 70 98 96
0.119861 -0.229632 -0.0631198 68 78 75
0.135922 -0.251792 -0.0906764 62 58 51
0.136157 -0.254479 -0.0927841 50 52 49
0.135105 -0.256335 -0.0933655 28 42 44
0.134053 -0.258191 -0.0939469 15 36 44
0.132364 -0.259616 -0.093759 12 57 68
0.131314 -0.261468 -0.0943393 51 86 96
0.130264 -0.263321 -0.0949197 63 70 68
0.120331 -0.19827 -0.0435928 64 67 62
0.120486 -0.200483 -0.0453117 60 73 78
0.120643 -0.202713 -0.047043 62 102 119
0.120247 -0.204669 -0.0481753 84 158 163
0.119851 -0.206633 -0.0493117 72 167 172
0.119453 -0.208604 -0.0504523 73 159 168
0.119053 -0.210582 -0.0515971 72 164 176
0.118652 -0.212568 -0.0527462 82 175 180
0.118249 -0.214561 -0.0538995 80 168 176
0.117844 -0.216562 -0.0550572 75 148 152
0.117438 -0.21857 -0.0562191 71 129 132
0.117586 -0.220909 -0.0580233 66 117 115
0.117734 -0.223265 -0.0598409 67 98 93
0.118445 -0.225974 -0.062324 68 76 72
0.135408 -0.253493 -0.0946283 61 62 56
0.134356 -0.255349 -0.0952098 47 54 53
0.133303 -0.257206 -0.0957913 24 41 48
0.131616 -0.258632 -0.0955998 23 66 63
0.130566 -0.260485 -0.0961803 50 78 87
0.129515 -0.262338 -0.0967608 63 66 65
0.11897 -0.194926 -0.0429328 62 66 62
0.118576 -0.196843 -0.0440434 59 80 80
0.118725 -0.199043 -0.0457578 66 113 124
0.118329 -0.200979 -0.0468796 84 160 169
0.117932 -0.202922 -0.0480055 73 164 177
0.117533 -0.204872 -0.0491355 72 162 167
0.117132 -0.206829 -0.0502697 72 163 175
0.116731 -0.208793 -0.0514081 84 174 180
0.116327 -0.210765 -0.0525506 81 165 175
0.116469 -0.213049 -0.0543215 75 145 152
0.116612 -0.21535 -0.0561054 72 127 130
0.116204 -0.217353 -0.0572673 68 115 115
0.115795 -0.219362 -0.0584334 65 97 90
0.115936 -0.221704 -0.0602459 67 78 67
0.133606 -0.254364 -0.0970544 63 60 54
0.131918 -0.255797 -0.0968604 49 55 49
0.130868 -0.257649 -0.097441 48 64 56
0.129818 -0.259502 -0.0980215 59 63 61
0.117623 -0.191617 -0.0422801 66 66 68
0.117229 -0.193518 -0.0433836 62 84 84
0.116834 -0.195426 -0.0444911 72 122 123
0.116438 -0.197342 -0.0456026 88 164 170
0.11604 -0.199264 -0.0467182 76 162 177
0.115104 -0.200914 -0.0472355 74 164 170
0.11524 -0.20313 -0.0489616 74 165 177
0.114837 -0.205073 -0.0500894 86 176 180
0.114972 -0.207316 -0.0518353 82 163 171
0.114567 -0.209278 -0.0529746 74 142 151
0.114702 -0.211548 -0.0547406 71 126 130
0.114837 -0.213836 -0.0565197 69 110 114
0.114974 -0.21614 -0.0583119 66 93 92
0.114563 -0.218144 -0.0594779 65 75 68
0.116822 -0.188596 -0.0422192 65 65 65
0.116429 -0.190485 -0.0433187 64 86 90
0.116034 -0.192381 -0.0444223 76 130 127
0.115105 -0.194019 -0.0449359 89 165 168
0.114176 -0.195658 -0.0454495 82 160 176
0.113776 -0.197567 -0.0465589 75 165 171
0.112845 -0.199209 -0.0470735 78 167 175
0.112971 -0.201406 -0.0487898 87 177 183
0.112567 -0.203336 -0.0499113 86 162 171
0.112693 -0.205561 -0.0516473 74 139 147
0.11282 -0.207801 -0.0533958 72 125 129
0.112948 -0.210058 -0.055157 68 109 114
0.113076 -0.212332 -0.0569313 65 88 90
0.113206 -0.214622 -0.0587185 65 70 69
0.115499 -0.185349 -0.0415762 61 67 71
0.114578 -0.186973 -0.0420852 64 90 98
0.114182 -0.188849 -0.0431788 78 140 135
0.113786 -0.190732 -0.0442763 86 167 166
0.113387 -0.192622 -0.0453777 83 161 173
0.112461 -0.194255 -0.0458896 78 164 172
0.112059 -0.196155 -0.0469959 79 170 176
0.111132 -0.197791 -0.0475088 88 179 181
0.110727 -0.199701 -0.0486201 88 163 170
0.110321 -0.201618 -0.0497354 74 135 145
0.110438 -0.203824 -0.0514614 72 124 126
0.111085 -0.206335 -0.0538142 72 108 112
0.111206 -0.208578 -0.0555707 65 86 88
0.111863 -0.211139 -0.0579674 65 69 63
0.113148 -0.181659 -0.0397891 61 69 75
0.113795 -0.183994 -0.0420259 66 93 106
0.112878 -0.185612 -0.0425332 79 144 145
0.11248 -0.18748 -0.0436238 82 169 168
0.111561 -0.189101 -0.0441321 83 162 172
0.111161 -0.190978 -0.0452275 78 164 172
0.11024 -0.192602 -0.0457368 82 171 177
0.109836 -0.194489 -0.0468371 87 178 183
0.109431 -0.196383 -0.0479414 87 165 166
0.109544 -0.198555 -0.0496487 75 134 145
0.108616 -0.200191 -0.0501617 71 122 124
0.108207 -0.202106 -0.051278 70 107 110
0.108838 -0.204594 -0.0536171 69 82 85
0.109477 -0.207109 -0.0559817 67 68 63
0.110838 -0.178034 -0.0380333 59 76 79
0.111983 -0.180564 -0.0408145 64 101 114
0.111071 -0.182171 -0.0413184 79 145 152
0.11016 -0.183778 -0.0418222 80 170 172
0.109761 -0.185629 -0.0429041 78 163 170
0.10936 -0.187487 -0.0439897 78 161 172
0.108445 -0.1891 -0.0444955 82 175 177
0.108041 -0.190967 -0.0455859 86 173 178
0.107636 -0.192841 -0.0466802 87 164 165
0.107229 -0.194722 -0.0477784 73 132 141
0.107334 -0.196877 -0.0494762 71 121 124
0.106924 -0.198775 -0.0505854 71 105 106
0.106513 -0.20068 -0.0516984 63 78 87
0.106616 -0.202872 -0.0534225 67 65 62
0.109576 -0.174914 -0.0374268 61 76 74
0.10918 -0.176727 -0.0384878 67 108 115
0.108279 -0.178317 -0.0389864 79 149 160
0.108892 -0.180606 -0.041192 79 168 174
0.107986 -0.182205 -0.0416933 76 163 171
0.107585 -0.184044 -0.0427693 78 161 171
0.106676 -0.185645 -0.0432716 82 175 178
0.106272 -0.187494 -0.0443523 84 174 176
0.105866 -0.189349 -0.0454369 84 162 162
0.105459 -0.19121 -0.0465252 73 129 136
0.106065 -0.193597 -0.0487981 70 120 121
0.105655 -0.195479 -0.0499002 72 105 105
0.105244 -0.197369 -0.0510062 68 75 81
0.105341 -0.199537 -0.0527187 62 65 65
0.108326 -0.171826 -0.0368267 61 81 80
0.107931 -0.173625 -0.0378812 70 116 116
0.107034 -0.175207 -0.0383774 83 152 160
0.106136 -0.176789 -0.0388735 83 166 177
0.105736 -0.178599 -0.0399336 74 161 170
0.106334 -0.180882 -0.0421365 79 161 171
0.105431 -0.182475 -0.0426362 83 173 180
0.104527 -0.184069 -0.043136 84 170 174
0.104121 -0.185905 -0.0442109 81 159 160
0.103714 -0.187747 -0.0452897 73 129 132
0.103305 -0.189596 -0.0463722 69 118 120
0.103896 -0.191962 -0.0486324 72 107 105
0.103988 -0.194092 -0.0503214 68 74 77
0.104081 -0.196237 -0.0520225 67 64 62
0.106101 -0.168352 -0.0351294 61 88 90
0.106199 -0.170341 -0.0367256 69 122 122
0.105801 -0.172128 -0.0377747 83 158 161
0.105403 -0.173921 -0.0388274 87 167 177
0.104509 -0.175497 -0.039322 76 160 171
0.103614 -0.177074 -0.0398165 80 163 171
0.104198 -0.179337 -0.0420075 82 171 180
0.103794 -0.181156 -0.043075 88 169 175
0.102893 -0.182744 -0.0435731 78 154 159
0.102486 -0.184571 -0.0446452 72 124 129
0.102077 -0.186405 -0.045721 70 118 117
0.101666 -0.188246 -0.0468007 68 106 102
0.10175 -0.190344 -0.0484687 70 75 76
0.102333 -0.192714 -0.05074 67 64 58
0.103913 -0.164936 -0.0334609 62 89 93
0.103033 -0.166488 -0.0339479 68 129 129
0.102635 -0.168247 -0.0349799 81 164 163
0.102236 -0.170012 -0.0360154 84 166 175
0.101835 -0.171783 -0.0370545 79 159 171
0.101433 -0.17356 -0.0380971 83 169 174
0.100546 -0.175124 -0.0385876 83 170 182
0.100141 -0.17691 -0.0396347 89 167 175
0.101678 -0.179615 -0.042942 77 147 157
0.101761 -0.181662 -0.0445793 70 125 127
0.100862 -0.183247 -0.0450767 69 117 120
0.100942 -0.185313 -0.0467272 67 102 99
0.10053 -0.187149 -0.0478069 65 74 73
0.100117 -0.188991 -0.0488902 66 65 62
0.103201 -0.162161 -0.0334339 65 91 99
0.102805 -0.163906 -0.0344615 74 132 136
0.101926 -0.165456 -0.0349478 84 169 166
0.101047 -0.167006 -0.0354341 81 168 176
0.100168 -0.168556 -0.0359204 77 159 170
0.0992883 -0.170106 -0.0364068 85 173 176
0.0988845 -0.171868 -0.0374414 85 171 182
0.0989564 -0.173854 -0.0390323 93 169 173
0.0985498 -0.175632 -0.0400767 75 140 155
0.0986209 -0.17764 -0.0416848 69 123 127
0.0996589 -0.180121 -0.0444392 67 118 120
0.0997344 -0.182166 -0.046079 66 102 102
0.0993226 -0.183986 -0.047152 66 69 68
0.0993972 -0.186055 -0.0488098 65 66 61
0.104242 -0.156321 -0.0324396 65 65 59
0.102494 -0.159404 -0.0334071 65 93 104
0.101619 -0.160946 -0.033891 77 136 145
0.100744 -0.162488 -0.0343749 85 168 170
0.0998696 -0.16403 -0.0348588 80 165 174
0.0994689 -0.165773 -0.0358856 78 157 171
0.0985926 -0.167318 -0.0363704 84 175 178
0.0977163 -0.168863 -0.0368552 86 171 181
0.0977838 -0.170828 -0.038436 93 171 173
0.0973773 -0.172592 -0.0394742 78 136 149
0.0969693 -0.174362 -0.0405159 72 120 124
0.0970346 -0.176359 -0.0421201 70 116 118
0.0980582 -0.178823 -0.0448682 62 93 98
0.0981278 -0.180856 -0.046504 67 67 66
0.103055 -0.153413 -0.031882 65 64 60
0.100841 -0.156297 -0.0323107 65 101 107
0.0999725 -0.157828 -0.0327914 79 144 151
0.0995747 -0.159549 -0.0338078 87 170 175
0.0987044 -0.161083 -0.0342894 76 161 173
0.097834 -0.162618 -0.034771 81 158 171
0.0974317 -0.16435 -0.0357925 83 175 182
0.0970281 -0.166088 -0.0368175 85 173 180
0.0966231 -0.167832 -0.037846 91 173 171
0.0957481 -0.169375 -0.0383301 77 132 145
0.096279 -0.17155 -0.0404658 70 121 126
0.0953994 -0.1731 -0.0409525 74 118 118
0.095459 -0.175087 -0.0425528 67 84 95
0.0955191 -0.177087 -0.044164 66 67 61
0.100467 -0.150016 -0.0297485 67 64 59
0.099211 -0.15323 -0.0312289 64 107 108
0.0983479 -0.154752 -0.0317065 80 152 154
0.0974848 -0.156273 -0.0321841 85 172 177
0.0966217 -0.157795 -0.0326617 76 158 169
0.0957584 -0.159316 -0.0331393 81 162 170
0.0953561 -0.161029 -0.0341498 82 174 183
0.0949523 -0.162747 -0.0351635 88 174 179
0.0945472 -0.164471 -0.0361808 89 173 171
0.0946034 -0.166401 -0.0377437 75 132 138
0.0951258 -0.16855 -0.0398657 70 121 121
0.0942506 -0.170093 -0.04035 72 118 116
0.0943061 -0.172059 -0.0419402 61 82 93
0.0948313 -0.174255 -0.0441017 65 62 61
0.0988531 -0.147015 -0.0286924 59 64 64
0.0980645 -0.150376 -0.030685 66 115 116
0.0972057 -0.151889 -0.0311603 84 161 158
0.0963469 -0.153403 -0.0316355 86 171 178
0.0954879 -0.154917 -0.0321108 76 157 167
0.0946289 -0.156432 -0.0325862 83 167 170
0.0942267 -0.158131 -0.0335907 80 171 182
0.093823 -0.159835 -0.0345986 89 173 179
0.093418 -0.161546 -0.0356099 84 164 167
0.0930116 -0.163262 -0.0366246 73 131 137
0.0939842 -0.165581 -0.0392717 73 121 121
0.0945035 -0.167726 -0.0414015 74 116 111
0.0936281 -0.169268 -0.0418859 69 77 86
0.0936814 -0.171232 -0.0434814 62 66 64
0.0968034 -0.143895 -0.0271369 63 62 60
0.0969294 -0.147549 -0.0301466 69 122 127
0.0965331 -0.149225 -0.0311421 88 168 165
0.0956771 -0.150734 -0.0316158 85 168 177
0.0948209 -0.152243 -0.0320897 80 157 169
0.0939648 -0.153752 -0.0325635 86 171 175
0.0931085 -0.155261 -0.0330374 85 171 181
0.092705 -0.156953 -0.0340394 93 175 178
0.0923 -0.15865 -0.0350448 78 154 164
0.0923481 -0.160542 -0.0365886 72 129 135
0.0923965 -0.162447 -0.0381427 68 121 123
0.0924451 -0.164364 -0.0397071 74 112 107
0.0934171 -0.166698 -0.0423839 68 77 79
0.0930056 -0.168444 -0.0434222 67 62 63
0.0930031 -0.140215 -0.0235957 66 62 59
0.0944475 -0.144269 -0.0280686 73 126 135
0.094051 -0.145923 -0.0290511 87 171 171
0.0936531 -0.147582 -0.0300368 82 164 175
0.0937054 -0.149416 -0.0315464 86 160 170
0.0933049 -0.151089 -0.032541 88 174 177
0.0924514 -0.152594 -0.0330134 86 171 181
0.0920481 -0.154275 -0.0340122 93 172 176
0.0916434 -0.155963 -0.0350144 81 150 161
0.0912373 -0.157656 -0.0360198 72 130 134
0.0908297 -0.159354 -0.0370286 69 120 122
0.0908728 -0.161249 -0.0385791 69 108 106
0.0909162 -0.163156 -0.0401399 70 80 77
0.0927956 -0.165875 -0.0439178 64 62 61
0.0897044 -0.135046 -0.0192138 65 58 47
0.0901758 -0.136928 -0.0211326 63 64 57
0.0924564 -0.141205 -0.026536 68 131 139
0.0920598 -0.14284 -0.0275081 73 166 174
0.0916619 -0.144481 -0.0284834 75 164 175
0.0921533 -0.146453 -0.0304913 84 163 171
0.0917528 -0.148111 -0.0314778 87 173 178
0.0913511 -0.149774 -0.0324676 88 173 181
0.0905016 -0.151271 -0.0329378 90 170 176
0.0905433 -0.153117 -0.0344571 81 146 156
0.0901373 -0.154797 -0.0354567 72 129 135
0.0901779 -0.156664 -0.0369918 69 120 121
0.0897692 -0.158359 -0.0380007 65 107 105
0.0902596 -0.160436 -0.0400926 66 79 77
0.0903008 -0.162341 -0.0416586 68 61 56
0.0890833 -0.132543 -0.0192341 61 59 57
0.0891196 -0.134268 -0.0206593 58 65 65
0.0896261 -0.137896 -0.0240324 59 126 133
0.0896643 -0.139658 -0.025489 69 160 168
0.0892664 -0.141278 -0.0264517 72 172 182
0.0893036 -0.143059 -0.0279232 73 171 182
0.0902209 -0.145171 -0.0304284 81 172 179
0.0898192 -0.146818 -0.0314102 87 177 179
0.0894161 -0.148471 -0.0323952 88 171 174
0.089454 -0.150299 -0.0339053 80 146 155
0.0890483 -0.151967 -0.0348992 71 126 134
0.089085 -0.153815 -0.0364251 68 118 120
0.0886765 -0.155497 -0.037428 64 103 103
0.0887121 -0.157366 -0.0389698 66 80 75
0.0891964 -0.159435 -0.0410632 68 62 60
0.0880406 -0.129924 -0.0187735 62 59 57
0.0876478 -0.131497 -0.0197074 58 67 75
0.0872841 -0.1348 -0.0220718 59 130 133
0.0868874 -0.136392 -0.023017 68 156 165
0.0869165 -0.138135 -0.0244589 86 176 183
0.0869458 -0.139888 -0.02591 91 182 189
0.0874065 -0.141807 -0.0278736 88 180 189
0.0878716 -0.143743 -0.0298561 91 180 185
0.0879042 -0.145538 -0.0313435 87 170 172
0.0879369 -0.147345 -0.0328405 80 147 152
0.0879698 -0.149163 -0.0343473 72 126 133
0.0880028 -0.150994 -0.0358639 69 116 118
0.0880359 -0.152836 -0.0373905 62 99 102
0.0876263 -0.154513 -0.0383935 62 79 74
0.0881028 -0.156558 -0.0404738 64 63 57
0.0870076 -0.127329 -0.0183173 61 61 56
0.0861945 -0.128762 -0.0187675 59 70 76
0.0854053 -0.131896 -0.0206297 61 134 139
0.0854296 -0.133608 -0.0220505 70 161 167
0.084611 -0.135051 -0.0225038 92 181 185
0.0846327 -0.136778 -0.0239351 105 189 192
0.085078 -0.138663 -0.0258706 105 185 191
0.0851013 -0.140416 -0.0273241 101 180 187
0.0851246 -0.142181 -0.0287868 94 172 177
0.0855771 -0.144113 -0.0307675 81 152 157
0.085602 -0.145903 -0.0322531 73 127 132
0.086495 -0.148034 -0.0347866 70 115 117
0.0869606 -0.150024 -0.0368257 66 97 101
0.0869902 -0.151861 -0.038353 58 75 74
0.08702 -0.153709 -0.0398903 61 64 55
0.0864028 -0.12488 -0.0183405 61 62 55
0.0855921 -0.126309 -0.0187894 58 74 74
0.0848035 -0.129426 -0.0206459 63 135 144
0.08399 -0.130859 -0.0210963 74 162 170
0.0831766 -0.132292 -0.0215467 94 184 188
0.0827776 -0.133863 -0.0224809 110 194 194
0.0827934 -0.135579 -0.0239055 113 190 192
0.0828092 -0.137306 -0.0253391 106 181 186
0.0824063 -0.138897 -0.0262866 96 170 176
0.0828409 -0.140792 -0.0282335 84 156 162
0.0837035 -0.14286 -0.0307051 75 135 140
0.084149 -0.144796 -0.0326952 72 117 118
0.0841692 -0.146589 -0.0341871 68 95 97
0.0863584 -0.149225 -0.0383129 61 70 71
0.0863859 -0.151058 -0.0398451 59 62 53
0.0853855 -0.122328 -0.01789 62 64 60
0.0845785 -0.12375 -0.0183369 58 79 77
0.0833768 -0.126719 -0.0197063 63 141 149
0.0829808 -0.128271 -0.0206318 76 164 174
0.0821711 -0.129698 -0.0210802 94 182 190
0.0817724 -0.131257 -0.0220094 111 195 197
0.0813724 -0.132821 -0.0229414 116 194 194
0.0809712 -0.134391 -0.0238764 110 183 185
0.0809811 -0.136106 -0.0253033 98 170 175
0.0805773 -0.137688 -0.0262465 78 153 161
0.0805859 -0.139421 -0.0276875 69 137 142
0.0814286 -0.141467 -0.0301401 71 120 123
0.0822821 -0.143539 -0.0326238 70 95 97
0.0827206 -0.145479 -0.0346233 62 65 67
0.085756 -0.148425 -0.0398003 61 58 47
0.0843777 -0.1198 -0.0174438 63 59 57
0.0827555 -0.120984 -0.0169503 59 76 76
0.0811538 -0.123806 -0.0178374 64 147 154
0.0803528 -0.125218 -0.018281 78 169 179
0.0807672 -0.127002 -0.0201426 98 182 192
0.0803688 -0.128548 -0.0210645 112 194 199
0.0799692 -0.130098 -0.0219894 113 192 195
0.0799759 -0.131786 -0.0233993 110 186 186
0.0799826 -0.133485 -0.024818 99 174 174
0.0795791 -0.135055 -0.0257561 78 150 157
0.0787652 -0.13649 -0.0262068 65 135 141
0.0791782 -0.138356 -0.0281352 62 119 122
0.0791823 -0.140092 -0.0295823 65 95 95
0.080851 -0.142447 -0.0330617 63 63 67
0.0821269 -0.14469 -0.0360894 63 52 46
0.0813633 -0.11837 -0.0160478 63 61 59
0.079765 -0.119548 -0.0155632 64 87 85
0.0781777 -0.122345 -0.0164423 83 166 172
0.078179 -0.123981 -0.0178115 105 183 192
0.0777808 -0.125505 -0.01872 116 195 202
0.0777808 -0.127158 -0.0201026 113 190 197
0.0785856 -0.129077 -0.0224476 110 185 187
0.0785879 -0.130757 -0.0238546 96 172 175
0.0785902 -0.132448 -0.0252704 76 148 157
0.0781856 -0.134012 -0.0262064 65 132 138
0.0777797 -0.135581 -0.0271452 62 116 118
0.0773726 -0.137155 -0.0280871 64 94 93
0.0777789 -0.139024 -0.0300244 62 66 64
0.0790143 -0.141212 -0.0329898 63 60 50
0.0791968 -0.117182 -0.0155946 68 67 61
0.0776147 -0.118357 -0.0151144 69 72 74
0.0760315 -0.122759 -0.0173479 125 184 193
0.0760261 -0.124391 -0.0187158 114 186 197
0.0752321 -0.12579 -0.0191556 106 182 189
0.0764122 -0.127811 -0.0219508 91 168 174
0.0772084 -0.129734 -0.0243073 72 146 155
0.0772063 -0.131417 -0.0257202 63 132 140
0.0772042 -0.133109 -0.027142 62 116 121
0.0767973 -0.134675 -0.0280809 62 91 90
0.076389 -0.136245 -0.0290229 63 64 59
0.0759795 -0.13782 -0.0299678 62 57 46
0.07351 -0.123054 -0.0177866 115 174 181
0.0731088 -0.124561 -0.0186857 89 164 173
0.0738738 -0.126438 -0.02099 70 145 152
0.0750434 -0.128464 -0.0237995 64 130 135
0.0766321 -0.130653 -0.0271388 61 111 116
0.0762256 -0.13221 -0.0280749 58 86 89
0.0762203 -0.133908 -0.0295064 61 64 60
0.0758111 -0.135477 -0.0304506 65 60 46
0.0710316 -0.121736 -0.0168716 85 138 138
0.0721619 -0.123696 -0.0196074 68 142 149
0.0717585 -0.125205 -0.0205094 64 130 135
0.0729047 -0.127209 -0.0232981 63 107 113
0.0756575 -0.12976 -0.0280691 60 81 87
0.0756504 -0.131445 -0.0294961 58 63 60
0.0756432 -0.13314 -0.030932 57 58 52
0.0700963 -0.120884 -0.0177878 70 104 103
0.0696934 -0.122374 -0.018679 66 120 120
0.0708135 -0.124339 -0.0214286 63 106 110
0.0719506 -0.126335 -0.0242202 63 78 83
0.0750841 -0.128997 -0.029486 62 63 60
0.0750751 -0.13068 -0.0309175 60 59 52
0.0687599 -0.121521 -0.0195929 65 89 87
0.0698712 -0.123477 -0.0223453 62 77 80
0.0713858 -0.125583 -0.0256156 63 60 57
0.0745106 -0.128234 -0.0309032 64 60 47
0.0682046 -0.120782 -0.0209654 64 68 66
0.0693116 -0.122732 -0.0237283 60 59 59
0.0700508 -0.124593 -0.0260567 59 54 47
0.0683728 -0.121873 -0.0246407 59 57 52
