# .PCD v0.7 - Point Cloud Data file format
VERSION 0.7
FIELDS x y z
SIZE 4 4 4
TYPE F F F
COUNT 1 1 1
WIDTH 1326
HEIGHT 1
VIEWPOINT 0 0 0 1 0 0 0
POINTS 1326
DATA ascii
0.034182288 -0.21238214 -0.069075502
0.02142673 -0.2056874 -0.080406301
0.021045186 -0.20471427 -0.081184603
0.02090358 -0.20372953 -0.081827201
0.020286389 -0.20277852 -0.082731597
0.034355111 -0.21607879 -0.0653212
0.033651806 -0.21502495 -0.066339597
0.033755757 -0.21396491 -0.066880397
0.03332369 -0.21291524 -0.067734301
0.032893613 -0.21187019 -0.068584599
0.020487174 -0.20521078 -0.079772502
0.020107731 -0.20423998 -0.080550499
0.019493274 -0.20328824 -0.081457898
0.018648148 -0.20235807 -0.082490802
0.018510334 -0.20138475 -0.083126202
0.034030385 -0.21660723 -0.063655399
0.033059157 -0.21555343 -0.064840302
0.033163615 -0.21449253 -0.065381199
0.032732926 -0.21344249 -0.066238403
0.032303832 -0.21239571 -0.067091897
0.032142289 -0.21134749 -0.067786202
0.018136203 -0.20481877 -0.079947896
0.018232904 -0.20382726 -0.0804535
0.017861351 -0.20286682 -0.081223801
0.017724909 -0.20189315 -0.081859797
0.017820977 -0.20090476 -0.082363904
0.017684758 -0.19993469 -0.082998097
0.017781682 -0.1989468 -0.083501801
0.032467015 -0.21608105 -0.063340902
0.03257098 -0.21502101 -0.063881703
0.032408603 -0.21396424 -0.064582601
0.031979136 -0.21291608 -0.065440699
0.031553008 -0.21187216 -0.066294998
0.031392336 -0.21082446 -0.066989496
0.03175988 -0.20976186 -0.067371003
0.017582923 -0.20531106 -0.078547098
0.016979493 -0.20436224 -0.0794551
0.017076924 -0.20337349 -0.079959102
0.016940847 -0.20240119 -0.080595799
0.017036907 -0.2014128 -0.081099398
0.017133839 -0.20042491 -0.081602998
0.016997993 -0.19945621 -0.082237303
0.017094418 -0.19846918 -0.082740501
0.033482924 -0.21659946 -0.0608567
0.032245152 -0.21554536 -0.062219601
0.032082424 -0.2144872 -0.062922999
0.031125151 -0.21344724 -0.064106002
0.030437902 -0.2124096 -0.065120697
0.030016325 -0.21137178 -0.065972
0.029858492 -0.21032917 -0.066663802
0.029960893 -0.20927979 -0.067198902
0.016428076 -0.20485333 -0.078058504
0.016292997 -0.2038793 -0.078697003
0.01638943 -0.20289226 -0.079200499
0.016485497 -0.20190388 -0.079704098
0.016350649 -0.20093344 -0.080340303
0.016447075 -0.19994642 -0.080843396
0.016543508 -0.19895941 -0.081346601
0.01663994 -0.19797239 -0.081849702
0.035227299 -0.21820009 -0.057280101
0.034512304 -0.21712449 -0.058339
0.0335306 -0.21605888 -0.059558101
0.032826342 -0.21499871 -0.060601201
0.031594224 -0.21395478 -0.061964098
0.030638188 -0.21291667 -0.0631513
0.0294303 -0.21189484 -0.064486898
0.028493777 -0.21087493 -0.065651603
0.027308844 -0.20987327 -0.066960797
0.027409852 -0.20883232 -0.0674913
0.015644655 -0.20535825 -0.076798201
0.015741579 -0.20437038 -0.077301599
0.015838511 -0.20338249 -0.077805102
0.015703298 -0.20241068 -0.078443304
0.015800595 -0.20142415 -0.0789463
0.015897021 -0.20043714 -0.0794494
0.015993461 -0.19945011 -0.079952501
0.016089879 -0.1984631 -0.080455601
0.016186319 -0.19747609 -0.080958799
0.037113085 -0.21874383 -0.054185901
0.036384501 -0.21765578 -0.055266
0.034561485 -0.21658131 -0.057025801
0.033849202 -0.21551305 -0.058084499
0.033141479 -0.21445087 -0.059136
0.032171354 -0.21340117 -0.060346302
0.030151233 -0.21238613 -0.062196501
0.028426647 -0.2113812 -0.0638557
0.027496561 -0.21036616 -0.065020703
0.02606523 -0.20937926 -0.066484898
0.026166968 -0.20834106 -0.067013703
0.015787251 -0.20581125 -0.074988097
0.015190162 -0.20486145 -0.075906098
0.015056811 -0.20388842 -0.076546103
0.015153244 -0.20290141 -0.077049099
0.015019767 -0.20193058 -0.077687398
0.015115693 -0.20094444 -0.078189999
0.015212491 -0.1999588 -0.078692503
0.015538968 -0.1989533 -0.079061396
0.015635394 -0.19796629 -0.079564601
0.036783822 -0.21928813 -0.052467
0.036611438 -0.21819672 -0.053200401
0.03643892 -0.21710752 -0.053932302
0.035436928 -0.21602903 -0.055186301
0.034170292 -0.21496288 -0.056600802
0.033459976 -0.21389922 -0.0576609
0.032753699 -0.21284249 -0.058713902
0.030191109 -0.21184105 -0.0609148
0.027943522 -0.21085401 -0.062908001
0.027015522 -0.20984133 -0.064077102
0.025334343 -0.20886724 -0.065702602
0.025435083 -0.20783074 -0.066230796
0.01533103 -0.20531344 -0.074093103
0.0145059 -0.20437863 -0.075151801
0.014602326 -0.20339161 -0.075654797
0.014468856 -0.2024208 -0.076294497
0.014565647 -0.20143515 -0.076797098
0.014661573 -0.200449 -0.077299602
0.014757998 -0.19946198 -0.077802204
0.014854796 -0.19847634 -0.078304797
0.036174618 -0.21983129 -0.050924402
0.03628131 -0.21874051 -0.051480301
0.036108918 -0.21764907 -0.052214898
0.035937637 -0.21656176 -0.052947901
0.035489246 -0.21547842 -0.0538553
0.034493402 -0.21440928 -0.055106901
0.033779599 -0.21334359 -0.056175601
0.032799326 -0.21229149 -0.0574071
0.03049586 -0.2112872 -0.059461601
0.028497353 -0.21029273 -0.061313499
0.02653449 -0.20931649 -0.063133299
0.024856634 -0.20834664 -0.064765997
0.02495788 -0.20730926 -0.065294199
0.014874458 -0.20481427 -0.073197901
0.014051408 -0.20388183 -0.074260399
0.013919286 -0.20291068 -0.074901499
0.014015228 -0.2019245 -0.075404003
0.014111161 -0.20093834 -0.0759065
0.014207952 -0.19995269 -0.076409101
0.014303878 -0.19896655 -0.076911703
0.01462999 -0.19795971 -0.0772788
0.035287336 -0.22037211 -0.049563199
0.035393536 -0.21928218 -0.050118499
0.035223745 -0.21819228 -0.050853699
0.035329431 -0.2171032 -0.051408399
0.035435997 -0.21601465 -0.051963199
0.034988828 -0.21493317 -0.0528729
0.034269609 -0.2138609 -0.053953901
0.033555299 -0.21279609 -0.055027701
0.032574527 -0.21174484 -0.056265801
0.030006438 -0.2107529 -0.058501001
0.028012134 -0.20976317 -0.0603613
0.026053458 -0.20879167 -0.0621894
0.024379432 -0.20782518 -0.063829198
0.024480186 -0.20678866 -0.0643574
0.022830367 -0.20584422 -0.065968797
0.016884528 -0.20516074 -0.070219003
0.014649376 -0.20430212 -0.072161101
0.013825834 -0.20337054 -0.073228903
0.013692848 -0.20239888 -0.073871702
0.0135611 -0.20142907 -0.074513301
0.013657533 -0.20044205 -0.075015798
0.013982639 -0.19943695 -0.075380899
0.014079072 -0.19844992 -0.075884096
0.014175132 -0.19746155 -0.076387197
0.034508489 -0.21982312 -0.048759501
0.034339562 -0.21873371 -0.049495399
0.033895388 -0.21764705 -0.0504096
0.033180654 -0.21656698 -0.0514975
0.034657732 -0.21547063 -0.051157799
0.033665128 -0.21439987 -0.052423
0.032951839 -0.21333332 -0.0535019
0.033057854 -0.21225369 -0.054051802
0.032080039 -0.21120533 -0.055294301
0.029517002 -0.21021862 -0.057540201
0.027268238 -0.2092436 -0.0595732
0.025063545 -0.20828825 -0.061566699
0.023400411 -0.20732689 -0.063207597
0.023001291 -0.20631818 -0.064047702
0.020879857 -0.20540862 -0.0659604
0.016187273 -0.20467041 -0.0694592
0.014423065 -0.2037881 -0.071121998
0.013599887 -0.2028579 -0.072195202
0.013467409 -0.20188534 -0.072839797
0.013334796 -0.20091505 -0.073482998
0.013431728 -0.19992715 -0.073986098
0.013528153 -0.19894013 -0.074489199
0.013623722 -0.19795261 -0.074992299
0.033901148 -0.22036505 -0.047219802
0.033732221 -0.21927565 -0.047957499
0.03328906 -0.21818724 -0.048875
0.032304175 -0.21710709 -0.0501475
0.031868771 -0.21603125 -0.051054101
0.032243714 -0.21494983 -0.051426001
0.032349728 -0.2138702 -0.051975898
0.032183833 -0.21279755 -0.052701801
0.031748615 -0.21173337 -0.053600799
0.030779459 -0.21068999 -0.054841101
0.027457543 -0.20973971 -0.0575867
0.024988398 -0.20878643 -0.0597688
0.022822462 -0.20784193 -0.061745401
0.021929212 -0.20685507 -0.0629033
0.020309508 -0.20591648 -0.064515203
0.016568318 -0.20511442 -0.067452602
0.015725985 -0.20416738 -0.068554297
0.014426671 -0.20325787 -0.069936298
0.013602123 -0.20232803 -0.071016602
0.013240241 -0.20137084 -0.071805499
0.013108119 -0.20039967 -0.072450399
0.013205044 -0.19941178 -0.072953999
0.013301611 -0.19842252 -0.073457703
0.034396924 -0.22092035 -0.044934399
0.033673979 -0.21982053 -0.046049502
0.033230081 -0.21872939 -0.0469734
0.03170158 -0.21764484 -0.048619699
0.031265795 -0.21656762 -0.049529701
0.030564301 -0.21549866 -0.050613299
0.030937731 -0.21441984 -0.0509836
0.031042621 -0.21334417 -0.051531602
0.031147517 -0.2122685 -0.0520797
0.030181587 -0.21122354 -0.0533268
0.028433584 -0.21021318 -0.055076599
0.025937811 -0.20924798 -0.0573004
0.023496769 -0.20830399 -0.0594762
0.021353632 -0.20736802 -0.061447099
0.020225368 -0.20640022 -0.062757798
0.01647938 -0.20558847 -0.065730698
0.015635088 -0.20463681 -0.0668419
0.015265204 -0.20366348 -0.067649201
0.014199629 -0.20274112 -0.068891399
0.014065318 -0.20176175 -0.069544002
0.013471775 -0.20081978 -0.070482701
0.037896022 -0.22263572 -0.039936401
0.03629978 -0.2215005 -0.041668799
0.035283431 -0.22038487 -0.042997301
0.033446454 -0.21927463 -0.0448764
0.032728799 -0.21818364 -0.0459892
0.030663691 -0.21710449 -0.0480051
0.029964559 -0.21603343 -0.049093898
0.029269487 -0.21496934 -0.050175399
0.02964092 -0.21389398 -0.050543901
0.029745191 -0.21282142 -0.051090099
0.029583342 -0.21175572 -0.051812202
0.027839579 -0.21074203 -0.053573702
0.025864497 -0.20975296 -0.055477198
0.023419023 -0.20880066 -0.057677399
0.022017047 -0.20782495 -0.0591859
0.020142451 -0.20688583 -0.0609929
0.017819181 -0.20598787 -0.063079298
0.015544057 -0.20510849 -0.065122299
0.014705323 -0.20416123 -0.066233702
0.014570549 -0.20317467 -0.0668924
0.014435634 -0.20219034 -0.067549802
0.014068812 -0.20122568 -0.068352297
0.037847243 -0.22320223 -0.037965398
0.037669405 -0.22208226 -0.038731601
0.036921874 -0.22095901 -0.039888699
0.036746725 -0.21984637 -0.040649202
0.034883097 -0.2187323 -0.042562
0.033049762 -0.21763571 -0.044444598
0.030166611 -0.21656346 -0.047029499
0.028671607 -0.21550289 -0.0486608
0.028247058 -0.21444024 -0.0495626
0.028351538 -0.21337125 -0.050106999
0.027928822 -0.21231546 -0.051003799
0.027246445 -0.21127138 -0.0520708
0.025276586 -0.21027726 -0.053987298
0.022836849 -0.20931901 -0.0562036
0.021438606 -0.20834082 -0.0577216
0.020303816 -0.20736235 -0.059059199
0.018454246 -0.20643191 -0.060857698
0.016397774 -0.20552981 -0.062780499
0.01461219 -0.20463052 -0.064516202
0.014244542 -0.20365731 -0.0653283
0.014109261 -0.20267163 -0.0659879
0.014207006 -0.20167035 -0.066497698
0.037509702 -0.22376485 -0.036186598
0.037332013 -0.22264265 -0.036955699
0.037155032 -0.2215232 -0.037723001
0.036978796 -0.22040644 -0.0384886
0.037087679 -0.2192938 -0.0390554
0.03719572 -0.2181807 -0.039622299
0.032105304 -0.21600154 -0.044387601
0.027650185 -0.21497205 -0.048051201
0.026705608 -0.2139221 -0.0493077
0.026809826 -0.21285759 -0.0498497
0.025872514 -0.21182106 -0.0510928
0.024944104 -0.21079314 -0.0523251
0.022757456 -0.20982051 -0.0543935
0.02110815 -0.20884518 -0.056092001
0.019728735 -0.2078744 -0.057602599
0.018852212 -0.20689261 -0.058773201
0.017261028 -0.20595661 -0.060408801
0.015222512 -0.20506142 -0.062329799
0.014149673 -0.20412563 -0.063608699
0.014014535 -0.2031377 -0.064271502
0.014113262 -0.2021347 -0.064782299
0.014910929 -0.2010791 -0.064840898
0.036600448 -0.22431375 -0.034809701
0.036709473 -0.22319891 -0.0353777
0.036532991 -0.22207856 -0.036146902
0.036641531 -0.22096458 -0.036714301
0.036465287 -0.21984786 -0.037481099
0.036574177 -0.21873522 -0.038047899
0.036682226 -0.2176221 -0.038614798
0.027157806 -0.21443489 -0.047084
0.025177799 -0.21340835 -0.049054898
0.025280878 -0.21234781 -0.049594499
0.024355695 -0.21131828 -0.0508333
0.022930771 -0.21031432 -0.0524044
0.020777583 -0.20935175 -0.054458801
0.019398414 -0.20837653 -0.055981401
0.018279485 -0.20740257 -0.057322599
0.017652929 -0.20641382 -0.0583288
0.016792223 -0.20544462 -0.0594877
0.014757901 -0.20455416 -0.061417401
0.014621288 -0.20356077 -0.0620859
0.013785034 -0.20261721 -0.063212298
0.014350049 -0.20157859 -0.063418902
0.035693042 -0.22486141 -0.0334359
0.035801567 -0.22374743 -0.034003198
0.0359101 -0.22263345 -0.034570601
0.03601864 -0.22151947 -0.035138
0.035843752 -0.22040236 -0.035906501
0.035951786 -0.21928926 -0.0364733
0.036060683 -0.21817665 -0.0370402
0.036168717 -0.21706353 -0.0376071
0.024688736 -0.21287543 -0.048096001
0.023001269 -0.2118642 -0.049866602
0.02259706 -0.21082833 -0.050749201
0.020942591 -0.20984194 -0.052482601
0.018821485 -0.20888983 -0.054522902
0.018191479 -0.207891 -0.055543501
0.017564684 -0.20689866 -0.056557499
0.017182022 -0.20589945 -0.057403699
0.017041028 -0.20488966 -0.058085602
0.015945539 -0.20394312 -0.059403099
0.015333019 -0.20297402 -0.0603934
0.017822124 -0.20178877 -0.059328198
0.035179041 -0.22430369 -0.032426801
0.035003923 -0.22318298 -0.033198401
0.034830414 -0.22206551 -0.0339683
0.03493882 -0.22095376 -0.034534398
0.035047211 -0.21984203 -0.035100501
0.035155602 -0.21873027 -0.0356667
0.035264 -0.21761853 -0.0362329
0.035655715 -0.21650407 -0.0365992
0.023176648 -0.21236846 -0.047849201
0.021256663 -0.21137196 -0.049787901
0.021108344 -0.21033484 -0.050493401
0.019471332 -0.20935623 -0.052221201
0.017616898 -0.2084022 -0.054089502
0.016991973 -0.20740861 -0.055108201
0.01685074 -0.20639524 -0.0557939
0.016951188 -0.20537126 -0.0563155
0.017050765 -0.20434681 -0.056837
0.017150335 -0.20332232 -0.0573586
0.018705294 -0.20219706 -0.056905899
0.0225292 -0.20088989 -0.054948099
0.034556128 -0.22485858 -0.0308502
0.034382395 -0.22373751 -0.031623598
0.034209386 -0.22261918 -0.0323953
0.034317791 -0.22150743 -0.032961302
0.034144506 -0.22039357 -0.033730701
0.033971593 -0.21928105 -0.0344982
0.034079857 -0.21817154 -0.035063099
0.034188114 -0.21706203 -0.035627998
0.020922951 -0.21188596 -0.048133101
0.020026974 -0.21086983 -0.049363501
0.019632384 -0.20984527 -0.0502396
0.017770298 -0.20888451 -0.0521308
0.016419254 -0.2079186 -0.053658701
0.016039453 -0.20691642 -0.054510899
0.016139396 -0.20589332 -0.055031799
0.016478546 -0.2048559 -0.055388998
0.016818695 -0.20381677 -0.055746902
0.017160341 -0.202775 -0.056105699
0.02019605 -0.201537 -0.054646701
0.022550203 -0.20032351 -0.053661201
0.034782015 -0.22543934 -0.0286447
0.03404177 -0.22429949 -0.0298407
0.033868887 -0.22317892 -0.0306153
0.033696242 -0.22206196 -0.0313881
0.033244163 -0.220943 -0.032363798
0.032793544 -0.2198295 -0.033335
0.032345243 -0.21872197 -0.034301799
0.032453232 -0.21761692 -0.034864102
0.033675842 -0.21650532 -0.034623299
0.022099912 -0.21236341 -0.0454018
0.019444294 -0.21138906 -0.047888801
0.018558212 -0.21037979 -0.049114902
0.018414326 -0.20935103 -0.049815901
0.017052159 -0.20837638 -0.051366702
0.015467249 -0.20742552 -0.053064302
0.015089914 -0.20642708 -0.053916
0.015189715 -0.20540623 -0.054435801
0.016006775 -0.20434104 -0.054462299
0.016586758 -0.20328447 -0.0546543
0.018876128 -0.20210518 -0.053681601
0.02146066 -0.20088266 -0.052519102
0.022572204 -0.1997554 -0.0523686
0.02318275 -0.1986599 -0.052561499
0.036731005 -0.2260796 -0.0251329
0.036264397 -0.2249338 -0.026139099
0.033527412 -0.2237404 -0.028831
0.033635929 -0.22262642 -0.0293983
0.03318274 -0.22150336 -0.0303808
0.032174863 -0.22038107 -0.031768799
0.030900776 -0.21926787 -0.033346001
0.030186385 -0.21816722 -0.034506999
0.03029348 -0.21706975 -0.035065498
0.030400567 -0.21597224 -0.035624001
0.019357078 -0.21189414 -0.046059702
0.0184699 -0.21088077 -0.047296401
0.017835014 -0.20986643 -0.048349001
0.017446727 -0.20884895 -0.0492226
0.016334891 -0.20786873 -0.050604101
0.014996342 -0.20691115 -0.052138399
0.01485721 -0.20590013 -0.052825902
0.014957517 -0.2048784 -0.053346299
0.015773848 -0.20381048 -0.053369399
0.017078668 -0.20270246 -0.0530582
0.019382611 -0.20151192 -0.052065801
0.021983929 -0.20027831 -0.0508806
0.022593476 -0.19918455 -0.051070198
0.023206025 -0.19808561 -0.051260602
0.024077438 -0.19695827 -0.051277801
0.037257947 -0.2266829 -0.0226554
0.037077487 -0.22553948 -0.0234529
0.037188597 -0.22440505 -0.024030199
0.036141172 -0.22324723 -0.025475601
0.033122063 -0.22206646 -0.0283885
0.033230603 -0.22095248 -0.028955899
0.030285463 -0.2198156 -0.031788498
0.029301062 -0.21871263 -0.033156
0.028865501 -0.21761706 -0.034113299
0.028702028 -0.21652621 -0.034868401
0.028269023 -0.21544018 -0.0358187
0.029728167 -0.21432889 -0.035387501
0.019768156 -0.21239012 -0.043862
0.018627822 -0.21137723 -0.045291901
0.017744102 -0.21036589 -0.0465305
0.016868778 -0.20936398 -0.047758602
0.016241774 -0.20835999 -0.048804101
0.015860148 -0.207351 -0.049672101
0.015000977 -0.20637113 -0.050875202
0.014623642 -0.20537269 -0.0517333
0.015200257 -0.20431995 -0.0519193
0.016020454 -0.20324735 -0.0519379
0.017818749 -0.20209861 -0.051278099
0.019397013 -0.20095098 -0.050780501
0.021498702 -0.19974875 -0.049928401
0.022615381 -0.1986106 -0.0497659
0.023484431 -0.19748539 -0.0497781
0.024101608 -0.1963764 -0.049966801
0.024981387 -0.19523658 -0.049979899
0.025605939 -0.19411685 -0.050170101
0.037204713 -0.22727108 -0.020602399
0.03702452 -0.2261232 -0.021404199
0.036844574 -0.22497892 -0.0222042
0.036955297 -0.22384313 -0.022782199
0.037066035 -0.22270732 -0.0233602
0.029777385 -0.21926361 -0.030791201
0.028254427 -0.21816148 -0.032566302
0.027554117 -0.21707243 -0.033722199
0.027124219 -0.21598706 -0.034672901
0.02643168 -0.21491057 -0.035815202
0.026536606 -0.21382684 -0.036366802
0.02349665 -0.21281418 -0.039219901
0.019034699 -0.21186851 -0.043093
0.017899923 -0.21085998 -0.0445255
0.017020904 -0.2098525 -0.045766201
0.01590687 -0.20886406 -0.047170602
0.015766174 -0.20784175 -0.047869898
0.015385412 -0.20683327 -0.04874
0.015005246 -0.20582974 -0.049606301
0.014627554 -0.20482993 -0.0504691
0.015206166 -0.20377374 -0.050652701
0.016511135 -0.20266347 -0.0503264
0.017829791 -0.20154148 -0.049996499
0.018915981 -0.20042616 -0.0498363
0.020761847 -0.19923905 -0.049151301
0.022127196 -0.19807819 -0.048809301
0.022995003 -0.19695111 -0.048818398
0.023869544 -0.19581634 -0.0488276
0.025008202 -0.19464815 -0.048658598
0.025634371 -0.19352359 -0.048846301
0.025738128 -0.19245186 -0.049392
0.036568977 -0.22783822 -0.0189914
0.036679864 -0.22670016 -0.0195706
0.036500029 -0.22555366 -0.0203737
0.036320068 -0.22440937 -0.0211749
0.036430806 -0.22327358 -0.0217529
0.036541544 -0.22213778 -0.022330901
0.027212486 -0.21761417 -0.031979099
0.026516877 -0.216529 -0.033134401
0.025296807 -0.21545623 -0.034675598
0.024614163 -0.21438658 -0.035811599
0.023157671 -0.21334131 -0.0375158
0.020451203 -0.21234106 -0.040133499
0.017808743 -0.21136391 -0.042688601
0.01717326 -0.21034461 -0.043760698
0.016298071 -0.20934048 -0.045003299
0.015430033 -0.20834398 -0.046235301
0.015531011 -0.20731108 -0.0467612
0.015149757 -0.20630343 -0.047634501
0.015010156 -0.20528522 -0.048331901
0.014631592 -0.20428492 -0.049199201
0.015692614 -0.20319319 -0.0490373
0.016275868 -0.20212695 -0.049219102
0.01735086 -0.201019 -0.049056299
0.018434085 -0.19990082 -0.048891999
0.020026214 -0.19873118 -0.0483757
0.021386735 -0.1975687 -0.0480299
0.021996453 -0.19646463 -0.048213899
0.023122028 -0.19530508 -0.048043001
0.024515443 -0.19410962 -0.047691301
0.025139891 -0.19298406 -0.047876898
0.025505744 -0.19188237 -0.048243102
0.025610492 -0.19080895 -0.048789501
0.025714383 -0.18973501 -0.049335901
0.03564319 -0.22839373 -0.0176073
0.035753563 -0.22725657 -0.018185901
0.035864294 -0.22612077 -0.018764401
0.035974674 -0.2249836 -0.019343
0.035795577 -0.22383982 -0.020145399
0.035906307 -0.22270401 -0.020723499
0.036017045 -0.22156821 -0.0213015
0.026709095 -0.21706605 -0.030990601
0.024692833 -0.21599434 -0.033145599
0.024012059 -0.21492347 -0.0342866
0.022558928 -0.21387435 -0.036001001
0.020364314 -0.21285555 -0.038260501
0.018213265 -0.21185727 -0.0404757
0.016835712 -0.21085526 -0.0421055
0.016204558 -0.20983845 -0.043177102
0.01581914 -0.20881803 -0.044063799
0.015194379 -0.20781416 -0.045123398
0.015054174 -0.20679098 -0.045825701
0.014914215 -0.20577139 -0.046526499
0.014774628 -0.20475318 -0.0472259
0.015115678 -0.20370647 -0.047577299
0.015456855 -0.20265754 -0.0479296
0.016040742 -0.20158821 -0.0481093
0.016871564 -0.20049518 -0.048115801
0.017953552 -0.19937514 -0.0479475
0.019541852 -0.19820212 -0.047425002
0.02039624 -0.19708228 -0.047429498
0.021255486 -0.19595602 -0.047434099
0.021865971 -0.19484663 -0.047617
0.022990733 -0.1936785 -0.047443401
0.024126813 -0.19250077 -0.047268201
0.024750158 -0.19137108 -0.047453001
0.025115646 -0.19026805 -0.047818799
0.025219537 -0.18919411 -0.048365299
0.025848009 -0.18805356 -0.048553199
0.026215278 -0.18694344 -0.0489216
0.034829132 -0.22781174 -0.0168042
0.034939371 -0.22667679 -0.017382
0.035050102 -0.225541 -0.0179599
0.035160847 -0.2244052 -0.018537801
0.035271578 -0.2232694 -0.0191158
0.035382316 -0.22213359 -0.019693799
0.035493068 -0.22099778 -0.0202718
0.035602927 -0.21986149 -0.020850001
0.02647277 -0.21651739 -0.0297981
0.023931801 -0.21545449 -0.032364801
0.021960691 -0.21440655 -0.0344861
0.020278156 -0.21337277 -0.036379199
0.017626353 -0.21237983 -0.038990401
0.016742311 -0.21135904 -0.040263101
0.015865788 -0.21034722 -0.041524801
0.01548136 -0.20932506 -0.042415898
0.015340574 -0.20829694 -0.043124098
0.014957972 -0.20728159 -0.044008899
0.015059084 -0.20624648 -0.044535998
0.015159339 -0.20521085 -0.045063
0.014778435 -0.20420459 -0.0459419
0.014879413 -0.20317169 -0.046468001
0.015461929 -0.20210272 -0.046644501
0.015804745 -0.20104897 -0.046996899
0.0166362 -0.19995284 -0.046999902
0.016981281 -0.19889115 -0.0473543
0.018560655 -0.19771761 -0.046829101
0.019409575 -0.19659923 -0.0468316
0.020263501 -0.1954722 -0.046834201
0.020870753 -0.1943644 -0.047015499
0.021734394 -0.19322452 -0.0470188
0.023117192 -0.19201946 -0.0466622
0.023737311 -0.1908914 -0.046845201
0.024359927 -0.18975899 -0.047029
0.024724685 -0.18865323 -0.047394399
0.025351435 -0.18751165 -0.047580201
0.025718324 -0.18640019 -0.0479476
0.025823347 -0.1853223 -0.0484959
0.034194767 -0.22837847 -0.0151965
0.034305014 -0.22724354 -0.0157743
0.034414873 -0.22610724 -0.0163521
0.034525618 -0.22497146 -0.016930001
0.034636348 -0.22383565 -0.017508
0.03445936 -0.22269422 -0.0183117
0.034569584 -0.22155929 -0.018889001
0.034392327 -0.22042233 -0.019690201
0.034502923 -0.21928875 -0.020267
0.022652373 -0.21492249 -0.031983599
0.019937083 -0.21389754 -0.034682699
0.018530264 -0.21286821 -0.036371998
0.016157769 -0.21187949 -0.038784001
0.015771151 -0.21084915 -0.039684899
0.015143082 -0.209833 -0.040764298
0.015002429 -0.20880261 -0.041475002
0.014861129 -0.20777534 -0.0421842
0.014721572 -0.20674905 -0.042891901
0.014822319 -0.20571257 -0.043419499
0.014923073 -0.20467606 -0.043947201
0.014782377 -0.20365377 -0.044652399
0.014883988 -0.20261776 -0.045179501
0.015225433 -0.20156437 -0.045530401
0.015811451 -0.20048934 -0.045705501
0.016155533 -0.19942939 -0.0460581
0.016501114 -0.19836682 -0.046411499
0.017336987 -0.19725707 -0.046412699
0.01842688 -0.19611733 -0.046236102
0.019026533 -0.1950167 -0.046415102
0.019879855 -0.1938847 -0.046416398
0.020738035 -0.19274627 -0.046417698
0.021347702 -0.19162832 -0.046598699
0.022728786 -0.19041422 -0.046239901
0.023606449 -0.18925005 -0.046240699
0.024229825 -0.18811233 -0.046423402
0.024855353 -0.18696889 -0.046607099
0.025222741 -0.18585655 -0.0469734
0.025326394 -0.18477902 -0.047521699
0.025694914 -0.18366274 -0.047889501
0.026062705 -0.18254372 -0.0482582
0.033670284 -0.22780894 -0.0141664
0.033493541 -0.22666302 -0.0149739
0.033318415 -0.22552037 -0.015779501
0.03342814 -0.2243863 -0.016356001
0.033538252 -0.22325362 -0.016932599
0.033362851 -0.22211543 -0.017735099
0.033473313 -0.22098407 -0.0183111
0.033013366 -0.21984673 -0.019334599
0.033979297 -0.21871971 -0.0192394
0.021381259 -0.21439415 -0.0316048
0.019193366 -0.21336769 -0.0339128
0.017544374 -0.2123498 -0.0357958
0.015675873 -0.21135417 -0.037836801
0.015046716 -0.2103339 -0.0389245
0.014422119 -0.20931973 -0.0400053
0.014523 -0.20828101 -0.0405339
0.01438307 -0.20725337 -0.041244201
0.014243007 -0.20622796 -0.041952901
0.014343761 -0.20519146 -0.042480499
0.014445007 -0.2041541 -0.043008201
0.014545381 -0.20311624 -0.043535899
0.014887325 -0.20206198 -0.043885302
0.015230775 -0.20100512 -0.044235598
0.015332155 -0.19996552 -0.0447645
0.01591894 -0.19888517 -0.0449384
0.016264163 -0.19782124 -0.045290999
0.016855091 -0.19673175 -0.045466699
0.017202936 -0.19566125 -0.045821
0.018045425 -0.19453801 -0.0458204
0.018892415 -0.19340697 -0.0458197
0.01974564 -0.19226915 -0.0458191
0.020352073 -0.1911528 -0.045998398
0.020961493 -0.19003126 -0.046178602
0.022084482 -0.18884018 -0.045998499
0.023216575 -0.18763933 -0.045816898
0.023839362 -0.18649665 -0.045998801
0.02446416 -0.18535048 -0.0461815
0.024830312 -0.18423627 -0.046547402
0.025197096 -0.18311898 -0.046914101
0.025564529 -0.1819986 -0.047281701
0.02593381 -0.18087697 -0.047650199
0.026567504 -0.17970939 -0.047837999
0.033145286 -0.22724023 -0.0131361
0.032399796 -0.22607544 -0.0144049
0.0322254 -0.22493553 -0.0152093
0.032051735 -0.22379833 -0.016011899
0.031878807 -0.22266388 -0.0168126
0.031988636 -0.22153564 -0.0173866
0.032098457 -0.2204074 -0.017960601
0.032208301 -0.21927914 -0.018534601
0.021295428 -0.21492079 -0.029685
0.01910349 -0.21388738 -0.032017201
0.017700762 -0.21285695 -0.033725899
0.016315587 -0.21184014 -0.0354122
0.014949337 -0.21083656 -0.0370767
0.014565177 -0.20980994 -0.037980299
0.013941817 -0.20879763 -0.039064098
0.01404319 -0.20775804 -0.039592698
0.014144078 -0.20671931 -0.040121399
0.014004514 -0.20569304 -0.040832199
0.0146496 -0.20152172 -0.042765498
0.01475098 -0.20048214 -0.0432944
0.015336402 -0.19940218 -0.0434651
0.015681118 -0.1983391 -0.043816101
0.016026475 -0.19727293 -0.044167899
0.016372822 -0.19620505 -0.044520501
0.016719811 -0.19513404 -0.044873901
0.017067797 -0.19406132 -0.045228101
0.017910697 -0.19293138 -0.045225501
0.018509015 -0.19182307 -0.045402501
0.01936128 -0.19067891 -0.045400601
0.019967459 -0.18955895 -0.045579001
0.020575292 -0.18843417 -0.0457583
0.021695584 -0.18723576 -0.045576502
0.022826843 -0.18602638 -0.045393098
0.023448408 -0.18488181 -0.045573998
0.024072595 -0.18373069 -0.0457558
0.024438024 -0.18261376 -0.046121299
0.024804436 -0.18149509 -0.0464876
0.025434762 -0.18033135 -0.0466724
0.026068099 -0.17916238 -0.046858002
0.026438281 -0.17803322 -0.047227301
0.032334685 -0.22666022 -0.0123384
0.031593904 -0.2254993 -0.0136086
0.030856684 -0.22434622 -0.0148698
0.030126132 -0.22320157 -0.0161223
0.029955886 -0.22207445 -0.0169183
0.030065313 -0.2209529 -0.017488901
0.029617235 -0.21982703 -0.0185047
0.029726528 -0.2187077 -0.019074099
0.018508472 -0.21441795 -0.0305099
0.017358087 -0.21337847 -0.032033499
0.016467646 -0.21234477 -0.033347599
0.015585229 -0.21131916 -0.0346504
0.014467441 -0.21031122 -0.036130201
0.014084518 -0.20928648 -0.037035801
0.013462886 -0.20827517 -0.038122699
0.01356376 -0.20723644 -0.038651399
0.013664275 -0.20619635 -0.0391801
0.014512524 -0.19993918 -0.0421726
0.015098937 -0.19885746 -0.042341098
0.015200086 -0.19781427 -0.042871799
0.015544578 -0.1967476 -0.043222599
0.015890568 -0.19567834 -0.043574199
0.016236678 -0.19460686 -0.0439265
0.0165838 -0.19353363 -0.044279698
0.01717826 -0.19243 -0.044454101
0.017527141 -0.19134971 -0.044809099
0.018374816 -0.19020751 -0.044805199
0.018976904 -0.18908866 -0.044982001
0.019581996 -0.18796462 -0.0451595
0.020188712 -0.18683574 -0.045337901
0.02130805 -0.18563099 -0.0451543
0.022437483 -0.18441477 -0.044969101
0.02305758 -0.18326475 -0.045149099
0.023681037 -0.18211089 -0.0453301
0.024046093 -0.18099259 -0.0456951
0.024411783 -0.1798712 -0.046061002
0.025303908 -0.17866001 -0.046061601
0.02593714 -0.17748521 -0.0462461
0.026043057 -0.17639975 -0.046798501
0.026148982 -0.17531429 -0.047350898
0.030961536 -0.2260626 -0.0120076
0.029946648 -0.22490044 -0.013504
0.029220179 -0.2237547 -0.0147597
0.029050805 -0.22262809 -0.0155563
0.028606452 -0.22149974 -0.0165754
0.028438546 -0.22037856 -0.017367201
0.027996741 -0.21925977 -0.018378699
0.028105281 -0.2181458 -0.0189454
0.017912596 -0.21494803 -0.029002501
0.017014407 -0.21390174 -0.0303372
0.016125098 -0.21286409 -0.031660199
0.015243322 -0.21183537 -0.032971799
0.014856108 -0.21080005 -0.033890098
0.013985045 -0.20978676 -0.0351835
0.013603494 -0.20876163 -0.036091201
0.013222523 -0.2077415 -0.036995001
0.013083965 -0.20671348 -0.037709799
0.014617041 -0.19833213 -0.041396599
0.014961027 -0.19726634 -0.0417457
0.015063182 -0.19622141 -0.042277101
0.015408292 -0.19515166 -0.0426277
0.015754417 -0.19408016 -0.042978998
0.016099803 -0.19300593 -0.043331198
0.01669389 -0.19190095 -0.043503501
0.017041914 -0.19082014 -0.0438575
0.0173923 -0.18973726 -0.0442122
0.017990299 -0.18861952 -0.0443873
0.01884187 -0.18746455 -0.0443822
0.019195147 -0.18637064 -0.044739898
0.020054713 -0.18520184 -0.044736002
0.020665213 -0.18406242 -0.0449141
0.022046894 -0.18280131 -0.044544999
0.02266711 -0.18164906 -0.0447242
0.0232886 -0.1804906 -0.044904198
0.023653798 -0.17937006 -0.0452688
0.024542831 -0.17815824 -0.0452668
0.025173821 -0.17698333 -0.045449302
0.02554328 -0.1758514 -0.0458171
0.025648333 -0.17476544 -0.0463695
0.025753386 -0.17367947 -0.046921901
0.029317148 -0.22546075 -0.0119103
0.028315246 -0.22430612 -0.0134002
0.028147601 -0.22318047 -0.0141974
0.027705476 -0.22205228 -0.0152184
0.02753929 -0.2209321 -0.0160108
0.027100235 -0.2198126 -0.0170242
0.026390754 -0.21869743 -0.0182536
0.025687076 -0.21759027 -0.019474501
0.025794201 -0.21648473 -0.020036699
0.020365819 -0.21544294 -0.0250463
0.016422257 -0.21442936 -0.0288362
0.015782058 -0.21338426 -0.029968901
0.014900051 -0.21235193 -0.031289201
0.014269695 -0.21132173 -0.032405399
0.014128342 -0.21028057 -0.033131301
0.013502285 -0.20926094 -0.034236699
0.013121955 -0.20823768 -0.0351464
0.012982659 -0.20720695 -0.0358648
0.014581285 -0.19569609 -0.0413315
0.014925532 -0.19462582 -0.041680999
0.015271291 -0.19355297 -0.0420314
0.015617169 -0.19247788 -0.042382501
0.016208671 -0.19137138 -0.042552799
0.016557187 -0.19028974 -0.042905699
0.016906217 -0.1892072 -0.043259401
0.017503843 -0.18808809 -0.0434325
0.017854631 -0.1869985 -0.043788001
0.018456757 -0.18587157 -0.043962799
0.018810175 -0.18477544 -0.0443203
0.019667789 -0.18360204 -0.044314999
0.020277187 -0.18245852 -0.0444922
0.021656655 -0.18118922 -0.0441208
0.022275411 -0.18003149 -0.0442991
0.022897542 -0.17886993 -0.0444782
0.023521818 -0.17770268 -0.044658199
0.024149574 -0.17652936 -0.044838998
0.02477897 -0.17535123 -0.045020599
0.025147192 -0.17421745 -0.045387998
0.025517419 -0.17308019 -0.045756198
0.02588778 -0.17194071 -0.0461253
0.02741304 -0.22485679 -0.0120436
0.026972912 -0.2237251 -0.0130696
0.026807725 -0.2226032 -0.0138644
0.026642419 -0.22148354 -0.0146575
0.025934204 -0.2203622 -0.0158963
0.025230549 -0.21924697 -0.0171267
0.024264276 -0.2181406 -0.018567299
0.023572586 -0.21704265 -0.0197789
0.021573335 -0.21596345 -0.022047199
0.016326047 -0.21495003 -0.026932901
0.015437134 -0.21390565 -0.0282738
0.014801636 -0.21286438 -0.029405899
0.014170185 -0.21183009 -0.0305306
0.013784334 -0.2107944 -0.031454202
0.013643838 -0.20975375 -0.0321812
0.013019882 -0.20873648 -0.033289701
0.012880363 -0.20770213 -0.034011502
0.014443278 -0.19409913 -0.040734202
0.014787294 -0.19302526 -0.0410835
0.015377291 -0.19192137 -0.041250698
0.015969418 -0.19081177 -0.041418701
0.01631844 -0.18972924 -0.041770801
0.016666725 -0.18864399 -0.042123701
0.017264485 -0.18752266 -0.042294499
0.017616272 -0.18643133 -0.042649198
0.017968208 -0.18533778 -0.043004699
0.018070787 -0.1842781 -0.043543499
0.018674821 -0.18314192 -0.043718301
0.019280486 -0.18200086 -0.043893799
0.019889146 -0.18085462 -0.044070199
0.02126655 -0.17957489 -0.0436965
0.021884583 -0.17841442 -0.043873899
0.022764191 -0.17720291 -0.043867201
0.023128793 -0.17607743 -0.044231199
0.023754954 -0.17490087 -0.0444111
0.024384111 -0.17371915 -0.044591799
0.025016777 -0.17253134 -0.0447734
0.025386266 -0.17139137 -0.045141399
0.025757268 -0.17024878 -0.0455103
0.026128896 -0.1691031 -0.045880102
0.026348144 -0.22428122 -0.0114885
0.025910497 -0.22315326 -0.0125134
0.025746897 -0.2220346 -0.013307
0.025042795 -0.22091219 -0.0145491
0.024342738 -0.2197967 -0.015782701
0.023382418 -0.21868801 -0.017227801
0.022694319 -0.21758983 -0.0184425
0.020964637 -0.21650575 -0.020507
0.018497311 -0.21544728 -0.0231659
0.015339196 -0.2144253 -0.0263732
0.014701724 -0.21337943 -0.027513999
0.014069177 -0.21234103 -0.0286474
0.013683952 -0.21130227 -0.029577199
0.013542734 -0.21025886 -0.030307701
0.013402753 -0.20921732 -0.031036699
0.013019592 -0.20818897 -0.031957299
0.014304161 -0.19249806 -0.040135499
0.014892921 -0.19139232 -0.040300701
0.015729286 -0.19025168 -0.040282
0.016324922 -0.18913603 -0.040448502
0.016674355 -0.1880468 -0.040800799
0.01702477 -0.18695584 -0.0411538
0.017376691 -0.1858623 -0.041507699
0.017479271 -0.18480264 -0.042046402
0.017582722 -0.18374345 -0.042585202
0.017934926 -0.18264544 -0.042941101
0.018538356 -0.18150426 -0.0431148
0.019144781 -0.1803579 -0.0432893
0.019754216 -0.17920634 -0.043464601
0.020875953 -0.17796142 -0.0432721
0.021493755 -0.17679736 -0.043448601
0.022372395 -0.17557953 -0.043440599
0.02273576 -0.17445219 -0.043804102
0.023100615 -0.17332222 -0.044168498
0.023989752 -0.17208618 -0.044162899
0.024620816 -0.17089516 -0.044343598
0.025254525 -0.16969755 -0.044525199
0.025626153 -0.16855188 -0.044893801
0.025997549 -0.1674026 -0.045263302
0.025287583 -0.22370818 -0.0109357
0.024584375 -0.22257817 -0.0121874
0.02442275 -0.2214641 -0.0129787
0.023458146 -0.22034484 -0.0144416
0.022766627 -0.21923661 -0.015669901
0.022080883 -0.21813633 -0.0168899
0.021137498 -0.21704432 -0.018318599
0.019171469 -0.2159716 -0.020587301
0.01673796 -0.21492456 -0.023230599
0.014603041 -0.21389635 -0.0256138
0.013968028 -0.21285422 -0.0267558
0.013582587 -0.21181184 -0.0276917
0.013198234 -0.21077356 -0.0286236
0.01305788 -0.20973065 -0.0293552
0.012917392 -0.20869 -0.0300852
0.014652669 -0.19083443 -0.039165098
0.015735283 -0.1896593 -0.038956299
0.016084202 -0.18857095 -0.039306901
0.016682111 -0.18744737 -0.039471801
0.016784683 -0.1863877 -0.040010501
0.016888142 -0.18532851 -0.0405492
0.016990721 -0.18426883 -0.041087899
0.017342411 -0.18317169 -0.041442201
0.017445996 -0.18211028 -0.0419816
0.017797954 -0.18100868 -0.042337298
0.018402152 -0.17986217 -0.042509899
0.018757112 -0.17875537 -0.0428675
0.019618556 -0.17755531 -0.042857599
0.020741343 -0.1763006 -0.0426622
0.021359034 -0.17513072 -0.042837601
0.021979235 -0.1739565 -0.0430138
0.022343233 -0.17282605 -0.0433769
0.022707723 -0.17169473 -0.043740898
0.023594528 -0.17045273 -0.043733899
0.024224505 -0.16925761 -0.0439137
0.024857968 -0.1680564 -0.044094302
0.025493935 -0.16685088 -0.044275802
0.025865965 -0.1656985 -0.044645101
0.026506573 -0.16448295 -0.044828501
0.023963347 -0.22313184 -0.010615
0.022732988 -0.22199887 -0.0123167
0.022574566 -0.22089127 -0.0131034
0.022151329 -0.21978435 -0.0141118
0.021467946 -0.21868196 -0.0153371
0.020526931 -0.21758787 -0.016772799
0.01959566 -0.21650288 -0.018195599
0.017651916 -0.21543954 -0.020455301
0.015992641 -0.2143915 -0.022467701
0.014112614 -0.2133638 -0.024652701
0.013480201 -0.21232316 -0.0257979
0.013095617 -0.21128128 -0.0267359
0.012955405 -0.21023616 -0.027471101
0.012814187 -0.20919275 -0.028204801
0.016441159 -0.18687871 -0.038325202
0.016544238 -0.18581815 -0.038864501
0.016647317 -0.18475763 -0.0394038
0.016750403 -0.18369707 -0.039943099
0.016853489 -0.18263653 -0.040482499
0.017205454 -0.18153492 -0.040836599
0.017308168 -0.18047301 -0.041376598
0.017911501 -0.17932601 -0.041547101
0.018014848 -0.178261 -0.042088501
0.018620454 -0.17710608 -0.042261001
0.019483164 -0.17589982 -0.042249002
0.020350009 -0.17468441 -0.042237099
0.020967476 -0.17351092 -0.042411599
0.021587074 -0.17233174 -0.0425869
0.021950208 -0.1712008 -0.042949598
0.02257394 -0.17001246 -0.043126799
0.023199819 -0.16881841 -0.043304801
0.02382955 -0.16761969 -0.043483701
0.024725631 -0.16635764 -0.043476
0.025362 -0.16514541 -0.043656301
0.026000865 -0.16392887 -0.043837499
0.026643239 -0.16270626 -0.044019599
0.021322295 -0.22253424 -0.0114346
0.021165475 -0.22142987 -0.0122195
0.021009386 -0.22032824 -0.0130027
0.020592064 -0.21922705 -0.0140068
0.020176224 -0.21813133 -0.0150064
0.018987462 -0.21704431 -0.0166566
0.01806695 -0.21596667 -0.0180736
0.016901039 -0.21490209 -0.019690201
0.015498027 -0.21385419 -0.0214979
0.013868928 -0.21282586 -0.0234868
0.013236523 -0.21178526 -0.024637099
0.0130952 -0.21073602 -0.025377
0.012710847 -0.20969774 -0.026316
0.016302921 -0.18524814 -0.0377158
0.016406141 -0.18418536 -0.038255699
0.016508855 -0.18312344 -0.038795698
0.01661244 -0.18206203 -0.039335702
0.016715661 -0.18099928 -0.039875701
0.017067753 -0.17989543 -0.040229499
0.017420478 -0.17878848 -0.040584199
0.017523825 -0.17772347 -0.041125499
0.018129066 -0.17656718 -0.041295901
0.018735938 -0.17540604 -0.0414671
0.019347176 -0.17423937 -0.041639101
0.020214416 -0.17301726 -0.041625101
0.020575546 -0.17188977 -0.041985501
0.021193556 -0.17070735 -0.0421599
0.02155681 -0.16957417 -0.042522199
0.022179455 -0.16838174 -0.042698499
0.022804588 -0.16718496 -0.042875599
0.023958676 -0.16586402 -0.042677801
0.02459231 -0.16465256 -0.042856101
0.025495656 -0.16337392 -0.0428463
0.026136294 -0.16215031 -0.043026201
0.026511736 -0.16098602 -0.043396302
0.020027399 -0.22196907 -0.0111158
0.019873038 -0.22086844 -0.0118984
0.019979134 -0.21977267 -0.0124554
0.01956515 -0.21867573 -0.0134585
0.018894143 -0.21758394 -0.0146777
0.017716147 -0.21650429 -0.0163243
0.016804285 -0.21543166 -0.017738
0.016151898 -0.21436566 -0.018926701
0.015253738 -0.2133113 -0.020317901
0.013869874 -0.21228026 -0.0221115
0.01323659 -0.21123911 -0.023268901
0.012850277 -0.21019624 -0.024215501
0.01637017 -0.18148568 -0.038186099
0.016473882 -0.18042204 -0.038726699
0.016826108 -0.17931597 -0.0390797
0.016929455 -0.17825095 -0.039620999
0.017282814 -0.17714092 -0.039975401
0.017636314 -0.17602865 -0.040330701
0.018242821 -0.17486615 -0.040499698
0.018852323 -0.17369847 -0.040669601
0.019209579 -0.17257568 -0.041027699
0.019823723 -0.17139797 -0.041199401
0.020183623 -0.1702686 -0.041559301
0.020801388 -0.1690826 -0.0417329
0.021163426 -0.16794755 -0.0420947
0.022044204 -0.16669399 -0.042082299
0.022670612 -0.16549101 -0.0422583
0.023561262 -0.16422239 -0.042246498
0.02445963 -0.16294435 -0.042234801
0.025362521 -0.16165851 -0.042222898
0.025736585 -0.16049463 -0.042591698
0.026648462 -0.1591932 -0.0425811
0.027567074 -0.15788412 -0.042570401
0.019106485 -0.22031617 -0.0111296
0.018953584 -0.219221 -0.0119105
0.018542558 -0.21812689 -0.0129125
0.017877117 -0.2170395 -0.0141309
0.016961075 -0.21596213 -0.0155591
0.016305849 -0.21489102 -0.016759099
0.015655182 -0.213826 -0.017951099
0.015008584 -0.21276794 -0.019135101
0.014117815 -0.2117248 -0.020520899
0.013235934 -0.21069026 -0.0218945
0.016231731 -0.17984346 -0.0375751
0.016335085 -0.17877844 -0.038116399
0.016687945 -0.17766927 -0.038469099
0.017040938 -0.17655787 -0.038822699
0.017394565 -0.17544337 -0.039177001
0.018001713 -0.17427778 -0.0393437
0.01835797 -0.17315671 -0.039699901
0.01871524 -0.17203391 -0.040056899
0.018819116 -0.17095999 -0.040602699
0.019431658 -0.16977903 -0.0407735
0.020047195 -0.1685929 -0.040945102
0.02040837 -0.16745734 -0.041305698
0.021027185 -0.16626152 -0.0414791
0.021649852 -0.16506103 -0.041653302
0.022535525 -0.163793 -0.0416396
0.023427941 -0.16251729 -0.041625701
0.024325863 -0.16123205 -0.041611899
0.024963178 -0.16000421 -0.041788802
0.025603481 -0.15877117 -0.041966502
0.026516262 -0.15746219 -0.041953798
0.027434904 -0.15614505 -0.041940998
0.02808721 -0.15489122 -0.0421209
0.018341638 -0.21976489 -0.0103623
0.01793199 -0.21867043 -0.0113679
0.017781056 -0.21757986 -0.0121459
0.017118573 -0.21649531 -0.0133654
0.016461022 -0.21541823 -0.0145768
0.015807025 -0.21434897 -0.015780101
0.015408799 -0.21328074 -0.0167602
0.015011661 -0.2122166 -0.017735999
0.014120027 -0.21117298 -0.0191311
0.016092211 -0.17819712 -0.036962599
0.016196057 -0.17713125 -0.037504502
0.016548693 -0.17601848 -0.037857
0.017403603 -0.17480773 -0.037830502
0.017759375 -0.17368752 -0.038185
0.017863616 -0.17261496 -0.0387301
0.018220022 -0.17149165 -0.039085999
0.018323913 -0.17041773 -0.039631799
0.018681929 -0.1692896 -0.0399893
0.019294374 -0.16810282 -0.040158901
0.019654542 -0.166969 -0.040518198
0.020015344 -0.16583207 -0.0408784
0.020633921 -0.16463268 -0.0410509
0.021514133 -0.16336611 -0.041035101
0.022400215 -0.16209137 -0.041019302
0.023030303 -0.16087204 -0.041193798
0.02392675 -0.15958135 -0.041178599
0.024829566 -0.15828162 -0.041163199
0.025203031 -0.15711276 -0.041531298
0.02638296 -0.15572707 -0.041324899
0.027032033 -0.15447485 -0.0415029
0.027683247 -0.15321693 -0.0416818
0.028063249 -0.15202874 -0.0420545
0.01717186 -0.21812302 -0.0106027
0.017021291 -0.21703382 -0.0113808
0.016616799 -0.21595043 -0.0123796
0.015960477 -0.21487521 -0.0135943
0.015308209 -0.21380696 -0.0148008
0.014910847 -0.21273921 -0.0157832
0.014764905 -0.21167 -0.0165461
0.016055934 -0.17547995 -0.0368913
0.016909614 -0.17426732 -0.036861502
0.017264523 -0.17314664 -0.037214998
0.017620049 -0.17202283 -0.037569199
0.017724797 -0.1709494 -0.038114998
0.017828688 -0.16987547 -0.038660798
0.018185854 -0.16874684 -0.0390171
0.018290393 -0.16767097 -0.0395636
0.018902197 -0.16648151 -0.0397324
0.019517057 -0.16528575 -0.039901901
0.019621953 -0.16420546 -0.040451001
0.020496964 -0.16294049 -0.040433198
0.021377757 -0.16166732 -0.040415399
0.022003591 -0.16045016 -0.0405882
0.022894569 -0.15916093 -0.0405709
0.023791753 -0.15786257 -0.040553499
0.024428897 -0.1566254 -0.040728301
0.025069125 -0.15538192 -0.040904
0.025980659 -0.15406068 -0.040887699
0.026628122 -0.15280405 -0.041064799
0.027278405 -0.15154213 -0.0412427
0.028205153 -0.15019616 -0.041227601
0.01651828 -0.21648706 -0.0103925
0.016368806 -0.21540195 -0.01117
0.01545956 -0.21433082 -0.0126116
0.015061088 -0.21325898 -0.0136021
0.014914557 -0.2121848 -0.01437
0.016770169 -0.17260487 -0.036244798
0.017124832 -0.17148058 -0.036598001
0.017229579 -0.17040715 -0.0371437
0.017585881 -0.16927801 -0.0374984
0.017690092 -0.16820312 -0.038044799
0.017794229 -0.16712818 -0.038591299
0.018151574 -0.16599503 -0.0389481
0.018764287 -0.16479917 -0.039115801
0.019124001 -0.16365932 -0.039474402
0.019484125 -0.16251738 -0.039833799
0.020102367 -0.16130856 -0.040004399
0.020982124 -0.16002899 -0.039985199
0.021867633 -0.15874124 -0.039965902
0.022759356 -0.15744434 -0.0399465
0.023392335 -0.15620938 -0.040119499
0.024028473 -0.15496816 -0.040293399
0.024934888 -0.15364742 -0.040275101
0.025578268 -0.15239306 -0.040450402
0.026765775 -0.15097941 -0.040238202
0.027417745 -0.14971039 -0.040414698
0.028347239 -0.14835447 -0.040396798
0.016629696 -0.17093837 -0.035626601
0.016985588 -0.16981016 -0.035979498
0.017089799 -0.16873527 -0.036525901
0.017193921 -0.16766031 -0.037072401
0.017550923 -0.16652697 -0.037427399
0.017908409 -0.16539159 -0.037783299
0.018266372 -0.16425419 -0.038140099
0.018371113 -0.16317497 -0.038688499
0.018730529 -0.16203265 -0.039046701
0.019346133 -0.1608246 -0.0392153
0.019964889 -0.15961029 -0.0393846
0.020585805 -0.15839145 -0.039554801
0.021470271 -0.15709729 -0.039534099
0.022360429 -0.15579489 -0.039513301
0.023256786 -0.15448335 -0.039492399
0.023893349 -0.15323661 -0.039665099
0.024532657 -0.15198451 -0.039838601
0.025443703 -0.15064913 -0.039818801
0.026632499 -0.14922468 -0.039603502
0.027284794 -0.14795007 -0.039778799
0.027940247 -0.14666919 -0.039955001
0.028598852 -0.14538205 -0.0401319
0.016740978 -0.16921283 -0.034812499
0.016845174 -0.16813676 -0.035359502
0.017201819 -0.16700323 -0.035713099
0.017306507 -0.16592512 -0.036260799
0.01741118 -0.16484702 -0.036808599
0.01776886 -0.1637083 -0.0371642
0.017873593 -0.1626291 -0.037712701
0.018232331 -0.16148636 -0.0380698
0.018591538 -0.16034159 -0.0384278
0.019207567 -0.15912801 -0.0385952
0.01982674 -0.15790817 -0.0387634
0.020707443 -0.15661415 -0.038740098
0.02159375 -0.15531184 -0.038716599
0.022224072 -0.15407187 -0.0388867
0.023120578 -0.1527535 -0.0388637
0.023492284 -0.1515767 -0.0392294
0.024397779 -0.15024272 -0.0392076
0.02504066 -0.14897883 -0.039380699
0.026227098 -0.14754725 -0.0391635
0.027151085 -0.14618586 -0.039141402
0.02753292 -0.14498371 -0.039512999
0.028190602 -0.14369257 -0.039689001
0.016852051 -0.16748026 -0.033994701
0.016704604 -0.16645865 -0.034738101
0.016809188 -0.16538051 -0.035285801
0.017166115 -0.16424249 -0.0356398
0.017270766 -0.16316323 -0.0361882
0.017628729 -0.16202122 -0.0365436
0.017733872 -0.16093992 -0.037092701
0.018092886 -0.15979388 -0.037449598
0.018452294 -0.15864578 -0.037807401
0.019068748 -0.15742666 -0.037973601
0.019687921 -0.15620221 -0.038140699
0.020569354 -0.15490052 -0.0381152
0.021195605 -0.15366283 -0.038283601
0.022087052 -0.152345 -0.038258702
0.022719961 -0.15109499 -0.0384284
0.023356099 -0.14983875 -0.038598999
0.023994807 -0.14857708 -0.038770299
0.024636853 -0.14730924 -0.038942501
0.025821526 -0.14586972 -0.038723402
0.026744392 -0.14450189 -0.038699701
0.027125914 -0.14329727 -0.039071001
0.027782589 -0.14200208 -0.039246
0.027891416 -0.1408802 -0.0398161
0.016668513 -0.16369656 -0.034663599
0.017025635 -0.16255522 -0.0350173
0.017130271 -0.16147476 -0.035566401
0.017235406 -0.16039348 -0.036115501
0.017593645 -0.159247 -0.0364713
0.017952867 -0.15809761 -0.0368279
0.018568426 -0.15687683 -0.036991999
0.019186139 -0.15565154 -0.037156899
0.019807 -0.15441997 -0.037322499
0.020431019 -0.15318213 -0.0374889
0.02105777 -0.15193896 -0.037656099
0.021687191 -0.15069039 -0.037824199
0.022319168 -0.14943638 -0.037992999
0.022954386 -0.14817615 -0.0381626
0.023592256 -0.14691052 -0.038332999
0.024233289 -0.14563864 -0.038504299
0.025416207 -0.14419118 -0.038283199
0.026337832 -0.14281687 -0.038258001
0.026718646 -0.14161068 -0.038628802
0.027374305 -0.14031143 -0.038802899
0.027483054 -0.1391895 -0.0393731
0.027592205 -0.13806665 -0.0399432
0.016527176 -0.16200876 -0.034039799
0.016632229 -0.16092741 -0.034588899
0.01698979 -0.15978169 -0.034942999
0.017348163 -0.15863298 -0.0352979
0.017707519 -0.15748137 -0.035653699
0.018067345 -0.15632772 -0.036010299
0.018684167 -0.15510076 -0.0361729
0.019304056 -0.15386748 -0.0363364
0.019668158 -0.15270245 -0.036695801
0.020032655 -0.15153532 -0.0370562
0.020658486 -0.15028815 -0.037222501
0.021286972 -0.14903559 -0.037389599
0.021918196 -0.14777768 -0.037557401
0.022552498 -0.14651345 -0.037726101
0.023189861 -0.1452429 -0.037895601
0.023829959 -0.14396702 -0.038065899
0.02528083 -0.14242484 -0.037645102
0.025931016 -0.14113168 -0.037816301
0.026311129 -0.13992393 -0.038186599
0.02696586 -0.13862069 -0.038359702
0.027074929 -0.1374978 -0.038929898
0.027458213 -0.13628033 -0.0393029
0.016385756 -0.16031632 -0.033414599
0.016743369 -0.15916832 -0.0337677
0.017101966 -0.15801743 -0.0341218
0.017461121 -0.15686454 -0.034476601
0.017821081 -0.15570867 -0.034832299
0.017926794 -0.15462077 -0.0353847
0.018287811 -0.15346088 -0.035741799
0.018906862 -0.15222365 -0.0359044
0.019270249 -0.15105705 -0.036263399
0.01963453 -0.1498875 -0.036623299
0.020259444 -0.14863633 -0.036788698
0.020887092 -0.14737982 -0.036954802
0.021517314 -0.14611785 -0.037121799
0.022150762 -0.14484967 -0.0372895
0.022786785 -0.14357606 -0.037458099
0.023425873 -0.14229611 -0.037627399
0.024874777 -0.14074355 -0.037204102
0.025253188 -0.13953714 -0.037572902
0.02590375 -0.13823612 -0.037744202
0.026557565 -0.13692889 -0.037916299
0.026666552 -0.13580593 -0.0384866
0.027049031 -0.13458684 -0.038859099
0.027432412 -0.13336481 -0.0392326
0.016496502 -0.15855351 -0.0325897
0.016854726 -0.15740123 -0.032942802
0.017214514 -0.15624528 -0.033296701
0.017319731 -0.15515824 -0.033849102
0.017680388 -0.15399815 -0.034204502
0.018041626 -0.15283608 -0.034560699
0.01866056 -0.15159647 -0.034720801
0.018766273 -0.15050396 -0.035275798
0.019130368 -0.14933315 -0.0356346
0.019494765 -0.14816019 -0.035994299
0.020119675 -0.14690441 -0.036158498
0.020747669 -0.14564231 -0.036323398
0.021116327 -0.14445797 -0.036685999
0.021748766 -0.14318575 -0.036852799
0.022119634 -0.1419946 -0.0372173
0.023022115 -0.14062425 -0.037188798
