ply
format ascii 1.0
element vertex 1200
property float x
property float y
property float z
property uchar diffuse_red
property uchar diffuse_green
property uchar diffuse_blue
end_header
0.141895 -0.219417 -0.0162463 89 97 88
0.141254 -0.220145 -0.0169646 79 107 96
0.140614 -0.220872 -0.017683 69 118 108
0.139524 -0.221584 -0.0179319 54 113 115
0.138662 -0.222302 -0.0184139 44 97 107
0.137801 -0.223018 -0.0188949 42 84 89
0.136943 -0.223732 -0.019375 40 77 77
0.136305 -0.224456 -0.0200896 41 76 74
0.135887 -0.225191 -0.0210412 49 76 74
0.135249 -0.225916 -0.0217568 68 75 75
0.134611 -0.226641 -0.0224723 81 76 72
0.133972 -0.227365 -0.023188 89 82 71
0.133334 -0.22809 -0.0239037 94 89 74
0.132265 -0.228784 -0.0241381 89 84 73
0.130352 -0.229409 -0.0234164 85 90 76
0.129299 -0.230094 -0.0236499 82 88 73
0.128459 -0.230793 -0.0241199 91 80 70
0.127413 -0.231473 -0.0243512 82 76 72
0.126372 -0.232149 -0.0245816 69 76 72
0.125336 -0.232823 -0.024811 54 76 75
0.123699 -0.233433 -0.0243318 44 82 84
0.122278 -0.234057 -0.0240914 39 96 97
0.121263 -0.234719 -0.0243193 43 112 117
0.119862 -0.235333 -0.0240806 55 135 139
0.118858 -0.235988 -0.0243071 73 146 147
0.117476 -0.236594 -0.0240701 87 139 144
0.116294 -0.237218 -0.024065 94 124 124
0.115307 -0.237862 -0.0242895 97 106 95
0.114511 -0.23853 -0.024743 95 89 78
0.143385 -0.217049 -0.0160451 91 95 88
0.142513 -0.217776 -0.0165324 83 111 96
0.141643 -0.218501 -0.0170186 68 116 109
0.140774 -0.219225 -0.0175037 51 106 112
0.139908 -0.219948 -0.0179879 41 92 100
0.139267 -0.220676 -0.0187063 35 81 83
0.138403 -0.221396 -0.0191887 34 77 76
0.137541 -0.222114 -0.01967 41 74 76
0.136681 -0.222831 -0.0201503 60 74 76
0.136042 -0.223557 -0.0208666 78 79 74
0.135622 -0.224293 -0.0218213 87 89 76
0.124442 -0.231902 -0.024873 88 85 71
0.122812 -0.232516 -0.0243941 73 78 71
0.1212 -0.233123 -0.0239203 55 79 76
0.120188 -0.233786 -0.0241482 46 86 90
0.119182 -0.234445 -0.0243751 42 103 111
0.117413 -0.235015 -0.0236755 51 127 132
0.116043 -0.235622 -0.0234422 66 143 149
0.115245 -0.236293 -0.0238971 83 146 149
0.114448 -0.236961 -0.024351 95 130 123
0.113839 -0.237653 -0.0250341 98 104 90
0.113045 -0.23832 -0.0254865 96 88 77
0.144475 -0.215393 -0.0168025 83 110 95
0.143135 -0.216123 -0.0168203 68 112 110
0.142033 -0.216851 -0.0170727 53 104 106
0.141162 -0.217578 -0.0175589 41 93 93
0.140293 -0.218304 -0.0180441 33 84 85
0.139426 -0.219028 -0.0185282 32 78 80
0.138784 -0.219757 -0.0192476 48 74 76
0.13792 -0.220479 -0.0197299 72 75 74
0.137279 -0.221207 -0.0204486 84 82 76
0.136638 -0.221934 -0.0211673 83 87 78
0.136217 -0.222671 -0.0221256 85 87 79
0.123125 -0.231711 -0.025874 84 92 77
0.121304 -0.232307 -0.025154 86 84 72
0.119897 -0.232935 -0.0249108 69 76 74
0.118501 -0.233557 -0.0246697 49 80 87
0.11598 -0.234051 -0.0230493 41 99 106
0.114995 -0.234701 -0.0232758 47 122 128
0.114386 -0.235393 -0.0239589 64 142 149
0.113591 -0.236062 -0.0244124 86 147 147
0.112798 -0.23673 -0.0248649 98 127 119
0.112189 -0.23742 -0.0255467 95 95 87
0.111581 -0.238111 -0.0262286 95 85 76
0.145342 -0.21372 -0.0173306 64 106 107
0.143993 -0.214459 -0.0173467 56 100 103
0.142654 -0.215193 -0.0173628 47 91 94
0.14178 -0.215924 -0.0178503 38 82 84
0.14068 -0.216653 -0.0181005 39 77 77
0.140036 -0.217383 -0.0188223 54 74 74
0.139392 -0.218114 -0.0195441 70 77 75
0.138973 -0.21885 -0.0205047 81 83 78
0.138329 -0.219581 -0.0212274 91 86 79
0.115307 -0.233172 -0.0233409 44 80 86
0.114323 -0.233824 -0.0235668 37 100 106
0.113528 -0.234495 -0.0240207 48 123 127
0.112735 -0.235165 -0.0244737 72 143 148
0.112127 -0.235855 -0.0251555 92 142 143
0.111336 -0.236522 -0.0256069 97 111 109
0.11091 -0.237236 -0.0265194 98 87 80
0.146217 -0.212031 -0.0178634 55 102 101
0.145093 -0.212777 -0.0181165 41 93 98
0.143975 -0.213519 -0.0183686 39 82 87
0.142632 -0.214259 -0.0183813 46 75 78
0.141297 -0.214994 -0.018394 58 73 73
0.140424 -0.215726 -0.0188805 65 78 74
0.139778 -0.216458 -0.019604 79 82 74
0.139585 -0.217196 -0.0208067 90 85 75
0.137139 -0.224744 -0.0326232 93 88 86
0.136706 -0.225506 -0.0336237 89 94 94
0.133576 -0.226113 -0.0315302 88 100 98
0.133365 -0.226882 -0.0327745 90 111 99
0.134271 -0.227729 -0.0353245 100 123 101
0.113651 -0.232947 -0.0238579 41 81 87
0.112673 -0.233599 -0.0240824 40 99 105
0.112064 -0.234289 -0.0247643 57 126 129
0.111274 -0.234959 -0.0252161 81 145 147
0.110666 -0.235648 -0.0258973 97 131 132
0.110239 -0.236361 -0.0268102 98 98 91
0.109812 -0.237075 -0.027725 95 87 71
0.146206 -0.211075 -0.0188951 37 82 88
0.144844 -0.211829 -0.0189061 43 76 79
0.143957 -0.212573 -0.0193975 58 76 75
0.14284 -0.213317 -0.019647 71 79 75
0.141958 -0.214057 -0.020136 85 83 74
0.139316 -0.221573 -0.0317468 88 90 85
0.138422 -0.222318 -0.0322314 85 97 92
0.137072 -0.223041 -0.0321973 85 107 95
0.136867 -0.223812 -0.0334574 80 120 109
0.136205 -0.224564 -0.0341999 69 127 127
0.135542 -0.225316 -0.0349425 58 119 133
0.134654 -0.226054 -0.0354225 56 124 128
0.134217 -0.226819 -0.0364277 51 120 123
0.112979 -0.23207 -0.024149 55 79 85
0.112002 -0.232724 -0.024373 44 79 87
0.111394 -0.233414 -0.0250549 47 103 110
0.110785 -0.234105 -0.0257369 67 136 135
0.110177 -0.234795 -0.0264189 86 144 137
0.109749 -0.235508 -0.0273333 94 117 108
0.109321 -0.236222 -0.0282497 93 89 76
0.147571 -0.209348 -0.0199264 45 76 80
0.146195 -0.210113 -0.019934 55 77 75
0.145064 -0.210869 -0.0201843 69 76 72
0.144173 -0.211617 -0.0206765 86 82 75
0.143517 -0.212361 -0.0214115 93 86 77
0.142654 -0.217624 -0.0306326 95 88 80
0.14175 -0.218378 -0.0311218 90 90 86
0.140613 -0.219125 -0.0313502 86 95 89
0.139713 -0.219875 -0.0318369 83 104 93
0.139048 -0.22063 -0.0325827 74 115 108
0.138152 -0.221377 -0.0330675 63 115 119
0.137028 -0.222115 -0.0332906 55 110 116
0.136593 -0.222876 -0.0342956 52 104 107
0.135929 -0.22363 -0.0350398 44 97 103
0.135265 -0.224383 -0.0357842 37 88 95
0.134375 -0.225125 -0.0362644 32 87 89
0.133712 -0.225878 -0.037008 24 84 85
0.133273 -0.226644 -0.0380175 27 82 83
0.111514 -0.231866 -0.0248933 39 76 81
0.110723 -0.232539 -0.0253456 40 87 90
0.110114 -0.233229 -0.0260277 52 112 116
0.109687 -0.23394 -0.0269417 69 133 137
0.109258 -0.234652 -0.0278577 84 128 125
0.109009 -0.235388 -0.0290105 87 101 93
0.10876 -0.236127 -0.0301683 89 88 77
0.147807 -0.208366 -0.0212225 69 78 73
0.146903 -0.209125 -0.0217186 84 84 74
0.14624 -0.209877 -0.0224612 92 84 72
0.144451 -0.215146 -0.0307503 91 86 79
0.1433 -0.215906 -0.0309811 90 88 85
0.142392 -0.216664 -0.0314715 90 99 90
0.141485 -0.217421 -0.0319609 81 111 103
0.140581 -0.218177 -0.0324492 68 111 111
0.139445 -0.218925 -0.0326749 60 108 110
0.138546 -0.219677 -0.0331608 51 105 107
0.137419 -0.220419 -0.0333842 42 96 103
0.136754 -0.221174 -0.0341293 37 88 95
0.13609 -0.221928 -0.0348745 34 82 86
0.135425 -0.222682 -0.0356197 31 77 81
0.134987 -0.223447 -0.0366298 29 75 77
0.134321 -0.224202 -0.037376 28 72 74
0.13343 -0.224946 -0.0378557 30 70 71
0.132541 -0.225687 -0.0383343 34 68 71
0.131876 -0.226441 -0.0390789 31 67 71
0.111025 -0.231007 -0.0254148 42 81 88
0.110233 -0.231681 -0.0258671 35 77 79
0.109624 -0.232372 -0.02655 42 95 98
0.109195 -0.233083 -0.0274656 57 120 122
0.108946 -0.233816 -0.0286176 72 129 131
0.108878 -0.234572 -0.0300113 84 110 111
0.10899 -0.235356 -0.0316533 91 90 79
0.14871 -0.206618 -0.0217837 88 83 75
0.148287 -0.207366 -0.0227803 87 86 74
0.146457 -0.211878 -0.029589 97 86 76
0.145782 -0.212643 -0.030345 93 86 81
0.144866 -0.21341 -0.030839 87 95 86
0.144192 -0.214175 -0.0315942 81 102 97
0.143278 -0.214939 -0.0320863 72 102 107
0.141891 -0.215699 -0.0320521 66 107 106
0.140984 -0.216458 -0.0325415 57 109 107
0.140079 -0.217216 -0.0330297 46 100 106
0.139176 -0.217971 -0.0335169 40 90 98
0.138275 -0.218725 -0.034003 35 82 87
0.136916 -0.219466 -0.0339627 34 76 79
0.13625 -0.220222 -0.0347088 41 74 75
0.135585 -0.220977 -0.0354549 49 75 74
0.134919 -0.221732 -0.036201 52 77 74
0.134253 -0.222487 -0.0369473 55 79 75
0.133587 -0.223243 -0.0376935 66 80 74
0.132922 -0.223998 -0.0384398 70 81 72
0.132032 -0.224742 -0.0389184 66 76 72
0.130922 -0.225472 -0.0391285 65 76 72
0.130258 -0.226225 -0.0398724 63 76 69
0.109742 -0.230822 -0.0263898 25 75 77
0.109132 -0.231513 -0.0270735 32 82 87
0.109064 -0.232261 -0.0284592 42 98 105
0.108996 -0.233014 -0.0298538 59 120 121
0.109109 -0.233792 -0.031497 76 120 113
0.10904 -0.234555 -0.032912 87 96 87
0.147615 -0.210112 -0.0304619 94 91 80
0.146691 -0.210887 -0.0309587 89 97 88
0.145769 -0.211659 -0.0314543 79 101 101
0.144606 -0.212433 -0.0316852 71 106 105
0.14369 -0.213201 -0.0321783 63 111 109
0.142776 -0.213967 -0.0326703 50 105 112
0.141863 -0.214732 -0.0331612 40 93 101
0.140481 -0.215493 -0.0331234 36 83 88
0.139575 -0.216252 -0.0336117 37 76 81
0.138672 -0.21701 -0.0340988 43 73 76
0.13777 -0.217766 -0.0345849 50 76 74
0.136411 -0.218511 -0.0345426 55 78 75
0.135517 -0.219262 -0.035026 64 78 75
0.134851 -0.220017 -0.0357722 76 80 72
0.134185 -0.220773 -0.0365184 81 81 72
0.133519 -0.221528 -0.0372647 84 81 73
0.132853 -0.222283 -0.0380111 93 82 73
0.132188 -0.223039 -0.0387574 94 88 74
0.131522 -0.223794 -0.0395039 89 83 71
0.13019 -0.224516 -0.0394452 87 81 71
0.128868 -0.225233 -0.0393869 84 85 73
0.128206 -0.225983 -0.0401284 88 84 70
0.111203 -0.230893 -0.0309142 29 76 80
0.11003 -0.231541 -0.0308878 36 89 92
0.109412 -0.232243 -0.0315804 50 111 111
0.109343 -0.233002 -0.0329987 66 120 120
0.108907 -0.233726 -0.0339374 81 103 101
0.109021 -0.234516 -0.0356162 93 85 77
0.150909 -0.206749 -0.03061 93 88 77
0.150224 -0.207526 -0.0313777 87 98 87
0.149288 -0.20831 -0.0318781 84 98 98
0.147856 -0.209107 -0.0318439 78 106 100
0.146681 -0.209892 -0.0320754 67 113 106
0.145511 -0.210673 -0.0323059 52 111 115
0.144589 -0.211447 -0.0328006 43 98 108
0.143187 -0.212224 -0.0327638 40 85 93
0.142272 -0.212993 -0.0332558 41 76 81
0.141359 -0.21376 -0.0337467 42 74 74
0.140448 -0.214524 -0.0342365 47 76 74
0.13907 -0.215286 -0.0341951 54 78 76
0.138399 -0.216048 -0.0349472 66 78 76
0.137033 -0.216802 -0.0349035 79 81 72
0.110455 -0.230755 -0.0326322 30 83 84
0.109463 -0.231425 -0.0328428 42 98 102
0.109211 -0.232167 -0.0340266 60 115 116
0.108957 -0.232912 -0.0352156 77 112 108
0.108886 -0.23368 -0.0366582 90 93 85
0.151857 -0.204936 -0.0312343 90 93 83
0.151168 -0.205717 -0.0320058 80 100 96
0.150227 -0.206507 -0.0325078 70 118 107
0.148784 -0.207314 -0.0324712 57 116 117
0.14785 -0.208099 -0.0329704 45 103 112
0.146423 -0.208896 -0.0329325 40 88 98
0.145251 -0.209681 -0.0331615 39 78 83
0.144084 -0.210463 -0.0333896 39 77 76
0.143164 -0.211237 -0.0338832 41 76 75
0.142245 -0.21201 -0.0343757 55 74 75
0.141568 -0.212778 -0.0351349 69 73 74
0.140891 -0.213546 -0.0358941 84 81 74
0.140451 -0.214314 -0.0369235 90 89 77
0.109331 -0.230583 -0.0338712 36 86 92
0.108892 -0.231308 -0.034815 52 106 107
0.109007 -0.23209 -0.0365049 70 115 116
0.108936 -0.232859 -0.0379582 84 103 103
0.108679 -0.233613 -0.0391677 89 89 80
0.151865 -0.203903 -0.0323692 77 94 83
0.151174 -0.204687 -0.0331435 53 98 108
0.150229 -0.205482 -0.033646 42 87 99
0.149033 -0.206285 -0.0338761 38 80 85
0.147594 -0.207093 -0.0338347 36 76 78
0.146412 -0.207887 -0.034063 37 75 76
0.14499 -0.208685 -0.0340213 52 72 76
0.143821 -0.209471 -0.0342479 70 75 75
0.14314 -0.210243 -0.0350107 78 80 74
0.14246 -0.211015 -0.0357734 83 85 75
0.141779 -0.211787 -0.0365363 85 86 75
0.138039 -0.219584 -0.0478645 91 88 77
0.137348 -0.220368 -0.0486398 89 90 83
0.136656 -0.221153 -0.0494153 89 90 84
0.136202 -0.221946 -0.0504827 92 96 90
0.110128 -0.229818 -0.0361461 28 80 81
0.109127 -0.230496 -0.0363513 41 97 99
0.108871 -0.231243 -0.0375545 62 113 113
0.108614 -0.231993 -0.0387631 81 109 104
0.108541 -0.232767 -0.0402319 92 89 82
0.15136 -0.202892 -0.0329686 73 79 73
0.150668 -0.203676 -0.0337439 52 72 75
0.149722 -0.204473 -0.0342463 43 72 74
0.149031 -0.205257 -0.0350208 58 69 71
0.147837 -0.206061 -0.035248 74 72 70
0.146897 -0.206852 -0.035747 85 83 71
0.139174 -0.217821 -0.0488694 91 91 79
0.138478 -0.21861 -0.0496494 86 99 91
0.137302 -0.219388 -0.0498436 80 104 106
0.136607 -0.220176 -0.0506219 77 108 111
0.137352 -0.221009 -0.0531779 76 116 111
0.110183 -0.228976 -0.0374494 32 72 77
0.109178 -0.229659 -0.0376527 38 86 89
0.108548 -0.230373 -0.0383586 55 106 105
0.108476 -0.231141 -0.0398261 71 114 111
0.108216 -0.231895 -0.0410464 85 98 94
0.108329 -0.232693 -0.0427903 92 83 76
0.150416 -0.202648 -0.0346193 79 76 70
0.149722 -0.203434 -0.0353966 78 79 74
0.149028 -0.204221 -0.0361739 85 88 76
0.142921 -0.213652 -0.0481176 95 86 80
0.142219 -0.214448 -0.0489042 94 91 83
0.141517 -0.215243 -0.0496908 90 95 91
0.140815 -0.216039 -0.0504775 83 98 99
0.139868 -0.216833 -0.0509674 76 108 103
0.139166 -0.217628 -0.0517532 69 122 113
0.138222 -0.218419 -0.052241 60 126 125
0.137521 -0.219213 -0.053026 48 113 123
0.136821 -0.220007 -0.0538111 40 103 113
0.136844 -0.220824 -0.0555011 35 95 105
0.109042 -0.228798 -0.0387118 32 78 79
0.10841 -0.229515 -0.0394201 45 96 97
0.10815 -0.230266 -0.0406396 61 114 113
0.108263 -0.231056 -0.0423817 78 109 104
0.108754 -0.231891 -0.0446651 90 90 83
0.144755 -0.210241 -0.0466758 96 85 71
0.144052 -0.211039 -0.0474642 90 87 78
0.143348 -0.211837 -0.0482527 86 89 86
0.142894 -0.212632 -0.0493367 84 94 94
0.14219 -0.213431 -0.0501263 82 108 101
0.141237 -0.21423 -0.0506183 74 123 116
0.140534 -0.215028 -0.051407 57 120 128
0.13983 -0.215826 -0.0521957 42 104 121
0.138881 -0.216622 -0.0526849 40 93 103
0.138178 -0.217419 -0.0534727 40 83 91
0.137232 -0.218212 -0.0539598 37 79 81
0.13653 -0.219008 -0.0547468 36 78 76
0.13631 -0.219817 -0.0561403 35 75 73
0.135606 -0.220615 -0.0569293 34 74 71
0.134902 -0.221414 -0.0577184 34 74 72
0.108833 -0.228698 -0.04126 37 88 89
0.108197 -0.229419 -0.0419731 52 109 108
0.108877 -0.230261 -0.0445171 69 115 112
0.108803 -0.231042 -0.0460316 82 97 94
0.10873 -0.231829 -0.0475564 87 83 72
0.148466 -0.207525 -0.0489759 91 86 76
0.146977 -0.208359 -0.0488777 89 86 83
0.144989 -0.209199 -0.0481877 86 90 93
0.14403 -0.210007 -0.0486838 83 107 102
0.143073 -0.210812 -0.0491787 76 127 115
0.142367 -0.211612 -0.0499693 60 125 128
0.141662 -0.212412 -0.0507598 47 108 121
0.140709 -0.213214 -0.0512518 44 93 101
0.140004 -0.214013 -0.0520415 40 82 86
0.139299 -0.214812 -0.0528313 36 78 79
0.13835 -0.21561 -0.0533203 38 78 78
0.137646 -0.216408 -0.0541093 42 81 79
0.1367 -0.217203 -0.0545962 46 80 79
0.135996 -0.218 -0.0553843 62 78 76
0.135293 -0.218798 -0.0561724 72 76 73
0.13459 -0.219595 -0.0569606 75 76 69
0.133886 -0.220393 -0.0577489 75 76 71
0.132946 -0.221182 -0.058231 79 76 73
0.132007 -0.22197 -0.0587121 74 74 71
0.109762 -0.228689 -0.0454283 40 99 99
0.109118 -0.22942 -0.0461511 62 115 114
0.109045 -0.230203 -0.0476797 77 106 101
0.108971 -0.230991 -0.0492187 86 84 76
0.150686 -0.204802 -0.0495169 90 85 77
0.14944 -0.205641 -0.0497176 84 90 89
0.1482 -0.206475 -0.0499173 81 99 96
0.146192 -0.207332 -0.0492166 78 119 107
0.144971 -0.208155 -0.0494159 65 127 124
0.144007 -0.208967 -0.0499124 51 115 123
0.143047 -0.209777 -0.0504078 45 97 107
0.142088 -0.210585 -0.050902 42 86 92
0.141132 -0.21139 -0.051395 37 78 83
0.140178 -0.212194 -0.0518869 36 76 78
0.139473 -0.212994 -0.0526777 44 74 76
0.138767 -0.213794 -0.0534685 62 76 76
0.138061 -0.214595 -0.0542594 77 80 75
0.137112 -0.215394 -0.0547474 81 83 75
0.136165 -0.216191 -0.0552343 81 87 75
0.135461 -0.21699 -0.0560234 86 88 76
0.134757 -0.217788 -0.0568125 88 85 74
0.134053 -0.218586 -0.0576018 90 86 71
0.13311 -0.219379 -0.0580848 86 83 73
0.131699 -0.220157 -0.0579559 87 86 77
0.130765 -0.220944 -0.0584363 87 89 76
0.130297 -0.221746 -0.0595271 83 86 76
0.111371 -0.227938 -0.0489776 27 83 88
0.110327 -0.228647 -0.0491624 52 109 109
0.109675 -0.229387 -0.0498934 72 113 110
0.109215 -0.230144 -0.0508998 84 93 90
0.153124 -0.201251 -0.0486467 88 83 73
0.152401 -0.20207 -0.0494568 90 87 83
0.151411 -0.202904 -0.0499623 86 94 90
0.150423 -0.203737 -0.0504667 81 112 97
0.149174 -0.20458 -0.0506656 68 121 117
0.148193 -0.205407 -0.0511672 54 114 120
0.146178 -0.206274 -0.0504562 47 101 109
0.144697 -0.207112 -0.0503529 43 91 96
0.143478 -0.207936 -0.0505495 36 85 87
0.142517 -0.208748 -0.0510448 34 81 81
0.141558 -0.209558 -0.0515389 47 76 76
0.14085 -0.210361 -0.0523325 63 75 75
0.139894 -0.211168 -0.0528246 70 79 75
0.139186 -0.21197 -0.0536174 77 81 76
0.138479 -0.212772 -0.0544102 87 79 73
0.111695 -0.226282 -0.0491055 11 47 55
0.11104 -0.227025 -0.0498398 17 67 72
0.109995 -0.227738 -0.0500232 39 98 99
0.109535 -0.228495 -0.051032 64 116 116
0.109074 -0.229254 -0.0520432 79 104 101
0.108805 -0.230032 -0.0533364 84 80 78
0.153136 -0.200152 -0.0499042 80 87 77
0.152141 -0.200992 -0.0504111 76 113 104
0.151149 -0.20183 -0.0509168 61 113 118
0.150159 -0.202666 -0.0514213 53 105 110
0.148907 -0.203513 -0.0516184 44 97 102
0.147923 -0.204344 -0.0521202 38 88 92
0.145905 -0.20522 -0.0514016 36 80 85
0.144676 -0.206053 -0.0515969 50 76 79
0.1432 -0.206892 -0.0514894 69 77 75
0.141986 -0.207716 -0.0516834 73 82 74
0.141276 -0.208521 -0.0524791 73 80 73
0.140566 -0.209326 -0.0532748 81 83 73
0.139855 -0.210131 -0.0540705 88 85 73
0.131794 -0.217355 -0.0590639 92 87 77
0.12992 -0.218133 -0.0583206 90 87 85
0.128757 -0.218917 -0.0584955 87 89 95
0.112418 -0.224641 -0.0497857 13 42 47
0.110972 -0.225339 -0.0494191 8 36 42
0.110317 -0.226082 -0.0501535 9 50 57
0.109661 -0.226825 -0.050888 28 81 86
0.1092 -0.227583 -0.0519002 55 111 111
0.108737 -0.228342 -0.0529148 73 110 108
0.108661 -0.229136 -0.0544949 81 88 86
0.152877 -0.199065 -0.0508632 68 89 80
0.151611 -0.199927 -0.0510628 53 96 97
0.150617 -0.200767 -0.0515685 42 91 96
0.149893 -0.201589 -0.0523808 39 84 88
0.148903 -0.202426 -0.0528843 47 78 82
0.147129 -0.203304 -0.0524634 59 75 76
0.146149 -0.204134 -0.0529637 67 77 76
0.144656 -0.204986 -0.0528504 75 82 77
0.143428 -0.205821 -0.0530424 89 83 73
0.138949 -0.212294 -0.0610312 92 84 74
0.138229 -0.213111 -0.0618382 87 86 76
0.136519 -0.213931 -0.0613763 84 91 87
0.134099 -0.214743 -0.0599816 90 97 95
0.133149 -0.215548 -0.0604661 93 105 95
0.131017 -0.21634 -0.0594004 90 125 99
0.129147 -0.217124 -0.0586551 77 134 112
0.128447 -0.217918 -0.0594399 70 137 129
0.117803 -0.220827 -0.0518918 73 131 111
0.116098 -0.221549 -0.0512256 89 125 100
0.115226 -0.222296 -0.0516909 64 96 85
0.113951 -0.223023 -0.0515916 25 52 55
0.112087 -0.223714 -0.0506558 10 34 39
0.110836 -0.224429 -0.0505611 8 28 33
0.109983 -0.225162 -0.0510205 9 36 45
0.109326 -0.225907 -0.0517568 20 65 71
0.109057 -0.226679 -0.0530523 43 100 99
0.108593 -0.22744 -0.0540717 65 114 113
0.108907 -0.228265 -0.0562317 79 101 95
0.109027 -0.229083 -0.058127 88 81 69
0.151617 -0.198819 -0.0523344 61 76 78
0.150888 -0.199644 -0.0531509 61 75 78
0.150428 -0.200452 -0.0542798 62 75 74
0.149698 -0.201279 -0.0550974 73 77 73
0.14214 -0.209559 -0.0629533 83 83 80
0.141154 -0.210391 -0.0634467 85 89 90
0.139917 -0.211225 -0.0636155 86 102 93
0.138183 -0.212062 -0.0631405 79 118 101
0.136714 -0.212889 -0.0629892 67 124 117
0.135011 -0.21371 -0.0625217 56 120 129
0.132366 -0.214525 -0.060805 48 111 123
0.130239 -0.215325 -0.059737 45 101 111
0.129069 -0.21612 -0.0599096 39 92 104
0.117734 -0.2191 -0.0514605 26 95 106
0.116235 -0.219837 -0.0510787 35 103 116
0.115157 -0.220581 -0.0512627 50 115 117
0.114287 -0.221329 -0.0517275 31 82 90
0.113218 -0.222067 -0.0519095 16 47 51
0.112153 -0.222801 -0.0520907 10 31 33
0.110699 -0.223512 -0.0517111 8 31 30
0.109843 -0.22425 -0.0521708 11 38 36
0.109183 -0.224997 -0.0529097 12 57 58
0.108718 -0.225757 -0.0539301 29 85 88
0.108838 -0.226559 -0.0558061 55 111 109
0.108761 -0.227354 -0.0574109 76 111 103
0.108882 -0.228171 -0.0593184 88 88 79
0.109202 -0.229011 -0.0615393 88 73 67
0.147158 -0.205067 -0.0635978 86 83 75
0.146418 -0.205905 -0.0644264 86 86 85
0.145148 -0.206763 -0.0645953 87 93 88
0.144147 -0.207608 -0.0650921 82 106 90
0.142888 -0.208459 -0.0652586 72 116 107
0.141635 -0.209306 -0.0654244 61 115 122
0.140132 -0.210155 -0.0652623 53 109 119
0.138388 -0.211001 -0.0647767 47 100 107
0.136662 -0.21184 -0.064296 39 91 99
0.134464 -0.212675 -0.0631819 34 86 91
0.133503 -0.21349 -0.0636674 32 85 85
0.130873 -0.214306 -0.0619396 32 82 81
0.116785 -0.218129 -0.0514974 20 73 70
0.115497 -0.218875 -0.0513982 22 72 70
0.114421 -0.219621 -0.0515816 35 79 75
0.113552 -0.22037 -0.0520461 19 71 71
0.112484 -0.22111 -0.0522274 10 43 47
0.11182 -0.221863 -0.0529722 9 31 33
0.110758 -0.222598 -0.053151 9 35 33
0.109898 -0.22334 -0.0536113 11 47 42
0.109236 -0.224091 -0.0543536 8 51 58
0.108965 -0.224865 -0.0556657 17 71 77
0.108692 -0.225642 -0.0569839 43 102 100
0.108615 -0.226437 -0.0585984 69 115 112
0.108537 -0.227238 -0.0602243 84 99 95
0.109055 -0.228091 -0.0627539 85 78 70
0.14748 -0.204748 -0.0671116 70 115 114
0.14566 -0.205641 -0.0666056 62 109 116
0.144123 -0.206514 -0.0664368 53 103 108
0.142597 -0.207381 -0.0662693 45 98 102
0.141342 -0.208233 -0.066433 36 91 96
0.140092 -0.20908 -0.0665959 32 84 91
0.138342 -0.209935 -0.0661018 31 79 85
0.136112 -0.210792 -0.0649643 37 76 81
0.135141 -0.211617 -0.0654518 49 74 76
0.116716 -0.216403 -0.0510666 79 79 71
0.115839 -0.217161 -0.0515344 72 75 69
0.114556 -0.217909 -0.0514352 65 76 74
0.113483 -0.218656 -0.0516183 44 78 83
0.112817 -0.219411 -0.0523648 16 64 66
0.111751 -0.220153 -0.0525454 8 38 48
0.111086 -0.220906 -0.0532902 8 34 37
0.110224 -0.221652 -0.0537514 11 41 43
0.10956 -0.222404 -0.0544954 9 55 51
0.108895 -0.223157 -0.0552395 9 55 57
0.108231 -0.223909 -0.0559837 9 64 67
0.108153 -0.224696 -0.0575911 29 87 91
0.108074 -0.225489 -0.0592097 58 111 112
0.108191 -0.2263 -0.0611345 76 107 105
0.108708 -0.227149 -0.0636766 82 86 79
0.14591 -0.204517 -0.0683039 37 89 95
0.144099 -0.205411 -0.067792 33 83 88
0.142567 -0.206286 -0.0676187 40 77 82
0.140789 -0.207163 -0.0671149 51 75 78
0.139283 -0.208023 -0.0669459 59 75 74
0.13779 -0.208876 -0.0667783 64 77 73
0.136808 -0.20971 -0.0672678 69 79 73
0.118742 -0.214677 -0.0534956 84 78 69
0.115769 -0.215437 -0.051104 88 84 72
0.114486 -0.216191 -0.0510064 81 78 71
0.113616 -0.216945 -0.0514722 59 87 77
0.112748 -0.217697 -0.0519369 23 76 74
0.111881 -0.218447 -0.0524007 9 53 56
0.111017 -0.219196 -0.0528634 5 34 46
0.110154 -0.219943 -0.0533251 9 39 41
0.10949 -0.220696 -0.0540692 13 56 49
0.108826 -0.221448 -0.0548133 10 64 63
0.108162 -0.222201 -0.0555575 16 71 70
0.107693 -0.222963 -0.0565883 11 60 70
0.107417 -0.223737 -0.0579103 20 73 81
0.107531 -0.224538 -0.0598224 47 103 102
0.107449 -0.225333 -0.0614565 69 113 112
0.108758 -0.226229 -0.0652091 77 98 92
0.109285 -0.227087 -0.0678105 81 81 67
0.143808 -0.204313 -0.0688197 61 78 74
0.142012 -0.205206 -0.0683065 67 80 74
0.139976 -0.206101 -0.0674663 79 80 76
0.138474 -0.206965 -0.067296 86 76 71
0.137741 -0.207796 -0.0681178 85 77 67
0.115906 -0.213711 -0.0509563 87 80 71
0.114621 -0.214472 -0.0508591 87 84 72
0.113749 -0.215229 -0.0513256 72 78 73
0.112679 -0.215983 -0.0515091 43 78 78
0.111812 -0.216735 -0.0519734 15 70 66
0.110948 -0.217486 -0.0524366 11 39 48
0.110085 -0.218235 -0.0528988 7 34 44
0.109421 -0.218987 -0.0536429 10 45 50
0.108757 -0.21974 -0.0543871 10 64 65
0.108093 -0.220492 -0.0551312 27 74 75
0.107429 -0.221245 -0.0558755 38 80 82
0.106958 -0.222006 -0.0569068 24 67 71
0.106875 -0.222787 -0.0585194 15 68 69
0.106791 -0.223574 -0.0601432 40 91 93
0.106902 -0.224378 -0.0620748 64 109 115
0.108407 -0.225275 -0.0661442 74 104 102
0.109339 -0.226156 -0.0693811 82 88 75
0.117922 -0.211953 -0.0533839 83 81 74
0.11496 -0.212747 -0.0509939 81 82 84
0.11368 -0.21351 -0.0508967 79 86 86
0.112609 -0.214268 -0.0510812 55 82 75
0.111743 -0.215023 -0.051546 21 71 72
0.110879 -0.215775 -0.0520098 9 54 60
0.110016 -0.216526 -0.0524725 12 36 42
0.109352 -0.217279 -0.0532166 10 42 45
0.108688 -0.218031 -0.0539608 10 63 63
0.108024 -0.218784 -0.054705 23 79 79
0.107359 -0.219536 -0.0554493 48 95 93
0.106695 -0.220289 -0.0561936 53 91 92
0.106224 -0.221049 -0.0572253 35 74 74
0.106138 -0.221827 -0.0588391 23 63 68
0.106051 -0.22261 -0.0604641 39 83 85
0.106355 -0.22342 -0.0626947 58 110 106
0.108659 -0.224352 -0.0680085 73 115 108
0.108985 -0.225191 -0.0703375 86 95 86
0.109933 -0.226081 -0.073654 89 76 67
0.113814 -0.211789 -0.0507493 75 124 114
0.11254 -0.212553 -0.0506533 65 114 113
0.111474 -0.213312 -0.050838 35 74 78
0.11081 -0.214065 -0.0515829 14 63 65
0.109947 -0.214818 -0.0520461 9 45 48
0.109087 -0.215569 -0.0525084 14 46 42
0.108423 -0.216321 -0.0532517 14 50 54
0.10776 -0.217072 -0.0539951 20 75 76
0.107096 -0.217824 -0.0547385 44 98 99
0.106626 -0.21858 -0.0557673 54 105 107
0.105961 -0.219333 -0.0565117 54 96 96
0.105489 -0.220091 -0.0575439 43 83 81
0.105401 -0.220866 -0.0591588 40 72 67
0.105311 -0.221647 -0.0607851 36 74 74
0.106001 -0.222468 -0.0636152 46 92 95
0.108913 -0.223416 -0.0698951 63 107 111
0.10986 -0.224289 -0.0732074 77 99 99
0.109783 -0.225116 -0.0749558 89 82 73
0.112471 -0.210839 -0.0502253 48 106 108
0.111206 -0.211604 -0.0501316 37 91 93
0.110147 -0.212362 -0.0503169 22 68 70
0.109485 -0.213113 -0.0510593 11 58 60
0.108822 -0.213863 -0.0518017 10 43 46
0.108159 -0.214614 -0.0525442 10 53 55
0.107497 -0.215364 -0.0532868 16 71 72
0.106834 -0.216115 -0.0540294 41 94 93
0.106364 -0.216869 -0.0550562 57 113 114
0.1057 -0.21762 -0.0557998 55 108 112
0.105228 -0.218376 -0.0568299 55 100 101
0.104754 -0.219134 -0.0578625 60 90 92
0.104663 -0.219905 -0.0594786 54 73 73
0.104571 -0.220682 -0.0611061 41 68 67
0.10884 -0.221642 -0.0694526 45 83 82
0.111456 -0.222573 -0.0753449 59 107 103
0.110543 -0.22336 -0.0758065 71 112 105
0.110049 -0.224167 -0.0769217 84 92 86
0.111137 -0.209895 -0.049705 40 79 83
0.109294 -0.210675 -0.0487835 29 76 74
0.10844 -0.211426 -0.0492464 24 70 68
0.107781 -0.212173 -0.0499846 9 50 59
0.107123 -0.212919 -0.0507229 11 48 53
0.106655 -0.213664 -0.0517399 12 64 69
0.106379 -0.214411 -0.0530403 28 89 91
0.10591 -0.21516 -0.0540637 49 110 112
0.105439 -0.215912 -0.0550894 55 116 119
0.104967 -0.216665 -0.0561175 57 110 113
0.104494 -0.21742 -0.0571481 55 106 109
0.10421 -0.21818 -0.0584702 58 112 110
0.104117 -0.218949 -0.0600905 53 101 99
0.10364 -0.219712 -0.061133 47 75 70
0.110814 -0.222395 -0.0777873 61 106 110
0.110107 -0.223196 -0.0785796 76 96 97
0.108836 -0.208991 -0.0478107 44 74 72
0.108178 -0.209736 -0.0485481 26 76 72
0.10752 -0.210482 -0.0492855 20 66 67
0.10667 -0.211231 -0.0497468 12 44 59
0.106012 -0.211976 -0.0504835 11 56 65
0.105736 -0.212716 -0.0517766 23 80 84
0.105267 -0.213461 -0.052795 43 107 108
0.104987 -0.214207 -0.0540979 55 121 122
0.104707 -0.214957 -0.0554068 59 112 118
0.104234 -0.215709 -0.0564354 60 112 112
0.10376 -0.216463 -0.0574664 59 96 102
0.103665 -0.217224 -0.0590795 46 87 91
0.10357 -0.217991 -0.0607038 46 90 95
0.103091 -0.218754 -0.0617482 44 73 71
0.108768 -0.207297 -0.0473881 64 75 69
0.107917 -0.20805 -0.0478514 37 75 75
0.107259 -0.208795 -0.048588 22 73 74
0.10641 -0.209545 -0.0490496 12 58 64
0.105754 -0.210289 -0.0497855 13 50 59
0.105097 -0.211033 -0.0505214 18 71 76
0.104629 -0.211773 -0.051535 39 97 101
0.104538 -0.212511 -0.0531109 52 119 119
0.104257 -0.213255 -0.0544146 55 119 123
0.103974 -0.214002 -0.0557242 62 113 116
0.10369 -0.214753 -0.0570401 63 113 110
0.103405 -0.215508 -0.0583621 71 90 87
0.103309 -0.216268 -0.059982 69 74 72
0.10283 -0.217027 -0.0610245 57 70 69
0.102351 -0.217789 -0.0620694 42 66 63
0.107656 -0.206368 -0.0471563 52 76 72
0.106807 -0.20712 -0.047619 29 78 78
0.106151 -0.207863 -0.048354 16 71 74
0.105495 -0.208606 -0.049089 9 57 65
0.104839 -0.209349 -0.0498241 14 66 69
0.104371 -0.210087 -0.0508358 27 89 88
0.103902 -0.210826 -0.0518497 45 114 114
0.10362 -0.211564 -0.0531461 55 122 122
0.103526 -0.212302 -0.0547313 57 115 120
0.103242 -0.213047 -0.0560418 64 119 120
0.103146 -0.213795 -0.0576463 67 101 104
0.103048 -0.214548 -0.0592618 81 78 75
0.10257 -0.215305 -0.0603023 83 75 69
0.10228 -0.216065 -0.0616397 83 77 69
0.108051 -0.203946 -0.0457278 83 77 68
0.107395 -0.204689 -0.0464627 65 80 74
0.106739 -0.205431 -0.0471977 46 82 80
0.106083 -0.206174 -0.0479327 28 81 81
0.105427 -0.206917 -0.0486678 13 71 72
0.104771 -0.20766 -0.0494029 14 68 69
0.104114 -0.208403 -0.0501381 22 81 82
0.103834 -0.209134 -0.0514276 40 105 104
0.103552 -0.209867 -0.052723 51 121 121
0.103646 -0.210595 -0.0545898 55 118 120
0.103362 -0.211337 -0.0559015 57 115 115
0.103456 -0.212077 -0.0577959 61 114 113
0.102789 -0.212832 -0.0585433 76 94 89
0.107327 -0.203 -0.0460414 73 82 74
0.106671 -0.203743 -0.0467764 55 86 84
0.106015 -0.204486 -0.0475114 41 88 87
0.105169 -0.205239 -0.0479733 23 80 80
0.104513 -0.205981 -0.0487076 14 72 72
0.103858 -0.206724 -0.049442 21 79 78
0.103389 -0.207458 -0.0504521 34 95 97
0.103107 -0.208186 -0.0517424 48 114 116
0.103011 -0.208911 -0.0533192 54 121 123
0.103103 -0.209635 -0.0551909 57 114 116
0.103006 -0.210371 -0.0567924 59 114 113
0.102909 -0.211112 -0.0584051 69 98 102
0.10243 -0.211865 -0.0594446 82 88 77
0.107259 -0.201311 -0.04562 82 82 73
0.106602 -0.202054 -0.046355 63 89 85
0.105946 -0.202797 -0.0470901 49 95 95
0.105101 -0.203552 -0.0475525 35 89 89
0.104445 -0.204294 -0.0482868 18 77 78
0.10379 -0.205037 -0.0490212 19 78 78
0.103134 -0.205779 -0.0497556 27 89 92
0.102665 -0.206512 -0.0507662 43 108 113
0.102567 -0.207229 -0.0523361 52 119 123
0.102469 -0.207952 -0.0539168 56 119 121
0.102559 -0.208672 -0.0557934 60 115 115
0.10246 -0.209406 -0.057399 62 110 108
0.102171 -0.21015 -0.058725 76 88 85
0.101691 -0.210902 -0.059765 81 80 73
0.106534 -0.200365 -0.0459336 71 85 81
0.105688 -0.201123 -0.0463973 53 98 100
0.105032 -0.201865 -0.0471316 44 99 103
0.104377 -0.202607 -0.0478659 31 85 88
0.103534 -0.203362 -0.048327 21 78 80
0.102879 -0.204104 -0.0490607 26 87 88
0.10241 -0.204834 -0.0500693 38 103 105
0.102125 -0.205555 -0.0513573 49 119 122
0.102213 -0.206261 -0.0532116 56 120 123
0.102301 -0.206973 -0.0550828 57 115 118
0.102013 -0.207708 -0.0563974 61 113 113
0.101912 -0.208439 -0.058007 65 99 99
0.101433 -0.209188 -0.0590449 77 85 74
0.106466 -0.198676 -0.0455121 80 82 75
0.10562 -0.199436 -0.0459763 63 97 95
0.104964 -0.200178 -0.0467106 50 107 111
0.104308 -0.20092 -0.047445 38 96 103
0.103466 -0.201677 -0.0479066 31 83 88
0.102811 -0.202418 -0.0486403 31 85 87
0.102156 -0.20316 -0.049374 36 98 99
0.101685 -0.203889 -0.0503831 48 116 116
0.101585 -0.204597 -0.0519499 54 123 124
0.10167 -0.205298 -0.0538091 58 118 120
0.101756 -0.206007 -0.0556853 58 114 114
0.101654 -0.206731 -0.0572906 63 109 106
0.101175 -0.207477 -0.0583265 74 87 82
0.106398 -0.196986 -0.0450906 82 81 74
0.105551 -0.197748 -0.0455553 68 91 88
0.104896 -0.19849 -0.0462896 55 109 110
0.10424 -0.199232 -0.047024 46 106 112
0.103397 -0.199991 -0.0474862 36 91 98
0.102742 -0.200733 -0.0482199 34 88 92
0.102087 -0.201474 -0.0489536 39 95 98
0.101432 -0.202215 -0.0496874 44 108 110
0.101146 -0.20293 -0.0509732 52 120 122
0.101229 -0.203623 -0.0528236 57 121 123
0.101499 -0.20431 -0.0549748 58 115 117
0.101209 -0.205039 -0.0562892 59 112 110
0.100917 -0.205771 -0.0576098 69 99 94
0.100437 -0.206516 -0.0586462 85 81 71
0.105483 -0.196061 -0.0451342 78 85 82
0.104827 -0.196803 -0.0458686 61 105 106
0.103984 -0.197564 -0.046332 50 116 119
0.103329 -0.198306 -0.0470657 41 100 108
0.102674 -0.199047 -0.0477993 39 91 97
0.101834 -0.199805 -0.0482602 41 95 100
0.101364 -0.20053 -0.0492669 43 105 110
0.100893 -0.201256 -0.050276 48 118 120
0.100604 -0.201969 -0.0515646 55 122 124
0.10087 -0.202644 -0.0537013 59 118 120
0.100952 -0.203341 -0.0555772 61 113 113
0.100661 -0.204068 -0.0568946 65 104 103
0.100181 -0.20481 -0.057929 77 88 82
0.0995141 -0.205565 -0.0586759 86 81 71
0.105415 -0.194373 -0.0447132 81 82 75
0.104759 -0.195115 -0.0454475 66 98 95
0.103916 -0.195878 -0.0459114 55 117 116
0.103261 -0.19662 -0.0466451 44 111 117
0.102606 -0.197361 -0.0473789 38 95 103
0.101765 -0.198121 -0.0478402 42 97 102
0.101111 -0.198862 -0.0485732 45 104 109
0.100456 -0.199602 -0.0493062 47 112 117
0.100168 -0.20031 -0.0505898 53 122 123
0.100246 -0.20099 -0.0524365 57 119 121
0.100511 -0.201661 -0.0545831 58 113 117
0.100218 -0.202383 -0.0558952 62 108 109
0.0999249 -0.203108 -0.0572134 70 94 93
0.0992588 -0.203862 -0.0579595 82 82 73
0.105346 -0.192685 -0.044292 77 76 69
0.104502 -0.193451 -0.0447572 68 85 83
0.103847 -0.194192 -0.0454908 57 108 111
0.103006 -0.194956 -0.0459542 49 118 120
0.102351 -0.195696 -0.0466871 38 102 107
0.101512 -0.196457 -0.0471488 41 97 100
0.100859 -0.197197 -0.0478809 44 103 106
0.100388 -0.197918 -0.0488862 44 110 115
0.0999162 -0.19864 -0.0498938 50 118 123
0.0996262 -0.199347 -0.0511802 56 121 124
0.099886 -0.200006 -0.0533123 58 116 120
0.0999632 -0.20069 -0.0551844 58 113 115
0.0994843 -0.201425 -0.0562133 65 102 101
0.0988197 -0.202177 -0.0569576 77 82 80
0.104434 -0.191765 -0.0443365 71 85 77
0.103592 -0.192531 -0.0448012 59 103 99
0.102937 -0.193272 -0.045534 53 118 119
0.102098 -0.194035 -0.045997 43 109 114
0.101444 -0.194775 -0.0467291 37 96 102
0.10079 -0.195515 -0.0474613 42 100 105
0.100137 -0.196254 -0.0481936 44 108 112
0.099665 -0.196974 -0.0491993 47 114 120
0.0993746 -0.197676 -0.0504827 53 120 126
0.0992658 -0.198363 -0.0520502 57 118 123
0.0991561 -0.199054 -0.0536285 58 115 117
0.0992299 -0.199733 -0.055502 61 110 109
0.0985661 -0.200484 -0.0562456 72 93 89
0.0980854 -0.20122 -0.0572758 85 78 68
0.103524 -0.190847 -0.0443809 70 90 87
0.102683 -0.191613 -0.0448451 56 112 116
0.10203 -0.192353 -0.0455773 48 114 122
0.101192 -0.193117 -0.0460397 37 99 107
0.100539 -0.193855 -0.0467711 42 98 102
0.0998857 -0.194594 -0.0475025 45 104 110
0.0994143 -0.195311 -0.0485063 47 111 116
0.0989418 -0.19603 -0.0495124 52 119 123
0.0988317 -0.196709 -0.0510731 55 120 125
0.0987208 -0.197393 -0.0526444 56 116 120
0.0984261 -0.198101 -0.0539448 58 112 112
0.0979474 -0.198831 -0.0549677 64 100 98
0.0978326 -0.199527 -0.0565634 75 82 77
0.103269 -0.189191 -0.0436933 80 81 76
0.102615 -0.18993 -0.0444254 62 102 103
0.101777 -0.190697 -0.044889 53 118 121
0.101124 -0.191436 -0.0456204 41 107 114
0.100288 -0.1922 -0.0460823 37 96 102
0.0996354 -0.192938 -0.046813 44 102 107
0.098983 -0.193676 -0.0475437 45 107 114
0.098692 -0.194368 -0.0488191 49 116 122
0.0983996 -0.195063 -0.0501003 56 123 125
0.0981059 -0.195762 -0.0513874 57 119 121
0.0979924 -0.196443 -0.0529599 56 114 116
0.0975143 -0.197169 -0.0539794 61 107 106
0.0970351 -0.197896 -0.0550012 73 90 83
0.102829 -0.187569 -0.0427413 80 78 69
0.102177 -0.188307 -0.0434718 68 91 86
0.101524 -0.189045 -0.0442023 56 112 114
0.100872 -0.189783 -0.0449329 47 114 118
0.100037 -0.190548 -0.0453951 33 98 104
0.0992045 -0.191312 -0.0458563 39 100 103
0.0987339 -0.192022 -0.0468549 42 105 110
0.0982622 -0.192735 -0.0478557 44 111 118
0.0979695 -0.193425 -0.0491319 49 119 125
0.0976754 -0.194118 -0.0504139 53 120 124
0.09738 -0.194814 -0.0517018 56 116 118
0.0970831 -0.195514 -0.0529956 59 111 113
0.0966044 -0.196238 -0.054014 69 97 97
0.0961246 -0.196964 -0.0550348 82 79 75
0.101373 -0.186754 -0.0419945 75 83 75
0.100724 -0.187489 -0.0427217 59 103 102
0.100075 -0.188223 -0.043449 51 117 117
0.0992445 -0.188987 -0.0439108 40 104 108
0.0985957 -0.18972 -0.0446374 38 97 99
0.098126 -0.190427 -0.0456313 42 103 106
0.0976551 -0.191135 -0.0466274 43 108 112
0.0975413 -0.191793 -0.0481678 47 116 120
0.0972469 -0.192481 -0.0494447 54 121 124
0.0969511 -0.193172 -0.0507276 55 117 119
0.0966539 -0.193867 -0.0520162 56 114 115
0.0961758 -0.194587 -0.0530313 63 106 106
0.0956965 -0.195309 -0.0540486 76 89 84
0.0950377 -0.196054 -0.0547865 86 76 66
0.101123 -0.185115 -0.0413147 77 77 70
0.100293 -0.185881 -0.0417783 64 93 88
0.0996448 -0.186614 -0.042504 54 114 115
0.098817 -0.187378 -0.0429658 42 110 117
0.0981695 -0.18811 -0.0436909 31 97 103
0.0975221 -0.188842 -0.0444159 41 102 104
0.0970521 -0.189546 -0.0454074 44 105 108
0.0967586 -0.190224 -0.0466695 46 111 115
0.0968202 -0.190852 -0.04848 52 120 122
0.096703 -0.191511 -0.050032 55 120 123
0.0964056 -0.192201 -0.0513176 55 115 118
0.0959277 -0.192919 -0.0523307 57 112 111
0.0954487 -0.193638 -0.0533462 65 97 94
0.0947905 -0.194382 -0.0540832 74 81 73
0.100691 -0.183515 -0.0403755 77 71 64
0.100044 -0.184247 -0.0411003 74 77 77
0.0993967 -0.184979 -0.0418252 58 106 107
0.0987493 -0.185711 -0.0425502 51 118 118
0.0979234 -0.186475 -0.0430116 36 101 107
0.0972766 -0.187206 -0.0437358 38 95 101
0.0968069 -0.187908 -0.0447254 42 103 107
0.0961593 -0.18864 -0.0454506 43 107 113
0.096218 -0.189258 -0.0472495 47 117 121
0.0960991 -0.18991 -0.0487922 52 121 124
0.0961578 -0.190539 -0.0506206 54 116 119
0.0956802 -0.191254 -0.0516318 55 112 115
0.0952013 -0.191971 -0.0526453 61 105 106
0.094544 -0.192714 -0.0533815 73 87 81
0.0996157 -0.182652 -0.0401637 73 72 69
0.0991492 -0.183347 -0.041148 62 94 93
0.0985025 -0.184079 -0.0418722 52 114 116
0.0976777 -0.184843 -0.0423338 43 108 112
0.0970317 -0.185574 -0.0430572 33 94 101
0.0965621 -0.186273 -0.044045 41 100 104
0.0959152 -0.187004 -0.0447694 41 103 111
0.0954438 -0.187705 -0.0457603 46 110 116
0.0954992 -0.188319 -0.0475606 52 119 124
0.0957327 -0.18891 -0.0496509 52 117 123
0.0954332 -0.189593 -0.0509344 53 114 117
0.0951324 -0.190279 -0.0522237 56 112 111
0.0944749 -0.191022 -0.0529599 68 94 93
0.0938174 -0.191766 -0.0536962 83 78 73
0.0987233 -0.181756 -0.0402122 76 79 78
0.098078 -0.182486 -0.0409348 59 107 110
0.0974326 -0.183215 -0.0416574 50 117 118
0.0967873 -0.183945 -0.0423801 32 99 104
0.0961418 -0.184675 -0.0431028 38 95 101
0.0956717 -0.185372 -0.0440897 43 103 108
0.0952006 -0.18607 -0.0450787 44 106 111
0.0949033 -0.186739 -0.0463374 48 117 119
0.0949562 -0.18735 -0.0481424 52 120 123
0.0950096 -0.187966 -0.0499639 53 114 120
0.0947085 -0.188647 -0.0512481 54 112 115
0.0944059 -0.189331 -0.0525383 65 102 103
0.0937484 -0.190074 -0.0532746 77 86 79
0.0986559 -0.180095 -0.0397978 83 71 69
0.0980106 -0.180824 -0.0405204 64 98 91
0.0973652 -0.181554 -0.0412431 55 118 118
0.0967198 -0.182283 -0.0419658 42 105 114
0.0960743 -0.183013 -0.0426886 34 91 101
0.0954287 -0.183743 -0.0434114 42 101 107
0.0947832 -0.184473 -0.0441342 43 103 111
0.0944857 -0.185136 -0.045388 46 111 118
0.0943615 -0.185771 -0.0469159 50 120 123
0.0944119 -0.186378 -0.0487256 50 115 120
0.0944628 -0.18699 -0.0505519 52 113 116
0.09416 -0.187669 -0.051839 57 110 112
0.0936793 -0.188382 -0.0528529 72 91 89
0.0930217 -0.189125 -0.0535893 82 80 71
0.0979431 -0.179162 -0.040106 69 84 79
0.0972976 -0.179892 -0.0408287 54 112 115
0.0966522 -0.180622 -0.0415514 47 115 120
0.0960067 -0.181351 -0.0422742 33 94 104
0.0953611 -0.182081 -0.042997 41 96 102
0.0947155 -0.182811 -0.0437199 43 103 109
0.0940699 -0.183541 -0.0444428 45 108 112
0.0937707 -0.184202 -0.0456974 50 119 120
0.0938183 -0.1848 -0.0474957 53 120 123
0.0940419 -0.18537 -0.0495834 52 112 119
0.0937387 -0.186044 -0.0508653 55 111 114
0.0934342 -0.186722 -0.0521532 63 98 101
0.0929525 -0.187433 -0.0531676 73 81 80
0.0922948 -0.188177 -0.053904 80 76 70
0.0978756 -0.177501 -0.0396915 80 78 75
0.0970533 -0.178271 -0.0401546 60 102 99
0.0964085 -0.179 -0.0408766 53 118 120
0.0957637 -0.179728 -0.0415986 41 103 113
0.0951188 -0.180457 -0.0423206 32 92 99
0.0944739 -0.181186 -0.0430427 43 104 106
0.0940022 -0.181879 -0.0440285 42 105 109
0.0935295 -0.182573 -0.0450166 47 112 117
0.0932287 -0.183233 -0.0462739 52 119 122
0.0932738 -0.183827 -0.0480769 52 115 120
0.0933193 -0.184426 -0.0498961 52 113 117
0.0931896 -0.185065 -0.0514551 55 108 110
0.0927083 -0.185774 -0.0524676 69 86 84
0.0922257 -0.186484 -0.0534824 77 72 68
0.0978081 -0.175838 -0.039277 82 72 71
0.0969858 -0.176611 -0.0397406 67 87 90
0.096341 -0.177339 -0.0404626 56 112 117
0.0956962 -0.178068 -0.0411846 48 114 115
0.0950513 -0.178797 -0.0419067 34 95 100
0.0942327 -0.179565 -0.0423671 40 97 101
0.0937613 -0.180255 -0.043351 42 104 108
0.0931163 -0.180984 -0.0440732 43 110 114
0.0928152 -0.181639 -0.0453257 49 118 121
0.0925127 -0.182298 -0.0465838 52 118 123
0.092728 -0.182851 -0.0486594 52 113 117
0.0925967 -0.183483 -0.0502089 55 112 113
0.0924644 -0.184118 -0.0517691 60 98 98
0.0919822 -0.184826 -0.0527819 67 81 73
0.0969184 -0.17495 -0.0393265 81 81 73
0.0962735 -0.175679 -0.0400485 58 108 103
0.0954538 -0.17645 -0.0405109 53 116 121
0.0948095 -0.177178 -0.0412322 40 102 109
0.0941652 -0.177907 -0.0419535 32 93 98
0.093521 -0.178635 -0.0426749 42 103 106
0.0928766 -0.179363 -0.0433964 42 106 110
0.0924035 -0.180052 -0.0443816 48 115 119
0.0921008 -0.180706 -0.0456348 54 121 124
0.0917966 -0.181362 -0.0468937 52 115 122
0.0920077 -0.181911 -0.0489711 53 112 117
0.0918739 -0.182539 -0.0505218 56 107 109
0.0915656 -0.183207 -0.0518061 67 88 83
0.0910828 -0.183913 -0.052818 75 77 68
0.0968509 -0.17329 -0.0389124 90 74 69
0.0960305 -0.174064 -0.039376 66 92 87
0.0953863 -0.174792 -0.0400973 51 118 119
0.094742 -0.17552 -0.0408186 45 112 118
0.0940977 -0.176248 -0.04154 29 93 100
0.0932811 -0.177018 -0.0420003 41 100 102
0.0926374 -0.177745 -0.042721 37 104 111
0.0921645 -0.178432 -0.0437044 42 113 116
0.0916906 -0.179121 -0.04469 47 119 123
0.0913862 -0.179772 -0.045944 51 118 122
0.0910803 -0.180426 -0.0472036 51 112 118
0.0909441 -0.181046 -0.0487397 54 112 114
0.0909788 -0.181632 -0.0505601 62 92 99
0.0906687 -0.182297 -0.0518432 70 74 77
0.0966073 -0.171677 -0.0382411 78 77 71
0.0959631 -0.172405 -0.0389624 80 76 78
0.0953189 -0.173133 -0.0396837 58 106 108
0.0945008 -0.173906 -0.040146 50 117 120
0.0938573 -0.174633 -0.0408666 37 100 105
0.0930417 -0.175404 -0.0413271 38 93 96
0.0923987 -0.176131 -0.042047 44 106 108
0.0919261 -0.176815 -0.0430287 43 108 113
0.0914524 -0.177501 -0.0440125 47 119 120
0.0911478 -0.178148 -0.0452635 54 123 123
0.0908417 -0.178798 -0.0465203 52 115 119
0.0903639 -0.17949 -0.0475136 53 111 116
0.0902252 -0.180107 -0.0490508 55 106 107
0.0900855 -0.180727 -0.0505984 73 83 79
0.089603 -0.181427 -0.0516044 83 70 64
0.0957206 -0.170795 -0.0382917 82 71 66
0.095077 -0.171522 -0.0390122 64 96 93
0.0942602 -0.172296 -0.0394748 50 118 122
0.0936173 -0.173022 -0.0401946 42 111 116
0.0929743 -0.173749 -0.0409145 30 94 99
0.0921606 -0.17452 -0.0413746 42 102 103
0.0916882 -0.175202 -0.0423543 40 103 111
0.0910451 -0.175929 -0.0430744 45 113 117
0.0907402 -0.176571 -0.0443206 50 120 123
0.0904338 -0.177215 -0.0455724 50 119 121
0.090126 -0.177863 -0.0468299 52 113 118
0.0896474 -0.178554 -0.0478237 54 110 114
0.0893368 -0.179207 -0.0490906 59 92 97
0.0888556 -0.179902 -0.0500904 71 76 71
0.0946623 -0.169964 -0.0380861 74 76 78
0.0940201 -0.170689 -0.0388051 56 113 115
0.0933779 -0.171415 -0.0395241 51 119 121
0.0927356 -0.172141 -0.0402432 34 98 106
0.091923 -0.172913 -0.0407035 38 91 100
0.0912813 -0.173638 -0.0414219 42 105 108
0.0908084 -0.174318 -0.0424007 43 109 113
0.0903344 -0.175 -0.0433818 48 121 119
0.0900277 -0.175639 -0.0446288 54 122 121
0.0897197 -0.176282 -0.0458813 53 114 118
0.0894103 -0.176928 -0.0471396 53 113 115
0.0889308 -0.177618 -0.0481338 61 105 106
0.0882823 -0.178351 -0.0488598 74 78 75
0.0944221 -0.168361 -0.0374185 72 72 73
0.0936086 -0.169137 -0.0378814 60 100 94
0.0929677 -0.169861 -0.0385989 52 119 121
0.0923268 -0.170585 -0.0393164 42 109 114
0.0913474 -0.171405 -0.0395202 29 91 99
0.0907078 -0.172127 -0.0402362 42 102 108
0.0904038 -0.172757 -0.0414692 42 105 111
0.0899304 -0.173435 -0.0424471 47 111 118
0.0896235 -0.17407 -0.0436892 50 119 124
0.0893152 -0.174708 -0.044937 53 116 122
0.0890056 -0.175349 -0.0461903 54 112 116
0.0886944 -0.175992 -0.0474494 55 111 111
0.0880466 -0.176724 -0.0481746 60 90 92
0.0875655 -0.177414 -0.0491701 73 74 73
0.0936669 -0.166921 -0.0359935 74 71 67
0.0930282 -0.167643 -0.0367086 63 82 87
0.0923894 -0.168364 -0.0374237 51 114 117
0.0917506 -0.169086 -0.0381388 50 119 120
0.0909435 -0.169857 -0.038599 31 96 101
0.0901381 -0.170626 -0.0390583 35 93 99
0.0896671 -0.171299 -0.0400281 41 107 111
0.0891948 -0.171973 -0.041 43 112 114
0.0890541 -0.172555 -0.0424934 50 121 125
0.0889125 -0.173141 -0.0439968 52 118 125
0.0886026 -0.173777 -0.0452453 53 113 118
0.0882912 -0.174415 -0.0464994 52 110 115
0.0878115 -0.175101 -0.0474908 57 104 106
0.0873306 -0.175789 -0.0484844 75 83 75
0.092791 -0.166051 -0.0360462 81 69 74
0.0921529 -0.166772 -0.0367606 60 106 100
0.0913462 -0.167545 -0.0372217 52 122 122
0.0905413 -0.168316 -0.0376819 41 104 112
0.0899045 -0.169035 -0.0383949 32 89 96
0.0892676 -0.169755 -0.0391078 42 103 105
0.088796 -0.170425 -0.0400767 41 108 115
0.0883233 -0.171097 -0.0410477 47 119 121
0.0883455 -0.171628 -0.0427999 50 123 125
0.0883679 -0.172164 -0.0445677 54 117 121
0.0880563 -0.172798 -0.0458189 54 111 115
0.0875768 -0.173482 -0.0468085 56 110 112
0.0870961 -0.174167 -0.0478003 63 84 90
0.0864489 -0.174898 -0.0485249 82 76 73
0.0927242 -0.164408 -0.0356364 77 68 63
0.0919169 -0.165183 -0.0360988 65 86 85
0.0912794 -0.165903 -0.0368124 51 113 120
0.0904745 -0.166676 -0.0372731 44 115 120
0.0896714 -0.167447 -0.0377329 29 92 103
0.0890352 -0.168166 -0.0384451 44 97 99
0.0883989 -0.168884 -0.0391573 42 104 113
0.0879267 -0.169553 -0.0401252 41 112 119
0.0876177 -0.170175 -0.0413528 48 123 126
0.0876367 -0.170702 -0.0431064 53 121 123
0.0876559 -0.171233 -0.0448757 54 117 118
0.0875087 -0.171818 -0.0463939 51 111 114
0.0868622 -0.172548 -0.0471176 59 102 103
0.0862157 -0.173278 -0.0478414 75 76 66
0.0918501 -0.163541 -0.0356895 69 74 73
0.0910446 -0.164317 -0.0361514 54 110 106
0.0902408 -0.16509 -0.0366123 52 122 123
0.0894388 -0.165863 -0.0370723 36 103 111
0.0888032 -0.16658 -0.0377837 30 90 97
0.0881676 -0.167298 -0.0384952 43 103 111
0.0876957 -0.167965 -0.0394614 42 107 116
0.0872227 -0.168633 -0.0404296 48 121 122
0.086912 -0.169252 -0.041658 51 124 127
0.0870923 -0.169725 -0.0436745 52 116 122
0.087109 -0.170253 -0.0454483 53 111 118
0.0867941 -0.170884 -0.0467031 58 110 112
0.0861475 -0.171614 -0.0474268 66 83 80
0.0855009 -0.172344 -0.0481507 75 73 62
0.0916146 -0.161957 -0.0350295 74 77 67
0.0908103 -0.162733 -0.0354917 60 90 88
0.090174 -0.163452 -0.0362038 53 117 122
0.0893721 -0.164226 -0.0366643 46 114 119
0.0885718 -0.164998 -0.0371238 25 94 99
0.0879368 -0.165715 -0.0378346 41 97 101
0.0874651 -0.166379 -0.0387989 40 108 112
0.0868294 -0.167097 -0.0395105 44 115 118
0.0865185 -0.167712 -0.0407341 51 121 125
0.0862062 -0.168329 -0.0419632 52 118 123
0.0865466 -0.168746 -0.0442439 55 114 117
0.0863959 -0.169321 -0.0457568 54 112 115
0.0860794 -0.16995 -0.0470122 58 95 102
0.0854327 -0.17068 -0.0477361 70 71 66
0.091212 -0.160436 -0.0341221 84 65 68
0.0905765 -0.161154 -0.0348334 72 78 78
0.0899409 -0.161871 -0.0355449 55 112 113
0.0893053 -0.162589 -0.0362563 51 121 123
0.0885051 -0.163363 -0.0367162 33 100 110
0.0878701 -0.16408 -0.037427 32 92 99
0.0872351 -0.164797 -0.0381378 43 105 109
0.0866 -0.165514 -0.0388487 43 109 114
0.0861267 -0.166178 -0.0398143 48 121 123
0.0858141 -0.166791 -0.0410386 55 123 123
0.085825 -0.167301 -0.0427872 54 116 119
0.0859995 -0.167765 -0.0448146 52 113 115
0.0856828 -0.168389 -0.0460652 57 110 111
0.0853646 -0.169015 -0.0473215 66 81 77
0.0847178 -0.169745 -0.0480454 76 68 62
0.0903432 -0.159577 -0.0341766 79 69 71
0.0897083 -0.160294 -0.0348872 64 96 94
0.0890734 -0.161011 -0.0355979 52 121 125
0.0884384 -0.161728 -0.0363087 41 112 118
0.0878034 -0.162445 -0.0370195 26 92 100
0.0871683 -0.163162 -0.0377303 41 102 104
0.0865332 -0.163879 -0.0384412 39 107 114
0.085898 -0.164596 -0.0391522 43 115 121
0.0854239 -0.165259 -0.0401182 48 120 126
0.0852712 -0.165815 -0.0416007 53 118 121
0.085442 -0.166269 -0.0436148 55 115 118
0.0854512 -0.166781 -0.0453866 56 116 113
0.0851327 -0.167403 -0.04664 59 93 97
0.0846496 -0.168081 -0.0476308 70 72 66
0.0902766 -0.157942 -0.0337689 76 67 64
0.0896417 -0.158659 -0.0344796 71 81 80
0.0890068 -0.159375 -0.0351903 55 114 118
0.0883717 -0.160092 -0.0359011 49 123 125
0.0877366 -0.160809 -0.0366119 29 99 106
0.0871015 -0.161526 -0.0373227 32 93 99
0.0864664 -0.162243 -0.0380336 42 106 110
0.0858312 -0.16296 -0.0387446 43 111 117
0.085196 -0.163677 -0.0394556 49 121 124
