ply
format ascii 1.0
element vertex 1192
property float x
property float y
property float z
property uchar diffuse_red
property uchar diffuse_green
property uchar diffuse_blue
end_header
0.170291 -0.085149 -0.00327002 84 63 59
0.169944 -0.0837379 -0.00422003 89 67 58
0.158781 -0.125923 0.00973921 83 63 56
0.159413 -0.124204 0.00940473 89 61 55
0.160049 -0.122475 0.00906815 107 61 53
0.160689 -0.120736 0.0087295 168 56 47
0.161333 -0.118986 0.00838869 235 53 41
0.16198 -0.117225 0.00804579 255 57 40
0.163622 -0.11503 0.00826912 255 60 40
0.164283 -0.11324 0.00792257 255 66 42
0.164447 -0.111658 0.00728851 255 68 43
0.165113 -0.109849 0.00693721 255 71 47
0.165783 -0.108029 0.0065837 255 75 49
0.165445 -0.106654 0.00565786 255 75 51
0.166119 -0.104818 0.00529913 255 76 52
0.167307 -0.102736 0.00522333 255 72 51
0.169543 -0.100152 0.00572238 255 73 49
0.170764 -0.0980201 0.00564758 255 73 45
0.170418 -0.0966162 0.00470235 255 73 49
0.170596 -0.0949613 0.00404456 255 75 54
0.17025 -0.093555 0.00309777 255 73 49
0.170428 -0.0918925 0.00243626 253 73 50
0.170081 -0.0904838 0.00148787 226 66 53
0.169735 -0.0890751 0.000539444 136 56 56
0.169912 -0.0874026 -0.000127338 96 65 57
0.169565 -0.0859915 -0.00107736 91 64 58
0.169218 -0.0845804 -0.00202741 87 65 63
0.168348 -0.0834397 -0.00325464 94 62 58
0.168001 -0.0820307 -0.00420328 87 66 58
0.155871 -0.126152 0.00978837 84 65 56
0.156017 -0.124637 0.00917644 92 63 56
0.156638 -0.122922 0.00884166 137 57 51
0.157262 -0.121197 0.00850482 210 53 43
0.158371 -0.11926 0.00844643 252 53 37
0.159006 -0.11751 0.00810576 255 55 37
0.160131 -0.11554 0.00804507 255 63 39
0.160776 -0.113766 0.00770047 255 68 42
0.161918 -0.111764 0.0076373 255 69 45
0.162573 -0.109963 0.00728864 255 72 48
0.163232 -0.108152 0.00693782 255 73 48
0.163395 -0.106557 0.00630008 255 73 49
0.163558 -0.104956 0.00566027 255 73 51
0.164729 -0.102884 0.0055865 255 72 49
0.167963 -0.0998317 0.00666369 255 73 47
0.168654 -0.0979475 0.00630286 255 71 45
0.16935 -0.0960512 0.00593964 255 73 49
0.169004 -0.0946471 0.00499436 255 74 51
0.16918 -0.0929889 0.00433693 255 73 48
0.168834 -0.0915824 0.00339005 255 71 48
0.169009 -0.0899166 0.00272892 255 73 49
0.168663 -0.0885077 0.00178043 246 59 52
0.168316 -0.0870988 0.000831895 156 54 52
0.167969 -0.0856899 -0.000116669 101 67 56
0.167622 -0.0842808 -0.00106525 93 63 62
0.167275 -0.0828718 -0.00201388 88 63 59
0.166928 -0.0814626 -0.00296258 87 64 55
0.166581 -0.0800534 -0.00391131 90 63 56
0.152995 -0.126378 0.00983714 86 65 57
0.152671 -0.125063 0.00895172 104 62 55
0.153277 -0.123363 0.0086187 172 53 45
0.153419 -0.121848 0.00800674 236 50 39
0.15403 -0.12013 0.00766932 255 53 38
0.155117 -0.118199 0.00760747 255 59 38
0.156692 -0.116043 0.00782462 255 65 41
0.157322 -0.114283 0.00748191 255 68 44
0.158925 -0.112084 0.0077002 255 69 47
0.160548 -0.109857 0.00792118 255 72 48
0.160705 -0.108274 0.0072889 255 73 48
0.160863 -0.106686 0.00665457 255 71 49
0.160527 -0.105321 0.00573581 255 73 51
0.161677 -0.103263 0.00566279 255 73 50
0.165876 -0.0997539 0.00731189 255 73 46
0.167073 -0.0976302 0.00724488 255 72 45
0.167762 -0.0957358 0.00688518 255 75 48
0.167417 -0.0943338 0.00594135 255 77 50
0.16759 -0.0926776 0.00528642 255 76 49
0.167763 -0.0910161 0.00462935 255 76 50
0.167417 -0.0896094 0.00368237 255 71 47
0.16759 -0.0879402 0.00302161 255 71 50
0.167243 -0.0865312 0.00207304 247 62 52
0.166897 -0.0851221 0.00112443 156 65 53
0.16655 -0.0837129 0.000175752 104 62 59
0.166203 -0.0823037 -0.000772931 96 66 55
0.165856 -0.0808944 -0.00172166 96 62 56
0.165509 -0.0794851 -0.00267046 90 65 58
0.165162 -0.0780757 -0.00361928 91 65 57
0.150611 -0.126415 0.0101624 91 63 58
0.150289 -0.125106 0.00928088 129 56 51
0.150425 -0.123605 0.00867439 204 54 40
0.150562 -0.122099 0.00806611 250 55 34
0.150699 -0.120589 0.00745594 255 55 36
0.151299 -0.118875 0.00711829 255 61 39
0.153306 -0.116538 0.00760771 255 66 42
0.154393 -0.114584 0.00754523 255 69 44
0.15549 -0.112613 0.00748213 255 70 48
0.15516 -0.111271 0.00657884 255 73 48
0.15723 -0.108836 0.0070722 255 76 48
0.159332 -0.106363 0.00757316 255 73 48
0.158997 -0.105 0.00665578 255 74 50
0.160138 -0.102944 0.00658705 255 76 51
0.163801 -0.0996765 0.00795621 255 72 48
0.164475 -0.0978034 0.00760164 255 72 47
0.165665 -0.0956703 0.0075359 255 71 46
0.165321 -0.0942726 0.00659499 255 75 50
0.166004 -0.0923672 0.00623312 255 72 49
0.166693 -0.0904496 0.0058689 255 73 49
0.166346 -0.0890428 0.00492186 255 74 48
0.166 -0.087636 0.00397479 255 72 49
0.166171 -0.0859634 0.00331438 255 70 47
0.165824 -0.0845542 0.00236575 249 64 51
0.165477 -0.0831449 0.00141699 160 66 54
0.16513 -0.0817355 0.000468262 98 63 57
0.164783 -0.0803261 -0.00048054 95 66 59
0.164436 -0.0789167 -0.00142937 89 65 59
0.163575 -0.0777863 -0.00265589 94 63 58
0.163229 -0.076379 -0.00360329 96 62 55
0.14857 -0.127755 0.0113625 88 65 58
0.148249 -0.126451 0.0104849 101 63 56
0.148381 -0.124959 0.00988295 160 53 44
0.148514 -0.123462 0.00927912 231 49 35
0.148647 -0.121961 0.0086735 255 53 35
0.148325 -0.120651 0.00779182 255 58 37
0.148915 -0.118944 0.00745664 255 63 40
0.14997 -0.117025 0.0073942 255 66 40
0.151499 -0.114882 0.00760803 255 70 42
0.151639 -0.113344 0.00699048 255 71 46
0.151779 -0.111802 0.00637107 255 75 47
0.153334 -0.109607 0.00658045 255 74 46
0.15635 -0.106716 0.00763682 255 74 47
0.157472 -0.104681 0.00757308 255 76 49
0.159589 -0.10216 0.00808092 255 75 50
0.162746 -0.0991186 0.00917868 255 73 47
0.164601 -0.0951077 0.00876796 255 74 47
0.164769 -0.0934578 0.00811953 255 76 49
0.164937 -0.0918026 0.00746898 255 76 49
0.165106 -0.0901421 0.00681632 255 75 49
0.16476 -0.0887374 0.00587074 255 72 51
0.164929 -0.0870692 0.00521443 255 72 48
0.164582 -0.0856621 0.00426724 255 72 49
0.164236 -0.084255 0.00332005 255 72 49
0.16389 -0.0828478 0.00237278 249 67 51
0.163543 -0.0814406 0.0014255 158 66 56
0.163197 -0.0800333 0.000478156 101 61 58
0.16285 -0.078626 -0.0004692 93 68 58
0.162504 -0.0772185 -0.00141662 93 59 58
0.162157 -0.0758111 -0.00236408 97 68 59
0.161301 -0.0746872 -0.00358727 93 64 55
0.145651 -0.129446 0.0119973 93 64 58
0.146675 -0.127601 0.0119561 92 66 57
0.146355 -0.126301 0.0110811 117 61 51
0.146485 -0.124813 0.0104817 190 54 42
0.146614 -0.12332 0.00988046 246 51 33
0.146744 -0.121823 0.00927746 255 52 33
0.146423 -0.120517 0.00839835 255 59 38
0.146553 -0.119013 0.00779218 255 64 41
0.147592 -0.117103 0.00773149 255 67 41
0.14864 -0.115175 0.00767023 255 67 42
0.148775 -0.113647 0.00705647 255 68 45
0.14799 -0.112535 0.00589321 255 74 48
0.147665 -0.111215 0.00500468 255 73 45
0.151984 -0.107728 0.00686026 255 75 48
0.164037 -0.0895763 0.00805432 255 71 47
0.163691 -0.0881715 0.00710868 255 74 51
0.163345 -0.0867666 0.00616299 255 73 50
0.163511 -0.0850951 0.00550706 255 72 48
0.163165 -0.0836878 0.00455979 255 71 47
0.162818 -0.0822805 0.00361248 255 70 48
0.162472 -0.0808732 0.00266512 249 61 50
0.162125 -0.0794657 0.00171774 153 60 55
0.161779 -0.0780583 0.000770308 96 60 57
0.161432 -0.0766507 -0.000177152 97 59 55
0.160577 -0.0755254 -0.00140388 89 63 58
0.159725 -0.0744037 -0.00262671 88 65 56
0.139422 -0.131065 0.0098571 92 64 58
0.144347 -0.127632 0.0122688 97 63 56
0.144473 -0.126152 0.0116738 156 55 50
0.144599 -0.124668 0.0110771 229 51 43
0.144726 -0.123179 0.0104785 255 52 37
0.144852 -0.121686 0.00987808 255 55 36
0.144532 -0.120384 0.00900153 255 61 39
0.144658 -0.118884 0.00839797 255 63 41
0.145235 -0.11718 0.00806596 255 66 43
0.146268 -0.115261 0.00800639 255 68 44
0.145944 -0.113947 0.00712182 255 71 47
0.146074 -0.112424 0.00650991 255 70 47
0.146205 -0.110896 0.00589614 255 71 47
0.146335 -0.109364 0.00528047 255 70 48
0.162111 -0.0878677 0.008053 255 70 49
0.161766 -0.086465 0.00710876 255 71 49
0.161929 -0.0847955 0.00645531 255 71 49
0.162093 -0.0831206 0.00579975 255 71 52
0.161747 -0.0817131 0.00485238 255 72 50
0.1614 -0.0803056 0.00390498 255 68 48
0.161054 -0.078898 0.00295753 252 60 53
0.160707 -0.0774904 0.00201004 150 58 54
0.159853 -0.0763638 0.000779845 95 68 58
0.159507 -0.0749582 -0.000166215 87 65 59
0.158656 -0.0738373 -0.00139108 92 65 57
0.158311 -0.0724339 -0.00233572 87 63 50
0.134127 -0.133711 0.00889451 88 61 54
0.138454 -0.130555 0.0109803 90 60 52
0.138998 -0.128926 0.0106641 117 56 48
0.139978 -0.127107 0.0106176 193 54 44
0.140967 -0.125271 0.0105706 247 55 39
0.142406 -0.123229 0.0107977 255 54 37
0.142528 -0.121743 0.0102004 255 58 40
0.143095 -0.120057 0.00987572 255 64 42
0.14322 -0.118559 0.00927431 255 65 42
0.143791 -0.116855 0.00894531 255 67 42
0.143917 -0.115346 0.00833976 255 69 44
0.144043 -0.113832 0.00773238 255 70 45
0.14372 -0.112521 0.00685035 255 72 46
0.144297 -0.11079 0.00651202 255 70 47
0.144876 -0.109048 0.00617167 255 72 50
0.161043 -0.0873026 0.00928938 255 72 47
0.160698 -0.0858997 0.0083451 255 72 49
0.160352 -0.0844967 0.00740079 255 71 44
0.160513 -0.0828239 0.0067477 255 73 49
0.160675 -0.0811456 0.0060925 255 69 49
0.160329 -0.079738 0.00514505 255 69 47
0.159982 -0.0783303 0.00419753 255 67 45
0.159129 -0.0772022 0.00296383 247 66 54
0.158783 -0.0757966 0.00201776 138 59 56
0.158437 -0.074391 0.00107164 96 63 58
0.157588 -0.0732708 -0.000155263 95 65 56
0.156741 -0.0721541 -0.00137826 94 68 55
0.155898 -0.0710408 -0.00259744 88 60 57
0.132761 -0.133378 0.00973587 88 62 46
0.135367 -0.130921 0.010753 96 62 47
0.135056 -0.129658 0.00990289 159 52 47
0.136434 -0.12768 0.0101219 229 48 41
0.137827 -0.125679 0.0103435 255 53 36
0.138803 -0.123842 0.0102954 255 55 37
0.140225 -0.121798 0.0105202 255 61 41
0.141222 -0.119925 0.0104722 255 65 44
0.142228 -0.118035 0.0104239 255 66 45
0.142796 -0.116331 0.0100982 255 70 46
0.142921 -0.11482 0.00949436 255 70 46
0.142598 -0.113512 0.00861364 255 69 45
0.142723 -0.111995 0.0080066 255 69 46
0.1424 -0.110684 0.00712449 255 73 49
0.143872 -0.108518 0.00733469 255 72 50
0.15947 -0.0870005 0.0102292 255 70 49
0.158622 -0.0858642 0.00899195 255 74 50
0.15878 -0.0841988 0.00834348 255 73 47
0.158938 -0.082528 0.00769284 255 73 47
0.159097 -0.0808518 0.00704015 255 71 47
0.158751 -0.0794463 0.00609415 255 67 44
0.157902 -0.0783182 0.00485937 255 71 45
0.157556 -0.0769147 0.00391478 254 67 47
0.15721 -0.0755113 0.00297015 209 65 54
0.156865 -0.0741078 0.00202549 117 63 56
0.156519 -0.0727042 0.00108079 92 66 55
0.155674 -0.0715882 -0.000144236 96 65 56
0.155329 -0.0701868 -0.00108751 96 63 56
0.13058 -0.133383 0.0100467 89 61 50
0.132325 -0.131282 0.0105291 116 57 47
0.132429 -0.129854 0.00995017 187 56 45
0.13212 -0.128598 0.00910489 244 52 37
0.132639 -0.126985 0.00878728 255 53 33
0.134419 -0.124813 0.00926598 255 60 38
0.135798 -0.122798 0.00948212 255 65 42
0.138924 -0.119989 0.0107909 255 69 44
0.141236 -0.117512 0.0115736 255 68 44
0.142247 -0.115603 0.0115299 255 69 46
0.14237 -0.114089 0.0109272 255 72 47
0.142048 -0.112778 0.0100451 255 73 49
0.141725 -0.111468 0.009163 255 72 51
0.141402 -0.110157 0.00828085 255 75 51
0.142869 -0.107987 0.0084979 255 71 49
0.157057 -0.0855651 0.00992938 255 79 49
0.156713 -0.0841685 0.00898945 255 77 47
0.157368 -0.082233 0.00863525 255 73 46
0.157524 -0.0805589 0.00798499 255 72 44
0.157178 -0.0791555 0.00704045 255 70 45
0.156833 -0.077752 0.00609582 255 68 45
0.156487 -0.0763484 0.00515119 255 64 45
0.156142 -0.0749449 0.00420653 252 69 49
0.155297 -0.0738253 0.00297656 164 71 56
0.154952 -0.0724239 0.00203333 100 62 56
0.154607 -0.0710223 0.00109001 97 62 54
0.154262 -0.0696207 0.000146665 90 64 52
0.153422 -0.0685112 -0.00107508 89 65 56
0.12832 -0.134793 0.0109262 88 60 49
0.128821 -0.13322 0.0106183 91 59 50
0.129732 -0.131468 0.0105727 149 51 44
0.129832 -0.130047 0.00999711 226 49 40
0.129933 -0.128623 0.00941982 255 52 38
0.130854 -0.126838 0.0093687 255 55 38
0.131784 -0.125037 0.00931714 255 62 40
0.131473 -0.123775 0.00846805 255 68 42
0.134512 -0.121009 0.0097499 255 68 43
0.140244 -0.116988 0.0127236 255 65 44
0.141695 -0.114873 0.012966 255 69 46
0.143163 -0.112731 0.0132112 255 71 48
0.141941 -0.111833 0.0117611 255 71 48
0.140727 -0.110941 0.0103196 255 73 48
0.140848 -0.109417 0.00971401 255 72 48
0.155994 -0.0850022 0.0111605 255 75 47
0.155649 -0.0836055 0.0102205 255 71 48
0.155306 -0.0822087 0.00928045 255 70 48
0.155956 -0.0802667 0.00892707 255 72 45
0.15611 -0.0785893 0.0082772 255 68 48
0.155764 -0.0771857 0.00733251 255 67 43
0.155418 -0.0757821 0.00638784 255 69 44
0.154575 -0.0746611 0.00515441 255 67 45
0.15423 -0.0732596 0.00421114 251 64 49
0.153885 -0.0718579 0.0032678 140 58 50
0.15354 -0.0704563 0.00232448 91 64 56
0.153194 -0.0690545 0.00138109 92 69 54
0.152356 -0.0679458 0.000157334 87 63 56
0.125294 -0.136512 0.0112717 86 63 50
0.125386 -0.135121 0.010706 90 59 45
0.125479 -0.133725 0.0101386 107 56 44
0.12757 -0.13148 0.0108795 182 54 39
0.127667 -0.130066 0.0103067 243 50 32
0.127764 -0.128648 0.00973228 255 52 35
0.128672 -0.12687 0.00968268 255 59 39
0.128364 -0.125619 0.00884079 255 64 42
0.130513 -0.123269 0.00958207 255 69 44
0.141343 -0.116967 0.0158871 255 70 45
0.146123 -0.111838 0.0175829 255 71 49
0.145795 -0.110504 0.0166847 255 72 50
0.145007 -0.109386 0.0154961 255 72 50
0.142408 -0.109135 0.013167 255 70 48
0.154586 -0.0830424 0.0114518 255 73 46
0.154242 -0.0816455 0.0105116 255 73 48
0.153898 -0.0802485 0.00957152 255 70 48
0.154048 -0.0785762 0.00892469 255 71 49
0.154198 -0.0768986 0.00827575 255 69 45
0.153853 -0.075497 0.00733253 255 66 44
0.153508 -0.0740954 0.00638924 255 70 46
0.153162 -0.0726937 0.00544591 253 70 46
0.152817 -0.0712919 0.00450253 182 74 52
0.152472 -0.0698901 0.00355913 103 65 55
0.152127 -0.0684883 0.00261568 95 70 55
0.15129 -0.0673803 0.0013899 87 64 57
0.123183 -0.136504 0.0115712 83 61 54
0.122882 -0.135281 0.0107482 91 56 49
0.122971 -0.133893 0.010184 146 48 44
0.124633 -0.131831 0.0106591 223 46 39
0.124329 -0.130598 0.00982905 255 49 35
0.124817 -0.129019 0.0095192 255 57 38
0.125307 -0.127432 0.00920751 255 63 41
0.1254 -0.126013 0.00863301 255 67 43
0.128731 -0.123132 0.0101623 255 72 46
0.147087 -0.108881 0.0193441 255 71 48
0.145368 -0.108196 0.0175517 255 70 48
0.154857 -0.0833407 0.0142268 255 75 43
0.153029 -0.0827478 0.0123844 255 72 43
0.151706 -0.0818921 0.0108538 255 73 46
0.151364 -0.0805016 0.0099181 255 69 48
0.151999 -0.0785631 0.00956827 255 68 46
0.152637 -0.0766123 0.0092162 255 69 46
0.152292 -0.0752128 0.00827437 255 67 46
0.151948 -0.0738133 0.00733254 255 66 44
0.151603 -0.0724137 0.00639065 255 68 44
0.151749 -0.0707259 0.00573749 255 69 49
0.151404 -0.0693239 0.00479401 147 57 55
0.150569 -0.0682145 0.00356474 93 65 60
0.149249 -0.0674016 0.00205692 86 68 61
0.147457 -0.066886 0.000280194 87 70 59
0.12139 -0.137713 0.012688 82 61 54
0.12109 -0.136496 0.0118685 88 57 51
0.121176 -0.135116 0.0113081 106 53 48
0.121262 -0.133732 0.0107462 183 53 42
0.122126 -0.13201 0.0107018 243 51 37
0.122213 -0.130614 0.0101359 255 53 36
0.122693 -0.129042 0.00982813 255 59 38
0.122782 -0.127636 0.00925846 255 64 41
0.12366 -0.125871 0.00920723 255 68 45
0.123751 -0.124452 0.00863344 255 70 48
0.154134 -0.0841772 0.0164056 255 73 46
0.150846 -0.0843771 0.0136517 255 73 42
0.150504 -0.0829888 0.0127175 255 71 41
0.150162 -0.0816005 0.0117832 255 76 46
0.150305 -0.0799407 0.0111439 255 70 47
0.149962 -0.07855 0.010208 255 69 47
0.150592 -0.0766052 0.00985899 255 68 43
0.150737 -0.0749294 0.00921347 255 64 46
0.150392 -0.0735319 0.00827304 255 68 44
0.150048 -0.0721344 0.0073326 255 65 42
0.149704 -0.0707369 0.00639213 255 65 45
0.14936 -0.0693392 0.0054516 170 71 56
0.14853 -0.0682332 0.00422513 95 63 59
0.146741 -0.0677137 0.00243818 89 64 58
0.146399 -0.0663247 0.00150346 94 60 54
0.119313 -0.1377 0.0129797 87 57 51
0.119014 -0.136487 0.0121634 92 59 52
0.119097 -0.135113 0.0116058 148 49 47
0.119179 -0.133735 0.0110466 224 48 39
0.120416 -0.131853 0.0112635 255 52 37
0.120115 -0.13063 0.0104403 255 56 37
0.120975 -0.128892 0.0103945 255 62 39
0.121451 -0.127315 0.0100873 255 67 40
0.121538 -0.125906 0.00951798 255 70 44
0.122411 -0.124134 0.00946776 255 71 49
0.152918 -0.0852792 0.0182755 255 72 46
0.152573 -0.0838799 0.0173339 255 72 50
0.148822 -0.0843463 0.0142761 255 75 45
0.148481 -0.0829622 0.0133447 255 75 44
0.14814 -0.0815781 0.0124133 255 69 45
0.147799 -0.0801939 0.0114818 255 69 45
0.147458 -0.0788096 0.0105504 255 67 47
0.147117 -0.0774253 0.00961886 255 66 43
0.147736 -0.0754859 0.00926953 255 64 46
0.148358 -0.0735342 0.00891796 255 62 41
0.148014 -0.072141 0.00798044 255 65 44
0.147189 -0.071034 0.00675387 255 66 46
0.146367 -0.0699304 0.00553114 229 72 55
0.146025 -0.0685414 0.00459642 129 57 55
0.145206 -0.0674434 0.00337894 91 60 51
0.144389 -0.0663488 0.00216524 91 64 58
0.115008 -0.138623 0.0117226 87 60 54
0.114713 -0.137424 0.0109163 104 56 50
0.11516 -0.135909 0.0106182 188 54 42
0.11561 -0.134386 0.0103185 243 52 39
0.118334 -0.131863 0.0115623 255 55 37
0.118034 -0.130645 0.0107424 255 58 36
0.118882 -0.128915 0.010698 255 64 39
0.119737 -0.12717 0.0106531 255 70 44
0.120598 -0.125411 0.0106078 255 71 45
0.121468 -0.123636 0.0105621 255 70 48
0.147629 -0.0854342 0.0161261 255 73 45
0.147289 -0.0840522 0.0151962 255 70 44
0.146949 -0.0826702 0.0142662 255 70 43
0.147086 -0.0810197 0.0136338 255 71 46
0.146745 -0.0796354 0.0127023 255 69 45
0.146404 -0.078251 0.0117707 255 70 46
0.146063 -0.0768666 0.0108391 255 65 43
0.145722 -0.0754821 0.00990752 255 65 43
0.145857 -0.0738174 0.00926697 255 63 45
0.145516 -0.0724306 0.00833379 255 62 44
0.144698 -0.0713282 0.00711244 255 61 44
0.144357 -0.0699435 0.00618065 255 65 48
0.144016 -0.0685587 0.00524884 148 56 51
0.143675 -0.0671738 0.00431699 95 58 57
0.142862 -0.0660812 0.00310365 92 64 60
0.112187 -0.140255 0.0120516 84 59 53
0.112624 -0.13876 0.0117591 87 57 51
0.11233 -0.137568 0.0109571 151 45 42
0.113136 -0.135903 0.0109146 227 51 39
0.113209 -0.134547 0.0103627 254 54 38
0.114395 -0.132697 0.0105726 255 55 37
0.11597 -0.13066 0.0110422 255 60 39
0.11795 -0.128423 0.011779 255 66 42
0.1188 -0.126677 0.0117387 255 71 45
0.11927 -0.125093 0.0114351 255 71 46
0.146577 -0.084877 0.017345 255 78 46
0.146236 -0.0834949 0.0164151 255 72 45
0.146372 -0.0818457 0.0157859 255 73 45
0.146031 -0.0804613 0.0148544 255 73 42
0.14569 -0.0790768 0.0139229 255 70 46
0.145349 -0.0776923 0.0129913 255 67 47
0.145008 -0.0763077 0.0120596 255 67 45
0.144193 -0.075201 0.0108344 255 65 40
0.14338 -0.0740978 0.00961291 255 66 41
0.14257 -0.0729979 0.00839523 255 61 44
0.14223 -0.0716196 0.00746781 255 63 43
0.141891 -0.0702413 0.00654035 255 61 42
0.141551 -0.0688628 0.00561284 158 68 55
0.141212 -0.0674843 0.00468532 96 64 57
0.140872 -0.0661058 0.00375774 89 67 55
0.108342 -0.142302 0.0116214 87 59 50
0.108763 -0.14083 0.0113313 89 59 54
0.10883 -0.139502 0.0107889 101 54 43
0.108896 -0.13817 0.010245 188 50 33
0.109681 -0.136524 0.0101999 243 51 32
0.112296 -0.134065 0.011422 255 55 36
0.112737 -0.132541 0.0111252 255 61 39
0.11318 -0.131008 0.0108267 255 65 42
0.118167 -0.127412 0.0136512 255 68 42
0.117864 -0.126183 0.0128244 255 70 44
0.118332 -0.124598 0.0125239 255 72 48
0.145523 -0.0843197 0.0185642 255 70 43
0.145183 -0.0829375 0.0176341 255 73 46
0.145317 -0.0812872 0.0170069 255 72 47
0.144976 -0.0799027 0.0160753 255 68 44
0.145111 -0.078245 0.0154445 255 68 43
0.144294 -0.0771335 0.014212 255 68 44
0.14348 -0.0760254 0.0129834 255 68 42
0.142199 -0.0751979 0.0114649 255 66 41
0.141859 -0.0738196 0.0105375 255 63 38
0.141053 -0.0727218 0.00932021 255 64 42
0.140714 -0.0713455 0.00839416 255 60 42
0.140375 -0.0699691 0.0074681 255 61 42
0.140036 -0.0685927 0.00654199 185 70 54
0.139233 -0.0675044 0.0053327 107 62 58
0.137973 -0.0667081 0.00384713 91 59 55
0.137178 -0.0656277 0.00264754 92 59 49
0.105691 -0.142562 0.0114094 86 55 42
0.106453 -0.140953 0.0113696 87 57 47
0.106869 -0.139482 0.0110794 137 50 37
0.107286 -0.138003 0.0107877 222 50 34
0.107705 -0.136515 0.0104944 253 54 37
0.109564 -0.134386 0.0112068 255 59 38
0.109995 -0.132873 0.0109114 255 64 40
0.110792 -0.131187 0.0108684 255 69 43
0.117231 -0.126918 0.0147372 255 71 46
0.14447 -0.0837624 0.0197835 255 73 45
0.14413 -0.08238 0.0188534 255 74 48
0.144262 -0.0807287 0.018228 255 73 48
0.144395 -0.0790722 0.0176006 255 73 47
0.144054 -0.0776853 0.0166674 255 70 44
0.142767 -0.07685 0.0151327 255 68 45
0.141488 -0.0760198 0.0136075 255 70 46
0.140682 -0.0749185 0.0123854 255 66 41
0.139879 -0.0738205 0.0111671 255 62 41
0.139078 -0.072726 0.00995263 255 61 40
0.138279 -0.0716347 0.0087418 255 62 41
0.137942 -0.0702647 0.00782 255 59 40
0.137146 -0.0691788 0.00661432 218 62 48
0.136809 -0.0678108 0.00569383 129 51 50
0.135563 -0.067017 0.004214 91 64 58
0.135227 -0.0656531 0.00329634 88 66 60
0.102675 -0.144263 0.0114864 82 55 49
0.103763 -0.14253 0.0116947 80 53 47
0.104515 -0.140928 0.0116562 94 54 41
0.105272 -0.139312 0.0116173 184 51 36
0.105684 -0.137836 0.0113277 243 52 37
0.106098 -0.136352 0.0110365 255 55 39
0.107581 -0.134386 0.0114985 255 59 41
0.108364 -0.132717 0.0114582 255 65 43
0.108791 -0.131199 0.0111633 255 68 46
0.109583 -0.129506 0.0111213 255 70 46
0.143417 -0.0832049 0.0210031 255 75 48
0.143076 -0.0818224 0.0200729 255 74 49
0.142735 -0.0804399 0.0191427 255 75 46
0.143338 -0.0785126 0.0188238 255 72 48
0.142054 -0.0776746 0.0172822 255 72 41
0.140777 -0.0768417 0.0157503 255 71 46
0.139509 -0.076014 0.0142279 255 68 45
0.138248 -0.0751914 0.0127148 255 63 42
0.137452 -0.0740981 0.0115016 255 66 45
0.136659 -0.073008 0.0102922 255 62 45
0.135414 -0.0721996 0.00880054 255 59 38
0.134178 -0.071396 0.00731803 255 60 39
0.133843 -0.0700384 0.00640465 243 60 44
0.133509 -0.0686808 0.00549123 138 51 47
0.132727 -0.0676071 0.00430007 89 60 53
0.132393 -0.0662514 0.00338795 87 58 57
0.100776 -0.144224 0.011769 81 61 53
0.10117 -0.142786 0.0114848 85 53 46
0.102591 -0.140902 0.0119407 141 44 37
0.102992 -0.139442 0.0116543 225 47 37
0.104091 -0.13767 0.011865 253 53 38
0.104499 -0.136189 0.011576 255 58 39
0.105614 -0.134386 0.011788 255 61 41
0.106741 -0.132563 0.0120023 255 64 43
0.107163 -0.131048 0.0117096 255 67 45
0.107946 -0.129359 0.0116699 255 73 46
0.142363 -0.0826474 0.0222228 255 69 45
0.142022 -0.0812647 0.0212926 255 73 47
0.141682 -0.079882 0.0203624 255 70 42
0.140406 -0.0790423 0.0188208 255 70 44
0.139602 -0.0779362 0.0175906 255 73 45
0.138339 -0.0771063 0.0160648 255 72 47
0.137542 -0.0760083 0.0148446 255 68 45
0.136291 -0.0751881 0.0133343 255 65 45
0.1355 -0.0740979 0.0121239 255 63 43
0.133364 -0.0738372 0.010055 255 60 41
0.13214 -0.0730322 0.00857537 255 61 39
0.131364 -0.0719569 0.00738508 255 57 40
0.131031 -0.0706075 0.0064772 251 60 44
0.130699 -0.069258 0.0055693 138 51 53
0.130366 -0.0679084 0.00466134 90 62 58
0.129594 -0.0668423 0.00347868 88 58 57
0.0988924 -0.144186 0.0120497 85 55 41
0.099279 -0.142754 0.0117673 93 54 43
0.100005 -0.141168 0.0117293 189 49 40
0.101077 -0.139422 0.0119385 244 51 38
0.102161 -0.137657 0.0121499 255 55 36
0.102909 -0.136028 0.0121128 255 62 39
0.104012 -0.134228 0.0123271 255 64 41
0.105836 -0.132086 0.0130523 255 65 44
0.105899 -0.130734 0.0125074 255 68 46
0.106676 -0.129046 0.012471 255 69 46
0.10674 -0.127682 0.0119223 255 70 48
0.107887 -0.1258 0.0121398 255 73 49
0.105793 -0.125462 0.0100603 255 74 52
0.10408 -0.124958 0.00825708 255 73 54
0.102036 -0.12463 0.00622862 255 73 51
0.141309 -0.0820897 0.0234428 255 70 48
0.140501 -0.0809754 0.0222016 255 73 49
0.139695 -0.0798646 0.0209642 255 71 44
0.138892 -0.0787571 0.0197307 255 72 43
0.138091 -0.077653 0.018501 255 70 45
0.136835 -0.0768252 0.0169747 255 75 47
0.135586 -0.0760024 0.0154577 255 71 49
0.133447 -0.0757295 0.0133652 255 65 45
0.131776 -0.0751891 0.0115852 255 67 42
0.13056 -0.0743824 0.0101055 255 63 41
0.129789 -0.0733083 0.00891645 255 60 41
0.12902 -0.0722373 0.00773097 255 60 42
0.128689 -0.0708939 0.0068272 255 59 43
0.128794 -0.0692719 0.00620101 143 54 53
0.128462 -0.0679263 0.00529578 93 60 56
0.128131 -0.0665807 0.00439053 88 59 52
0.0969742 -0.14543 0.0128519 83 58 47
0.0973537 -0.144008 0.0125731 87 56 43
0.0977353 -0.142579 0.0122927 144 46 38
0.0981188 -0.141142 0.0120109 228 50 40
0.0991769 -0.139402 0.0122207 253 52 38
0.100246 -0.137644 0.0124327 255 59 38
0.100984 -0.136021 0.0123969 255 64 41
0.102766 -0.133913 0.0131158 255 63 42
0.104577 -0.131771 0.0138464 255 66 44
0.104638 -0.130421 0.0133033 255 67 45
0.104699 -0.129067 0.0127588 255 67 46
0.105472 -0.127371 0.0127232 255 69 47
0.104467 -0.126518 0.0114112 255 71 48
0.103467 -0.125668 0.0101063 255 75 52
0.0997044 -0.126179 0.00684045 255 81 57
0.0987333 -0.125344 0.00556835 255 81 55
0.0991265 -0.123834 0.00526293 255 81 53
0.143428 -0.0813071 0.0275088 255 73 47
0.140255 -0.0815319 0.0246629 255 69 46
0.138984 -0.0806869 0.0231079 255 75 47
0.138182 -0.0795781 0.021871 255 75 46
0.136923 -0.078743 0.0203319 255 73 44
0.136128 -0.0776422 0.019105 255 69 41
0.134882 -0.0768168 0.0175815 255 70 44
0.132746 -0.0765388 0.0154758 255 68 44
0.130637 -0.0762642 0.0133958 255 67 43
0.128989 -0.0757245 0.0116265 255 65 44
0.128223 -0.0746515 0.0104388 255 66 44
0.127459 -0.0735816 0.00925461 255 64 41
0.126697 -0.072515 0.00807396 255 59 42
0.126367 -0.0711776 0.00717423 255 56 44
0.126468 -0.0695633 0.00655138 143 60 52
0.127002 -0.0676635 0.0062037 95 61 54
0.126671 -0.0663198 0.00529978 93 59 56
0.0951216 -0.145387 0.0131262 86 56 42
0.0954948 -0.143971 0.0128491 97 53 46
0.0961993 -0.142404 0.0128157 196 48 37
0.0965779 -0.140971 0.0125359 246 52 36
0.0982953 -0.138938 0.0132437 255 55 37
0.0986833 -0.13748 0.0129621 255 63 41
0.0994125 -0.135861 0.0129283 255 68 42
0.101523 -0.133599 0.0139027 255 66 43
0.103673 -0.131294 0.0148954 255 67 46
0.103381 -0.130108 0.0140972 255 71 48
0.10344 -0.128755 0.0135544 255 73 48
0.103147 -0.127567 0.0127551 255 75 49
0.102854 -0.126379 0.0119558 255 76 50
0.0997846 -0.126546 0.00915826 255 73 50
0.0981302 -0.126043 0.00738836 255 74 52
0.0975035 -0.125043 0.00635961 255 75 52
0.0975537 -0.123705 0.00581495 255 78 53
0.142364 -0.080744 0.0287408 255 74 44
0.140604 -0.0801649 0.026838 255 75 46
0.137933 -0.0801307 0.0243245 255 75 46
0.137133 -0.0790226 0.0230856 255 74 48
0.136335 -0.0779179 0.0218506 255 73 45
0.135539 -0.0768166 0.0206194 255 71 44
0.134292 -0.0759923 0.0190887 255 71 42
0.131711 -0.0759905 0.0166733 255 67 47
0.128296 -0.0765252 0.013715 255 72 47
0.126236 -0.0762534 0.0116676 255 64 44
0.125907 -0.074918 0.0107693 255 66 44
0.12515 -0.0738525 0.00958993 255 64 43
0.124395 -0.0727901 0.0084141 255 64 42
0.124067 -0.0714586 0.0075184 255 58 43
0.124164 -0.069852 0.00689877 151 60 54
0.124261 -0.0682403 0.00627724 93 62 57
0.124359 -0.0666238 0.00565381 88 58 49
0.0910045 -0.147555 0.0122233 92 56 48
0.0923188 -0.145756 0.0126704 91 58 40
0.0936502 -0.143934 0.0131232 151 45 35
0.0943447 -0.142373 0.0130909 237 50 34
0.0953735 -0.140655 0.0133043 254 50 33
0.0974136 -0.138473 0.0142669 255 58 35
0.0974634 -0.137166 0.013738 255 66 41
0.0985249 -0.135393 0.0139581 255 69 42
0.100627 -0.133127 0.0149421 255 68 44
0.102769 -0.130818 0.0159445 255 70 47
0.102476 -0.129631 0.0151463 255 73 49
0.102534 -0.128278 0.0146049 255 75 49
0.102241 -0.127089 0.0138055 255 75 51
0.101599 -0.126071 0.0127516 255 76 52
0.100611 -0.125226 0.0114482 255 77 52
0.0975774 -0.125405 0.0086671 255 78 51
0.0966131 -0.124573 0.00739174 255 77 51
0.132013 -0.0746222 0.0187708 255 68 41
0.125547 -0.0770492 0.0137436 255 66 41
0.121834 -0.077825 0.0105849 255 65 41
0.121509 -0.0765055 0.00969734 255 67 42
0.120767 -0.0754502 0.00853362 255 63 42
0.120443 -0.0741326 0.00764722 255 62 42
0.120118 -0.0728148 0.00676086 255 63 46
0.120624 -0.0709559 0.00641952 147 61 53
0.120715 -0.0693603 0.00580277 93 62 58
0.120806 -0.0677598 0.00518421 89 58 52
0.120898 -0.0661545 0.00456371 89 60 51
0.0873085 -0.149533 0.0115811 85 59 47
0.0882718 -0.147902 0.0117808 89 55 47
0.0898734 -0.145984 0.0124614 98 57 44
0.0908622 -0.144313 0.0126681 200 46 36
0.0925044 -0.142342 0.0133642 249 51 33
0.0941722 -0.140341 0.014071 255 55 36
0.0965318 -0.138009 0.0152902 255 62 39
0.0979242 -0.13609 0.0157716 255 64 41
0.0993352 -0.134145 0.0162592 255 66 42
0.100419 -0.132335 0.0164954 255 68 44
0.10082 -0.130831 0.016217 255 73 48
0.101572 -0.129154 0.0161956 255 77 51
0.101279 -0.127968 0.0153973 255 76 52
0.100987 -0.126781 0.014599 255 77 51
0.122316 -0.0794142 0.0140928 255 68 41
0.121153 -0.0786114 0.0126364 255 68 41
0.119998 -0.0778133 0.0111886 255 67 42
0.119261 -0.0767592 0.0100261 255 65 43
0.118116 -0.07597 0.00859246 255 62 40
0.117793 -0.0746601 0.00771133 255 63 41
0.117879 -0.0730842 0.00710209 255 64 46
0.117965 -0.0715036 0.00649097 149 61 53
0.118052 -0.0699182 0.00587802 90 60 54
0.118551 -0.0680531 0.00553439 86 59 57
0.118639 -0.0664553 0.00491718 82 57 50
0.0855149 -0.150707 0.0123585 83 58 48
0.0852433 -0.149605 0.0116175 84 59 49
0.0858854 -0.148113 0.0115805 89 55 53
0.0871491 -0.146342 0.0120172 133 48 48
0.088742 -0.144412 0.0126995 233 49 40
0.0916384 -0.141886 0.0143693 253 54 36
0.095935 -0.138702 0.017092 255 60 38
0.0973235 -0.136787 0.0175852 255 66 41
0.0980501 -0.135158 0.0175696 255 66 42
0.0984414 -0.133674 0.0172962 255 68 44
0.0998652 -0.1317 0.0177973 255 72 46
0.0999191 -0.130357 0.0172623 255 71 47
0.0996278 -0.129175 0.0164673 255 69 47
0.0993364 -0.127992 0.0156721 255 70 49
0.100778 -0.125964 0.0161661 255 74 51
0.120057 -0.0796559 0.0144032 255 72 46
0.118907 -0.0788558 0.0129524 255 67 40
0.118172 -0.0778016 0.0117889 255 67 41
0.117032 -0.0770105 0.0103522 255 64 42
0.115899 -0.076224 0.0089239 255 63 42
0.115577 -0.0749197 0.0080466 255 60 41
0.11566 -0.0733511 0.0074405 255 64 43
0.115338 -0.0720448 0.00656184 159 66 53
0.115825 -0.0701998 0.00622276 95 60 55
0.115908 -0.068617 0.00561114 84 52 59
0.115991 -0.0670294 0.00499765 89 56 51
0.0825723 -0.15115 0.0116901 83 57 53
0.0828993 -0.149804 0.0114203 90 59 46
0.0835285 -0.148321 0.0113828 102 59 50
0.0838601 -0.146959 0.0111105 196 44 38
0.0844968 -0.145457 0.0110715 250 51 37
0.0888655 -0.142281 0.013905 255 58 36
0.0977351 -0.137027 0.0201772 255 63 39
0.0977858 -0.135703 0.0196504 255 66 41
0.0981768 -0.134219 0.0193822 255 67 43
0.0978874 -0.133045 0.0185925 255 70 46
0.0975979 -0.131871 0.0178027 255 71 47
0.0986742 -0.130045 0.0180474 255 71 48
0.0966801 -0.129685 0.0159673 255 73 50
0.096391 -0.128513 0.0151785 255 74 51
0.0971186 -0.126839 0.0151529 255 75 52
0.119052 -0.0791236 0.0155658 255 70 45
0.117495 -0.0785834 0.0138287 255 68 41
0.116357 -0.0777899 0.0123859 255 67 40
0.115226 -0.0770011 0.0109516 255 65 42
0.114101 -0.0762168 0.00952568 255 65 42
0.112586 -0.0756963 0.0078379 255 62 42
0.113061 -0.0738783 0.00750559 255 62 43
0.112741 -0.0725795 0.00663202 175 67 54
0.112421 -0.0712807 0.00575847 98 57 52
0.111309 -0.0705164 0.00435387 89 60 55
0.11099 -0.0692213 0.00348278 89 55 48
0.110671 -0.0679261 0.00261163 83 65 57
0.0802393 -0.152546 0.0119928 82 60 48
0.0802647 -0.151337 0.0114944 84 57 47
0.0805841 -0.15 0.0112258 95 55 41
0.0814972 -0.148398 0.0114202 144 51 42
0.081822 -0.147043 0.0111493 237 49 37
0.0824479 -0.145549 0.0111106 254 55 35
0.0833806 -0.143907 0.0113065 255 60 36
0.10032 -0.133658 0.0233361 255 64 38
0.0983044 -0.133272 0.0212095 255 67 42
0.0980138 -0.132093 0.0204166 255 68 46
0.0967026 -0.131399 0.0188415 255 70 48
0.0960751 -0.130387 0.0177933 255 72 50
0.0957859 -0.129214 0.0170045 255 75 53
0.0954967 -0.128041 0.0162157 255 77 56
0.0955444 -0.126701 0.0156819 255 79 58
0.0955922 -0.125358 0.0151467 255 79 58
0.116494 -0.0780532 0.0149863 255 70 44
0.114955 -0.07752 0.0132594 255 68 43
0.11343 -0.0769915 0.0115476 255 70 44
0.111918 -0.0764676 0.00985094 255 66 43
0.110811 -0.0756904 0.00843858 255 65 43
0.110493 -0.0743992 0.00757011 255 61 42
0.110174 -0.0731079 0.00670164 226 66 48
0.109856 -0.0718166 0.0058331 126 53 46
0.108758 -0.071055 0.00443644 92 57 42
0.108441 -0.0697673 0.00357037 88 58 47
0.107736 -0.0687471 0.00244389 85 58 55
0.10665 -0.0679976 0.00106304 84 61 55
0.103677 -0.0685815 -0.00157327 82 58 47
0.100031 -0.0696732 -0.00464513 86 53 41
0.0785407 -0.152479 0.0122577 84 55 39
0.0785639 -0.151275 0.0117614 85 56 42
0.0788778 -0.149942 0.0114944 104 56 43
0.0794858 -0.148475 0.0114574 195 51 43
0.0800984 -0.146996 0.0114201 253 50 26
0.0807154 -0.145507 0.0113825 255 57 34
0.0813371 -0.144006 0.0113445 255 62 38
0.0984328 -0.132318 0.0230517 255 68 44
0.097798 -0.131296 0.0219896 255 69 46
0.0978491 -0.12995 0.0214593 255 72 50
0.0955175 -0.129753 0.0190905 255 74 54
0.0948915 -0.128743 0.018042 255 77 57
0.0946023 -0.12757 0.0172531 255 81 59
0.0946487 -0.126229 0.0167207 255 81 60
0.0946952 -0.124885 0.0161868 255 82 60
0.11517 -0.0762107 0.0152615 255 69 45
0.112438 -0.0764657 0.0126951 255 69 44
0.110144 -0.0764595 0.010446 255 71 45
0.109826 -0.0751682 0.00957752 255 69 44
0.108728 -0.0743969 0.00817 255 66 45
0.108411 -0.0731093 0.00730399 255 63 43
0.107707 -0.0720842 0.00617214 155 58 42
0.107004 -0.0710621 0.0050435 94 58 41
0.105921 -0.0703069 0.00365715 87 60 45
0.104844 -0.0695561 0.00227877 90 54 51
0.102275 -0.0698609 -0.000106536 91 61 57
0.100483 -0.0696416 -0.00195626 82 63 50
0.0990752 -0.0691654 -0.00354057 87 56 55
0.0955328 -0.0702358 -0.00654897 83 61 55
0.0768333 -0.15361 0.0130137 83 53 41
0.0771411 -0.152291 0.0127514 87 53 41
0.0771625 -0.151089 0.0122569 95 56 44
0.0774722 -0.149759 0.0119917 143 50 38
0.0777834 -0.148423 0.0117252 238 51 35
0.0783873 -0.146949 0.011689 255 50 28
0.0789957 -0.145465 0.0116525 255 57 35
0.0799042 -0.143835 0.0118495 255 63 39
0.0978732 -0.13168 0.0243685 255 69 44
0.0975809 -0.130495 0.0235712 255 72 48
0.0976318 -0.129144 0.0230416 255 78 53
0.0963133 -0.128456 0.0214453 255 77 54
0.095682 -0.127441 0.0203865 255 78 56
0.0950524 -0.126429 0.0193306 255 79 56
0.0950996 -0.125079 0.0187981 255 82 57
0.109159 -0.0759373 0.0115852 255 73 44
0.108064 -0.0751637 0.0101718 255 71 45
0.106974 -0.0743946 0.00876657 255 70 49
0.106274 -0.0733705 0.00763588 255 66 43
0.105576 -0.0723494 0.00650842 238 63 45
0.1045 -0.0715927 0.0051218 131 55 46
0.10343 -0.0708403 0.00374313 91 59 57
0.10088 -0.0711331 0.00135209 90 57 49
0.0998333 -0.0703904 -2.16067e-07 86 57 53
0.0984281 -0.069911 -0.00159284 82 60 56
0.0973953 -0.0691769 -0.00292726 84 58 56
0.0952975 -0.0692215 -0.00497859 82 56 53
0.094637 -0.0682387 -0.00605232 82 59 51
0.0943314 -0.0669992 -0.00688592 82 64 50
0.0754446 -0.15342 0.0135034 82 56 40
0.0754638 -0.152226 0.0130122 87 54 44
0.075483 -0.151028 0.0125198 112 52 40
0.0760733 -0.149577 0.0124868 200 46 33
0.0763803 -0.148243 0.0122221 253 53 32
0.0766888 -0.146903 0.0119561 255 53 34
0.0772885 -0.145424 0.0119207 255 58 38
0.0784782 -0.143664 0.0123522 255 65 40
0.0973625 -0.129689 0.0251615 255 77 54
0.0970693 -0.1285 0.024362 255 80 56
0.0964336 -0.127479 0.0232936 255 79 56
0.0954592 -0.12663 0.0219618 255 79 56
0.0951672 -0.125446 0.0211654 255 80 57
0.109346 -0.0746359 0.0135567 255 69 46
0.106312 -0.0751592 0.0107628 255 68 45
0.105612 -0.074134 0.00962918 255 67 47
0.104535 -0.073371 0.00823153 255 71 48
0.103087 -0.0728711 0.00657826 254 71 46
0.101652 -0.0723756 0.00493913 251 60 48
0.0991279 -0.072654 0.00254805 168 58 49
0.0977277 -0.0721656 0.000946887 102 61 54
0.0970582 -0.0711704 -0.000144213 93 59 59
0.09675 -0.0699204 -0.000984795 92 65 54
0.0953677 -0.0694462 -0.00256214 85 57 48
0.0947052 -0.0684602 -0.00364225 84 60 55
0.0936914 -0.0677362 -0.00495984 88 64 52
0.093034 -0.0667568 -0.00603217 81 62 46
0.09308 -0.0652569 -0.00662722 84 61 54
0.0735012 -0.153471 0.0135304 89 57 44
0.074362 -0.151917 0.0137322 97 54 47
0.0743798 -0.150721 0.0132412 149 48 36
0.0743977 -0.149522 0.0127489 236 50 34
0.0749839 -0.148065 0.0127167 255 53 34
0.0752882 -0.146727 0.0124526 255 56 37
0.0755939 -0.145382 0.012187 255 61 40
0.0770592 -0.143495 0.0128525 255 66 40
0.0788419 -0.14144 0.013765 255 67 42
0.097885 -0.127179 0.0267817 255 79 59
0.0958693 -0.126833 0.0246145 255 82 59
0.095235 -0.125814 0.0235457 255 82 58
0.0966542 -0.123762 0.0240948 255 82 57
0.105332 -0.0746397 0.0118957 255 71 49
0.103874 -0.0741322 0.0102193 255 69 45
0.103182 -0.0731128 0.00909134 255 74 48
0.100997 -0.0731302 0.00690977 255 70 45
0.0973901 -0.0741621 0.0037341 255 72 46
0.0956458 -0.0739208 0.00188351 252 70 50
0.0949829 -0.0729287 0.000797264 250 57 50
0.0946764 -0.0716857 -3.86313e-05 165 53 52
0.0947249 -0.0701866 -0.000627637 102 60 53
0.0940633 -0.0691996 -0.00171048 89 60 47
0.0934035 -0.0682153 -0.00279035 89 57 49
0.0923947 -0.0674928 -0.00410856 84 62 53
0.0920894 -0.0662548 -0.0049411 90 63 55
0.0917841 -0.0650167 -0.00577369 86 60 58
0.0907827 -0.0643051 -0.00707994 84 57 52
0.0901319 -0.0633342 -0.00814497 77 55 56
0.0894831 -0.062366 -0.00920703 77 55 53
0.0891794 -0.0611345 -0.0100351 79 63 51
0.0718384 -0.154583 0.0142719 88 53 38
0.0721303 -0.153282 0.0140157 91 54 40
0.0724237 -0.151975 0.0137582 118 52 41
0.0732791 -0.150414 0.013961 200 48 33
0.0735773 -0.14909 0.0137015 252 53 36
0.073877 -0.147759 0.0134406 255 53 35
0.0741782 -0.146422 0.0131785 255 60 36
0.0747663 -0.144947 0.0131476 255 63 41
0.0753589 -0.14346 0.0131165 255 67 41
0.0771201 -0.141413 0.0140279 255 68 43
0.0963319 -0.125673 0.0267607 255 83 62
0.096037 -0.124477 0.0259567 255 82 61
0.107046 -0.072289 0.0149736 255 80 57
0.104035 -0.0728358 0.0121652 255 74 49
0.102207 -0.072596 0.0102178 255 75 50
0.0967438 -0.074907 0.00567986 255 73 47
0.0935871 -0.0756565 0.00280995 255 74 45
0.0929308 -0.0746674 0.00172847 255 71 44
0.0926259 -0.0734313 0.000897236 255 73 48
0.0926713 -0.071943 0.000312798 252 69 49
0.092366 -0.070705 -0.000519678 250 58 47
0.0920607 -0.0694671 -0.00135215 169 54 48
0.0914065 -0.0684864 -0.00242802 104 54 48
0.0911016 -0.06725 -0.0032594 88 65 58
0.0907967 -0.0660136 -0.00409085 92 62 55
0.090145 -0.0650389 -0.00516149 87 58 53
0.0894952 -0.064067 -0.0062292 84 61 55
0.0888472 -0.0630977 -0.00729393 87 60 54
0.0885435 -0.0618662 -0.00812205 81 67 57
0.0878976 -0.0609013 -0.00918279 81 58 49
0.0872536 -0.0599389 -0.0102406 77 60 49
0.0866113 -0.0589791 -0.0112955 80 62 55
0.070478 -0.154393 0.0147532 83 54 38
0.0707659 -0.153095 0.0144988 100 51 37
0.0710552 -0.15179 0.0142431 156 49 36
0.0721809 -0.150108 0.0146792 235 51 35
0.072476 -0.148785 0.0144217 255 52 36
0.0727726 -0.147455 0.014163 255 58 37
0.0733535 -0.145988 0.0141358 255 64 38
0.073654 -0.144644 0.0138746 255 64 40
0.073671 -0.143426 0.0133787 255 69 44
0.0745463 -0.141797 0.0135827 255 70 49
0.0929479 -0.0763931 0.00473417 255 73 50
0.0922924 -0.075403 0.00364996 255 75 47
0.091291 -0.0746636 0.00231943 255 73 47
0.0913343 -0.0731811 0.00173863 255 75 46
0.0913778 -0.0716943 0.00115614 255 71 46
0.0914213 -0.0702034 0.000571989 255 74 46
0.0907679 -0.0692216 -0.000506587 252 75 47
0.090463 -0.0679852 -0.00133797 250 60 43
0.0898118 -0.0670078 -0.00241246 195 56 44
0.0891625 -0.066033 -0.00348397 113 54 55
0.0888583 -0.0647999 -0.00431319 86 59 50
0.0885541 -0.0635667 -0.00514241 83 58 51
0.0879074 -0.062598 -0.00620876 82 58 57
0.0876037 -0.0613664 -0.00703687 79 57 57
0.0869591 -0.060402 -0.00809916 85 60 43
0.0863163 -0.0594402 -0.00915853 83 55 49
0.0856753 -0.058481 -0.010215 79 64 57
0.085036 -0.0575244 -0.0112685 78 62 54
0.0843985 -0.0565705 -0.0123192 77 59 50
0.0840968 -0.0553471 -0.0131419 78 63 49
0.0688415 -0.155493 0.0154838 83 55 38
0.0691241 -0.154204 0.0152324 85 54 36
0.0694079 -0.152908 0.0149797 122 51 35
0.0696932 -0.151606 0.0147257 203 47 32
0.0705312 -0.15005 0.0149321 251 52 32
0.0713773 -0.14848 0.0151404 255 55 35
0.0719509 -0.147023 0.0151169 255 63 37
0.0725287 -0.145555 0.0150933 255 63 40
0.0722621 -0.144473 0.0143663 255 69 43
0.0728432 -0.14299 0.0143396 255 73 49
0.0737143 -0.141359 0.0145483 255 74 54
0.091654 -0.0761386 0.00557172 255 82 58
0.0906543 -0.0753971 0.00423583 255 75 51
0.0900047 -0.0744123 0.00315671 255 73 47
0.089701 -0.0731812 0.00232888 255 73 46
0.089742 -0.0716984 0.00174881 255 73 49
0.0901293 -0.0699569 0.00141511 255 74 44
0.0894786 -0.0689768 0.000336826 255 75 44
0.0888297 -0.0679993 -0.000738494 255 72 41
0.0885255 -0.0667661 -0.00156768 253 73 46
0.0882214 -0.0655329 -0.00239689 251 62 46
0.0879172 -0.0642997 -0.00322615 225 56 50
0.0872713 -0.0633299 -0.00429514 130 54 53
0.0869675 -0.0620982 -0.00512332 89 58 57
0.0863238 -0.0611327 -0.0061883 85 65 47
0.0856819 -0.0601698 -0.00725027 82 63 49
0.0853789 -0.0589414 -0.00807628 89 61 47
0.0844033 -0.0582519 -0.00936564 81 66 55
0.0841011 -0.0570269 -0.0101894 81 59 51
0.0837989 -0.0558017 -0.0110132 82 57 50
0.0831631 -0.0548499 -0.0120643 81 59 53
0.0828613 -0.0536264 -0.012887 82 62 57
0.0650981 -0.157486 0.0143928 79 59 49
0.0661618 -0.155878 0.0148196 83 54 43
0.0675069 -0.154133 0.0154802 98 51 40
0.0680563 -0.152722 0.0154584 158 50 38
0.0683376 -0.151422 0.0152062 236 50 34
0.0688933 -0.149993 0.0151832 255 54 31
0.069453 -0.148554 0.0151601 255 59 36
0.0702938 -0.146976 0.0153695 255 64 39
0.0708634 -0.145513 0.0153467 255 63 42
0.0714372 -0.144039 0.0153238 255 72 47
0.0717329 -0.142689 0.0150655 255 75 50
0.0903635 -0.0758847 0.00640708 255 85 65
0.0897134 -0.0748978 0.00532346 255 89 63
0.089065 -0.0739136 0.00424282 255 83 56
0.0887613 -0.0726823 0.00341491 255 79 50
0.0884576 -0.071451 0.002587 255 76 50
0.0881539 -0.0702196 0.00175902 255 75 47
0.0878502 -0.0689881 0.000931017 255 75 48
0.086865 -0.0682692 -0.000386693 255 75 45
0.0865621 -0.067041 -0.00121246 255 73 43
0.0865985 -0.0655535 -0.00179607 255 75 46
0.0862951 -0.0643236 -0.00262306 254 76 51
0.0863313 -0.0628301 -0.00320952 251 72 52
0.0860274 -0.0615983 -0.0040377 250 59 50
0.085385 -0.0606334 -0.00510425 158 58 49
0.0847443 -0.0596711 -0.00616781 98 60 56
0.0844413 -0.0584426 -0.00699384 91 58 47
0.0834682 -0.0577544 -0.00828626 86 66 56
0.083166 -0.0565291 -0.00911006 90 58 56
0.0828638 -0.0553039 -0.00993388 90 60 57
0.0822292 -0.0543527 -0.0109865 83 66 58
0.0822594 -0.0528532 -0.0115817 82 61 56
0.0826229 -0.0510705 -0.0119507 79 59 58
0.0823199 -0.0498416 -0.0127769 77 57 56
0.0826846 -0.0480454 -0.0131504 79 57 48
0.063003 -0.157627 0.0141924 78 56 42
0.064048 -0.156029 0.0146154 83 55 43
0.0651054 -0.154412 0.0150434 127 49 42
0.0664429 -0.152656 0.0157055 200 47 41
0.0669883 -0.15124 0.0156845 250 53 37
0.067267 -0.149937 0.0154327 255 57 34
0.0678188 -0.148502 0.0154105 255 62 38
0.0681011 -0.147184 0.0151565 255 64 41
0.06921 -0.145472 0.0155986 255 67 44
0.0706121 -0.143605 0.0162816 255 73 50
0.0688177 -0.0941089 -0.00615995 255 74 56
0.0685396 -0.0929814 -0.00691804 255 79 59
0.0897258 -0.0766195 0.00832666 255 78 59
0.0887327 -0.0758775 0.00698486 255 77 59
0.088429 -0.0746462 0.00615701 255 84 62
0.0877833 -0.0736636 0.00507664 255 90 64
0.0874799 -0.0724339 0.00424984 255 92 63
0.0868365 -0.0714556 0.00317357 255 85 59
0.0865335 -0.0702275 0.00234786 255 82 56
0.0862306 -0.0689994 0.00152212 255 80 53
0.0859277 -0.0677712 0.000696331 255 76 51
0.0856246 -0.0665429 -0.000129484 255 76 49
0.0853217 -0.0653146 -0.000955336 255 77 48
0.0850187 -0.0640862 -0.00178122 255 76 49
0.0847157 -0.0628578 -0.00260715 255 72 50
0.0844127 -0.0616294 -0.0034331 255 79 51
0.0841097 -0.0604009 -0.00425911 249 73 49
0.0838066 -0.0591723 -0.00508515 245 60 49
0.0831689 -0.0582132 -0.00614735 175 55 48
0.082533 -0.0572567 -0.00720669 101 65 53
0.0822307 -0.0560314 -0.0080305 85 56 59
0.0819285 -0.054806 -0.00885441 88 64 60
0.0816262 -0.0535806 -0.00967833 84 62 49
0.0816555 -0.0520778 -0.0102725 83 58 50
0.0816849 -0.0505709 -0.0108683 81 55 47
0.0817143 -0.0490597 -0.0114659 76 56 48
0.0817438 -0.0475442 -0.0120651 75 59 49
0.0851612 -0.0431073 -0.0103533 75 59 50
0.0622112 -0.158357 0.0155796 78 53 37
0.0604236 -0.157986 0.0135521 81 55 38
0.0617015 -0.156291 0.0141905 98 54 40
0.0629976 -0.154571 0.014838 166 48 40
0.0637859 -0.153063 0.0150405 236 48 37
0.0653785 -0.151179 0.0159309 255 56 37
0.0659202 -0.149758 0.0159106 255 60 38
0.0661962 -0.148451 0.0156593 255 63 40
0.0662037 -0.147264 0.0151762 255 67 42
0.0670237 -0.145689 0.0153843 255 70 48
0.0682352 -0.0947801 -0.00440664 255 164 135
0.0679571 -0.0936526 -0.00516472 255 74 59
0.0676789 -0.092525 -0.00592285 255 72 54
0.0674008 -0.0913973 -0.00668103 255 74 54
0.0871108 -0.0758702 0.00755964 255 79 59
0.0868447 -0.0731654 0.00616156 255 78 60
0.0865413 -0.0719356 0.00533474 255 79 62
0.0858991 -0.0709579 0.00425694 255 83 62
0.0852585 -0.0699828 0.00318208 255 84 62
0.0842846 -0.0692639 0.00186352 255 89 65
0.0843177 -0.0677855 0.00128657 255 88 64
0.0843508 -0.066303 0.000707999 255 84 60
0.0840482 -0.0650763 -0.000116751 255 82 55
0.0837456 -0.0638495 -0.000941552 255 79 54
0.083443 -0.0626227 -0.00176638 255 78 54
0.0828067 -0.0616602 -0.00283168 255 78 53
0.0828376 -0.0601689 -0.00341616 255 75 49
0.0822021 -0.0592097 -0.00447922 255 76 50
0.0818999 -0.0579843 -0.00530305 250 77 50
0.0812666 -0.0570294 -0.00636211 245 64 49
0.0809647 -0.0558056 -0.00718485 191 56 51
0.080993 -0.054308 -0.00777473 111 58 52
0.0806907 -0.0530825 -0.00859869 86 63 48
0.0810499 -0.0513002 -0.00895949 84 58 47
0.0807467 -0.0500712 -0.00978582 79 56 46
0.0804435 -0.048842 -0.0106122 80 62 56
0.0808029 -0.0470429 -0.0109797 78 67 58
0.0821696 -0.0443624 -0.0106558 75 59 54
0.0838968 -0.0413462 -0.0100927 76 61 54
0.104553 0.00366855 -0.00705919 70 61 52
0.103392 0.00425266 -0.00851812 68 61 52
0.103051 0.00563662 -0.00944861 68 60 54
0.102303 0.00661613 -0.0106378 68 60 53
0.101558 0.00759269 -0.0118233 70 61 53
0.101217 0.00897257 -0.012751 70 61 53
0.100475 0.00994404 -0.0139315 71 59 52
0.0993351 0.0105045 -0.015358 72 60 53
0.0985988 0.0114692 -0.0165291 72 61 54
0.0581367 -0.159357 0.0136065 80 56 39
0.0581346 -0.158231 0.0131407 83 56 41
0.0588839 -0.156771 0.0133311 131 50 42
0.0609144 -0.154729 0.0146352 208 48 38
0.0619469 -0.153113 0.0150607 251 51 35
0.0627302 -0.151598 0.0152641 255 58 38
0.064049 -0.149824 0.0159269 255 63 41
0.0645852 -0.148399 0.0159065 255 65 42
0.0648576 -0.147091 0.0156554 255 70 46
0.0651314 -0.145775 0.0154031 255 72 53
0.0682091 -0.0977066 -0.00113696 255 61 40
0.0679309 -0.096579 -0.001895 255 77 68
0.0676527 -0.0954515 -0.00265306 255 111 109
0.0673746 -0.0943238 -0.0034112 255 98 82
0.0670964 -0.0931962 -0.00416931 255 68 52
0.0668181 -0.0920684 -0.00492749 255 68 47
0.0665399 -0.0909407 -0.00568571 255 72 53
0.0668346 -0.0893974 -0.00600983 255 75 60
0.0846249 -0.0707122 0.00508871 255 79 63
0.0836526 -0.0699912 0.0037649 255 77 59
0.0826858 -0.0692741 0.00244835 255 85 63
0.0827165 -0.0677997 0.00187378 255 85 65
0.0830804 -0.0660637 0.00154334 255 86 67
0.0827781 -0.0648385 0.000719681 255 93 69
0.0824759 -0.0636133 -0.000104025 255 89 63
0.0821736 -0.0623881 -0.000927754 255 85 62
0.0815399 -0.0614271 -0.00199275 255 82 58
0.081238 -0.0602035 -0.00281543 255 81 53
0.0806065 -0.0592467 -0.00387644 255 78 50
0.080305 -0.0580247 -0.00469802 255 77 47
0.0796756 -0.0570722 -0.00575507 255 77 48
0.0800304 -0.0553084 -0.00610645 251 75 49
0.0797285 -0.0540845 -0.00692929 242 62 50
0.079755 -0.0525843 -0.00751889 198 59 50
0.0797817 -0.05108 -0.00811019 118 56 46
0.0798083 -0.0495714 -0.00870309 79 56 53
0.0795051 -0.0483421 -0.00952952 82 55 51
0.0795314 -0.0468276 -0.0101254 81 68 52
0.0802206 -0.0447306 -0.0102607 76 59 46
0.0809156 -0.0426159 -0.0103972 78 59 56
0.0806093 -0.0413744 -0.0112319 77 60 53
0.107504 0.00468047 -0.00178497 73 63 51
0.105902 0.00486197 -0.00355219 72 62 55
0.104727 0.00544699 -0.00503369 69 61 55
0.103151 0.00562362 -0.00677183 69 60 56
0.101994 0.00620182 -0.00823177 69 60 59
0.101652 0.00758599 -0.00916237 68 61 62
0.100907 0.00856264 -0.0103521 67 62 66
0.100163 0.00953637 -0.0115381 69 64 70
0.0994225 0.0105071 -0.0127205 73 64 69
0.0982862 0.011066 -0.0141509 72 64 63
0.0971569 0.0116215 -0.0155725 70 62 57
0.0944799 0.0105538 -0.0179604 70 64 58
0.0926116 0.0103024 -0.0198305 70 66 58
0.0563764 -0.160496 0.0140956 78 51 37
0.0561268 -0.159484 0.0134154 81 54 40
0.0563681 -0.158257 0.0131694 99 53 39
0.0571057 -0.156803 0.013359 175 49 39
