# .PCD v0.7 - Point Cloud Data file format
VERSION 0.7
FIELDS x y z rgb
SIZE 4 4 4 4
TYPE F F F F
COUNT 1 1 1 1
WIDTH 1174
HEIGHT 1
VIEWPOINT 0 0 0 1 0 0 0
POINTS 1174
DATA ascii
-0.0096847415 -0.043511596 0.0097959414 0
-0.0099999746 -0.043026648 0.0074428441 0
-0.0099999839 -0.043175168 0.0044233594 0
-0.0099999951 -0.043740738 0.0015506417 0
-0.010000006 -0.043636195 -0.0015683684 0
-0.010000017 -0.04320699 -0.0044324589 0
-0.010000028 -0.043387908 -0.0074730022 0
-0.0097999508 -0.043461375 -0.009737595 0
-0.0073377592 -0.043724302 0.0099998694 0
-0.0075613335 -0.043288343 -0.010000129 0
-0.0043360572 -0.043285612 0.0099998601 0
-0.0043053944 -0.043700583 -0.010000144 0
-0.0015049425 -0.043450139 0.0099998489 0
-0.0015245102 -0.04345971 -0.010000153 0
0.0012160119 -0.043206688 0.0099998405 0
0.001791359 -0.043718036 -0.010000166 0
0.0045271115 -0.043367665 0.0099998256 0
0.0046021794 -0.043398399 -0.010000176 0
0.007749056 -0.043158408 0.0099998163 0
0.0076000681 -0.043352827 -0.010000186 0
0.0097091552 -0.043174416 0.0097951852 0
0.010000029 -0.043816116 0.0077029439 0
0.010000017 -0.043511447 0.0044847382 0
0.010000007 -0.043230355 0.0015696051 0
0.0099999961 -0.043605339 -0.0016723882 0
0.0099999849 -0.043293599 -0.0047326065 0
0.0099999746 -0.043391965 -0.0075432057 0
0.0098142661 -0.043421719 -0.0096820071 0
-0.0097607123 -0.046588581 0.0096370559 0
-0.0099999728 -0.04677232 0.0078022275 0
-0.0099999849 -0.046407517 0.0043789851 0
-0.0099999923 -0.046667743 0.0017009745 0
-0.010000008 -0.046748959 -0.0017398227 0
-0.010000017 -0.046651658 -0.0046261782 0
-0.010000025 -0.0464845 -0.0070134723 0
-0.0098086921 -0.046508953 -0.0096794013 0
-0.0073990645 -0.046727926 0.0099998582 0
-0.0075051454 -0.046445761 -0.010000143 0
-0.0043192119 -0.046684608 0.0099998489 0
-0.0047106482 -0.046258781 -0.010000153 0
-0.0012892246 -0.04639921 0.0099998377 0
-0.0012823665 -0.046411127 -0.010000165 0
0.0010021238 -0.046673328 0.0099998275 0
0.0014392047 -0.046178192 -0.010000172 0
0.0047216695 -0.046380933 0.0099998163 0
0.00455146 -0.046611544 -0.010000185 0
0.0077661294 -0.046903525 0.0099998042 0
0.0070036501 -0.046561249 -0.010000193 0
0.0096226977 -0.046888243 0.0098618865 0
0.010000028 -0.046558429 0.0075092334 0
0.010000017 -0.046394087 0.0046982821 0
0.010000004 -0.046800219 0.0014720882 0
0.0099999961 -0.046635263 -0.0016102544 0
0.009999983 -0.046428606 -0.0048819841 0
0.0099999728 -0.04666489 -0.0074312594 0
0.0096948985 -0.046480101 -0.0097545469 0
-0.0097212102 -0.04960572 0.0098135946 0
-0.0099999737 -0.049555633 0.007159336 0
-0.0099999849 -0.049826477 0.0044313557 0
-0.0099999942 -0.049292244 0.0017422995 0
-0.010000005 -0.049568713 -0.0017129894 0
-0.010000018 -0.049676504 -0.0045229327 0
-0.010000029 -0.049361009 -0.0079022208 0
-0.0098476894 -0.049237546 -0.0096867885 0
-0.0078609744 -0.04968128 0.0099998498 0
-0.007615352 -0.049699344 -0.010000153 0
-0.0043987031 -0.049453516 0.0099998368 0
-0.0045277528 -0.049444485 -0.010000163 0
-0.0019197342 -0.049576379 0.0099998275 0
-0.0015911582 -0.049310412 -0.010000174 0
0.0015422197 -0.049259279 0.0099998172 0
0.0013021078 -0.049639568 -0.010000185 0
0.0040210853 -0.049746759 0.0099998051 0
0.0044077341 -0.049251527 -0.010000195 0
0.007794519 -0.049636777 0.009999794 0
0.0073489677 -0.049502071 -0.010000207 0
0.009698227 -0.049476195 0.0097885747 0
0.010000029 -0.049458537 0.0076081753 0
0.010000017 -0.0492891 0.004731142 0
0.010000006 -0.04956213 0.0015379594 0
0.0099999961 -0.049184922 -0.0012931802 0
0.0099999849 -0.049669113 -0.0046054646 0
0.0099999737 -0.049389288 -0.0075301258 0
0.009732388 -0.04928432 -0.0097648147 0
-0.0097511178 -0.052259754 0.0099024531 0
-0.0099999718 -0.052347425 0.007594612 0
-0.0099999858 -0.052676436 0.0042056302 0
-0.0099999961 -0.05255257 0.0015345961 0
-0.010000005 -0.052224088 -0.0016405178 0
-0.010000019 -0.052480172 -0.0049626059 0
-0.01000003 -0.052184545 -0.0078555215 0
-0.0097988155 -0.052557062 -0.0096790604 0
-0.0080552325 -0.052808177 0.0099998377 0
-0.0078224707 -0.052316755 -0.010000163 0
-0.0041439403 -0.052689001 0.0099998256 0
-0.0048342319 -0.052552115 -0.010000174 0
-0.0014893184 -0.052538976 0.0099998172 0
-0.0012677007 -0.052464504 -0.010000187 0
0.0013672066 -0.052604128 0.009999807 0
0.0012571343 -0.052484196 -0.010000195 0
0.0041526998 -0.052728821 0.0099997949 0
0.0047010914 -0.052512236 -0.010000208 0
0.0073750936 -0.052299615 0.0099997846 0
0.0077080536 -0.05252187 -0.010000219 0
0.0098557044 -0.05258821 0.0096738115 0
0.010000029 -0.052656397 0.0075378367 0
0.010000018 -0.052349921 0.0045360452 0
0.010000008 -0.052274112 0.0018076096 0
0.0099999951 -0.052372571 -0.0014473603 0
0.0099999849 -0.052550022 -0.004724653 0
0.0099999746 -0.052270301 -0.007111643 0
0.009793954 -0.052222274 -0.0098311258 0
-0.009657356 -0.055228811 0.0099301375 0
-0.0099999718 -0.055558074 0.0075524081 0
-0.0099999839 -0.055721682 0.0044351867 0
-0.0099999961 -0.055461399 0.001667873 0
-0.010000005 -0.055783741 -0.0014827944 0
-0.010000017 -0.055295624 -0.0042917863 0
-0.010000027 -0.055312701 -0.0075713126 0
-0.0097311754 -0.055226602 -0.0098169651 0
-0.0074470784 -0.055803057 0.0099998247 0
-0.0073220087 -0.055443238 -0.010000175 0
-0.0043298197 -0.055343632 0.0099998163 0
-0.0045001768 -0.055821642 -0.010000186 0
-0.0015114188 -0.05532806 0.0099998061 0
-0.0014417329 -0.05605134 -0.010000196 0
0.0014627812 -0.055939034 0.009999794 0
0.0013748987 -0.055288482 -0.010000205 0
0.0042650262 -0.055579197 0.0099997846 0
0.0044207266 -0.055445623 -0.010000218 0
0.0073451623 -0.055632427 0.0099997716 0
0.0074581597 -0.055887681 -0.010000231 0
0.0096736457 -0.055630449 0.0098745096 0
0.010000029 -0.055556566 0.0076453062 0
0.010000017 -0.05533836 0.0045868233 0
0.010000007 -0.055212129 0.0016054368 0
0.0099999961 -0.055348802 -0.0013639069 0
0.009999983 -0.055201467 -0.0045393915 0
0.0099999737 -0.055455614 -0.0074628517 0
0.0096540945 -0.055663507 -0.0098038828 0
-0.0099002495 -0.058805276 0.0095555969 0
-0.0099999746 -0.058833014 0.0074421107 0
-0.0099999839 -0.058232289 0.0043519591 0
-0.0099999933 -0.058231745 0.001504892 0
-0.010000005 -0.058428414 -0.0014480882 0
-0.010000017 -0.05831445 -0.0044511384 0
-0.010000025 -0.058532204 -0.0069918483 0
-0.0098426603 -0.058156874 -0.0094470335 0
-0.0075127142 -0.059069432 0.0099998135 0
-0.0074358438 -0.058440659 -0.010000186 0
-0.0042644069 -0.0589226 0.0099998042 0
-0.0044366582 -0.058410242 -0.010000197 0
-0.0011654081 -0.058534257 0.009999794 0
-0.0012113821 -0.058563896 -0.010000207 0
0.0013217721 -0.058236234 0.0099997856 0
0.0015769298 -0.058783509 -0.010000219 0
0.0043346635 -0.058481697 0.0099997735 0
0.0044215312 -0.058261298 -0.010000228 0
0.0077057574 -0.058138512 0.0099997604 0
0.0074282936 -0.057904176 -0.010000237 0
0.0095999883 -0.058527641 0.0098910024 0
0.010000028 -0.058232062 0.007558933 0
0.010000017 -0.05903431 0.0045022783 0
0.010000006 -0.058484398 0.0014859088 0
0.0099999933 -0.058428567 -0.0015082814 0
0.0099999849 -0.058305543 -0.0044269613 0
0.0099999737 -0.058192696 -0.0074916701 0
0.0096208965 -0.058096789 -0.0098162824 0
-0.0097815916 -0.061352439 0.0097285528 0
-0.0099999746 -0.061421342 0.0073207994 0
-0.0099999849 -0.061644726 0.0037987502 0
-0.0099999951 -0.061305773 0.0013297128 0
-0.010000007 -0.061572481 -0.0015185189 0
-0.010000018 -0.061278801 -0.0045235888 0
-0.01000003 -0.061513707 -0.0076295044 0
-0.0098071527 -0.061557904 -0.0096545629 0
-0.0074185985 -0.061570443 0.0099998051 0
-0.0073413057 -0.06150087 -0.010000196 0
-0.0046752314 -0.061408646 0.0099997958 0
-0.0043722359 -0.061433718 -0.010000207 0
-0.0018242949 -0.061584622 0.0099997846 0
-0.0016609187 -0.061217222 -0.010000218 0
0.0016272265 -0.061755292 0.0099997716 0
0.0016328582 -0.061221205 -0.010000228 0
0.004581721 -0.061660957 0.0099997604 0
0.0046882578 -0.061411183 -0.01000024 0
0.0071842205 -0.061358061 0.009999752 0
0.0075003211 -0.061514895 -0.010000249 0
0.0096927937 -0.061698481 0.0098244837 0
0.010000027 -0.061381694 0.007367075 0
0.010000017 -0.061282169 0.0048879427 0
0.010000005 -0.061524685 0.0015871709 0
0.0099999951 -0.061563052 -0.001461457 0
0.0099999849 -0.061636377 -0.00457265 0
0.0099999737 -0.061623823 -0.0073475935 0
0.0098770279 -0.061141908 -0.0097600333 0
-0.0098443571 -0.064465441 0.0096821059 0
-0.0099999756 -0.064539008 0.0072096465 0
-0.0099999839 -0.064539827 0.0048756422 0
-0.0099999961 -0.064742535 0.00098819227 0
-0.010000005 -0.063957922 -0.0013638687 0
-0.010000017 -0.064455852 -0.0043054223 0
-0.010000029 -0.064447388 -0.0076989243 0
-0.0096230889 -0.06462995 -0.0099042049 0
-0.0076329354 -0.064552583 0.009999794 0
-0.0073498925 -0.064414501 -0.010000207 0
-0.0044998345 -0.064804375 0.0099997818 0
-0.0042434358 -0.064565025 -0.01000022 0
-0.0014194779 -0.064744458 0.0099997716 0
-0.0010911705 -0.064468779 -0.010000231 0
0.0017864449 -0.064712338 0.0099997604 0
0.0010584689 -0.064727008 -0.010000238 0
0.0044782152 -0.065074764 0.0099997483 0
0.0042937826 -0.064586788 -0.010000248 0
0.0074974736 -0.064698778 0.0099997399 0
0.0074584698 -0.064828202 -0.010000261 0
0.0098211281 -0.064209022 0.0097867362 0
0.010000026 -0.064626217 0.0076033394 0
0.010000017 -0.064447559 0.0046661068 0
0.010000005 -0.064418487 0.0016265367 0
0.0099999961 -0.06445507 -0.0012962805 0
0.0099999821 -0.064513259 -0.004544619 0
0.0099999737 -0.064199619 -0.0077025844 0
0.0097636925 -0.064766154 -0.0098214503 0
-0.0097985808 -0.067399777 0.0097680259 0
-0.0099999718 -0.067374848 0.0076110186 0
-0.009999983 -0.067610756 0.0048659923 0
-0.0099999942 -0.06748417 0.0015721741 0
-0.010000006 -0.067127503 -0.0016353601 0
-0.010000015 -0.067786887 -0.0042292164 0
-0.010000026 -0.067547411 -0.0072211679 0
-0.009702622 -0.06743741 -0.0097298706 0
-0.0071507525 -0.067430712 0.0099997818 0
-0.007429821 -0.067707807 -0.01000022 0
-0.0043858653 -0.067311779 0.0099997725 0
-0.0046451655 -0.067675732 -0.010000228 0
-0.0014855429 -0.067221664 0.0099997642 0
-0.0014861888 -0.067727432 -0.010000239 0
0.0012096273 -0.067593113 0.0099997511 0
0.0016854695 -0.067528546 -0.010000251 0
0.0045945738 -0.067682944 0.009999739 0
0.0047938949 -0.0674567 -0.010000262 0
0.0073809382 -0.067016095 0.0099997297 0
0.0071876468 -0.067379192 -0.01000027 0
0.0097174291 -0.068034582 0.0097711273 0
0.010000028 -0.067493655 0.0071650371 0
0.010000017 -0.067466654 0.0046338746 0
0.010000005 -0.067432776 0.00098380807 0
0.0099999961 -0.067537196 -0.0014094575 0
0.0099999849 -0.067730986 -0.0045025107 0
0.0099999728 -0.067428149 -0.007796824 0
0.0097408555 -0.067553528 -0.0098895011 0
-0.009796543 -0.070263945 0.0097863423 0
-0.0099999746 -0.070315018 0.0075148493 0
-0.0099999858 -0.070559226 0.0043599242 0
-0.009999997 -0.070046678 0.0011766979 0
-0.010000006 -0.070480295 -0.0014940612 0
-0.010000019 -0.070500411 -0.0047740843 0
-0.010000025 -0.070470028 -0.006904691 0
-0.0097198552 -0.070824921 -0.0098132482 0
-0.0074786511 -0.070425943 0.0099997725 0
-0.0076668137 -0.070053063 -0.010000225 0
-0.0045053605 -0.070330374 0.0099997632 0
-0.0043616933 -0.070425808 -0.010000239 0
-0.0014293598 -0.070768729 0.0099997474 0
-0.00165018 -0.070616238 -0.01000025 0
0.0017646771 -0.070185743 0.009999739 0
0.001477573 -0.070719741 -0.010000263 0
0.0047910358 -0.070900418 0.0099997241 0
0.0043127025 -0.070491679 -0.010000272 0
0.0077067604 -0.070454083 0.0099997176 0
0.00755721 -0.070810422 -0.010000284 0
0.0096394625 -0.070602998 0.0097667025 0
0.010000028 -0.070595808 0.0073766331 0
0.010000017 -0.070461646 0.0047102468 0
0.010000007 -0.070945978 0.0014671497 0
0.0099999951 -0.070531845 -0.0015950486 0
0.009999983 -0.070790499 -0.0045049479 0
0.0099999746 -0.070266716 -0.0075798617 0
0.0097997738 -0.070657745 -0.0096638454 0
-0.009770236 -0.073374949 0.009729011 0
-0.0099999718 -0.073648065 0.0076782326 0
-0.0099999839 -0.073065527 0.0044467361 0
-0.0099999951 -0.073440216 0.0015479045 0
-0.010000008 -0.073447853 -0.001871569 0
-0.010000017 -0.073404916 -0.0046555791 0
-0.010000027 -0.073314473 -0.0074601914 0
-0.009886709 -0.073430665 -0.0096097467 0
-0.0076210825 -0.073703438 0.0099997632 0
-0.0071408199 -0.073755912 -0.01000024 0
-0.0041998676 -0.073300444 0.0099997502 0
-0.0044443677 -0.073546804 -0.010000251 0
-0.0017789446 -0.073613949 0.0099997399 0
-0.0012886453 -0.073445082 -0.010000262 0
0.0013831063 -0.07347215 0.0099997306 0
0.0015658645 -0.07380677 -0.010000275 0
0.0045537553 -0.07340984 0.0099997185 0
0.0045294482 -0.073361486 -0.010000284 0
0.0080963187 -0.073661454 0.0099997045 0
0.0077304691 -0.073554099 -0.010000296 0
0.0098529225 -0.073793367 0.0096013797 0
0.010000027 -0.073495761 0.0074123372 0
0.010000017 -0.073474713 0.0047455477 0
0.010000006 -0.074037313 0.0015478843 0
0.0099999961 -0.07368765 -0.0012826633 0
0.0099999839 -0.073667213 -0.0043611615 0
0.0099999737 -0.073348165 -0.0078311702 0
0.0096036196 -0.074024789 -0.0097180279 0
-0.0097387675 -0.076209739 0.0097826077 0
-0.0099999746 -0.076502562 0.0073968754 0
-0.009999983 -0.076576658 0.0046724002 0
-0.0099999951 -0.07655631 0.0014245824 0
-0.010000005 -0.07650204 -0.0011403041 0
-0.010000017 -0.076353632 -0.0045875749 0
-0.010000029 -0.076559417 -0.0075820345 0
-0.0096417023 -0.076343022 -0.0098354751 0
-0.0075302459 -0.076766141 0.0099997511 0
-0.0073195836 -0.076316088 -0.010000251 0
-0.0048373328 -0.076642416 0.0099997409 0
-0.0045068008 -0.076544203 -0.010000262 0
-0.0016379054 -0.076526947 0.0099997306 0
-0.0013529173 -0.076529369 -0.010000273 0
0.0013832254 -0.076581649 0.0099997167 0
0.0013735534 -0.076233335 -0.010000282 0
0.0046169972 -0.076569535 0.0099997073 0
0.004569767 -0.076916575 -0.010000294 0
0.0071779904 -0.076748103 0.009999698 0
0.0077549494 -0.076616429 -0.010000304 0
0.0097638723 -0.076448828 0.0096826097 0
0.010000028 -0.076590009 0.007698263 0
0.010000017 -0.076460965 0.0047046212 0
0.010000005 -0.075939342 0.0015471107 0
0.0099999961 -0.076499343 -0.0011997877 0
0.009999983 -0.076688908 -0.0046050511 0
0.0099999718 -0.076766908 -0.0076083434 0
0.0096777743 -0.076571062 -0.0097746225 0
-0.0097237471 -0.079607941 0.0097693643 0
-0.0099999746 -0.079492211 0.0074611013 0
-0.0099999849 -0.07945738 0.0043271808 0
-0.0099999961 -0.079892628 0.0013618715 0
-0.010000007 -0.079896092 -0.001511167 0
-0.010000019 -0.079432301 -0.004814778 0
-0.010000029 -0.079525508 -0.0074233678 0
-0.0098041855 -0.079760671 -0.0096850516 0
-0.0071356934 -0.079388402 0.009999739 0
-0.0074659889 -0.079799727 -0.010000262 0
-0.0047684889 -0.079670481 0.0099997297 0
-0.0044632712 -0.079569213 -0.010000274 0
-0.0014974084 -0.078956373 0.0099997204 0
-0.0015559071 -0.079984337 -0.010000286 0
0.0013475841 -0.079576664 0.0099997064 0
0.0015797667 -0.079276048 -0.010000292 0
0.0045921756 -0.079572625 0.0099996943 0
0.0043837503 -0.079642169 -0.010000304 0
0.0076672048 -0.079309963 0.0099996869 0
0.0075896429 -0.079838492 -0.010000317 0
0.0095120622 -0.07917098 0.0097579844 0
0.010000029 -0.079255193 0.0074954676 0
0.010000015 -0.079337798 0.004261381 0
0.010000004 -0.079441562 0.0013836685 0
0.0099999951 -0.079531416 -0.0016697401 0
0.0099999858 -0.079279594 -0.0043605715 0
0.0099999737 -0.079674371 -0.0073654321 0
0.0097961929 -0.079526111 -0.0096905706 0
-0.0096745314 -0.082715094 0.0098435394 0
-0.0099999728 -0.082752645 0.0078578787 0
-0.0099999839 -0.082543634 0.004771125 0
-0.0099999942 -0.082431972 0.0016111402 0
-0.010000006 -0.082241468 -0.0013800941 0
-0.010000017 -0.082387477 -0.0044108597 0
-0.010000028 -0.082305029 -0.007303915 0
-0.0098288516 -0.082123518 -0.0095745269 0
-0.0073994496 -0.08227814 0.0099997306 0
-0.0077770362 -0.082357682 -0.010000271 0
-0.0043608826 -0.082357578 0.0099997194 0
-0.0046626902 -0.082795076 -0.010000285 0
-0.0013511133 -0.08262001 0.0099997073 0
-0.0017449546 -0.082487613 -0.010000294 0
0.0017529235 -0.08236926 0.0099996971 0
0.0011042146 -0.082899332 -0.010000305 0
0.0044698277 -0.082359888 0.0099996878 0
0.004685631 -0.082605429 -0.010000317 0
0.0074920501 -0.082713678 0.0099996738 0
0.0077890516 -0.082469694 -0.010000327 0
0.0098134764 -0.082226969 0.0097391922 0
0.010000027 -0.082693644 0.0073549049 0
0.010000017 -0.08281938 0.004364192 0
0.010000005 -0.082430162 0.0013882979 0
0.0099999951 -0.082617931 -0.0014905995 0
0.0099999849 -0.08243423 -0.0044355481 0
0.0099999746 -0.082278013 -0.0074164039 0
0.0096608261 -0.082447305 -0.0098003019 0
-0.0097370651 -0.085779831 0.0096465265 0
-0.0099999746 -0.085449941 0.0070940522 0
-0.0099999849 -0.085738614 0.004374736 0
-0.0099999951 -0.085809141 0.0013117522 0
-0.010000006 -0.08557374 -0.0015730016 0
-0.010000019 -0.085391231 -0.0048618629 0
-0.010000029 -0.085527331 -0.0075675598 0
-0.0097892191 -0.085676089 -0.0097747156 0
-0.0074457782 -0.085502468 0.0099997185 0
-0.0071095512 -0.085602164 -0.010000284 0
-0.004283546 -0.085737079 0.0099997073 0
-0.004535737 -0.08512716 -0.010000293 0
-0.0014080015 -0.085634165 0.0099996952 0
-0.0013455654 -0.085543215 -0.010000306 0
0.0014265485 -0.085615598 0.0099996841 0
0.0015131354 -0.085595675 -0.010000316 0
0.0046598162 -0.085289486 0.0099996738 0
0.00441733 -0.085753649 -0.010000327 0
0.0072394144 -0.085225292 0.0099996673 0
0.0075626001 -0.085390322 -0.010000336 0
0.0096432157 -0.085719354 0.0098278811 0
0.010000028 -0.085496373 0.0074678641 0
0.010000017 -0.085665129 0.004272664 0
0.010000005 -0.08532048 0.0013061753 0
0.0099999942 -0.085651956 -0.0014208102 0
0.0099999839 -0.085498005 -0.0045424793 0
0.0099999728 -0.085614018 -0.0074740415 0
0.0098638348 -0.085523836 -0.0097470907 0
-0.0098205246 -0.088428915 0.0097547332 0
-0.0099999746 -0.08869192 0.007280495 0
-0.0099999849 -0.088258468 0.0044111689 0
-0.0099999961 -0.08854109 0.001359966 0
-0.010000005 -0.08870703 -0.0014675276 0
-0.010000017 -0.088606969 -0.0045214081 0
-0.010000027 -0.088397592 -0.0076907738 0
-0.0099393586 -0.088041902 -0.0097127436 0
-0.0073970938 -0.088449143 0.0099997083 0
-0.0076749218 -0.088339426 -0.010000293 0
-0.0043532383 -0.088528745 0.0099996952 0
-0.0045460011 -0.088618822 -0.010000304 0
-0.0016027713 -0.088646449 0.009999685 0
-0.0015751199 -0.088280812 -0.010000315 0
0.0015272365 -0.088454306 0.0099996757 0
0.0012046342 -0.088351287 -0.010000324 0
0.0045420225 -0.088631064 0.0099996626 0
0.0048648436 -0.088462085 -0.010000338 0
0.0069818008 -0.088482246 0.009999657 0
0.0077414876 -0.08859124 -0.01000035 0
0.0097479131 -0.088335551 0.0097381072 0
0.01000003 -0.088549942 0.007703159 0
0.010000017 -0.088511407 0.0047575585 0
0.010000006 -0.088119961 0.0017939684 0
0.0099999942 -0.088531412 -0.0015769321 0
0.0099999858 -0.088371418 -0.0041247047 0
0.0099999728 -0.088789865 -0.0077071581 0
0.0097203674 -0.088458024 -0.009764161 0
-0.0098270532 -0.091319934 0.009640526 0
-0.0099999746 -0.091136977 0.0074637923 0
-0.0099999839 -0.091448501 0.0046116249 0
-0.0099999951 -0.09131667 0.0017097244 0
-0.010000007 -0.091691934 -0.0014615445 0
-0.010000017 -0.091402143 -0.004438661 0
-0.010000027 -0.091735981 -0.0075389608 0
-0.0097394669 -0.091246367 -0.0097896988 0
-0.0077535883 -0.091753066 0.0099996971 0
-0.0074035008 -0.091181189 -0.010000303 0
-0.0044702739 -0.091623358 0.009999685 0
-0.0043187588 -0.091325194 -0.010000315 0
-0.0013388692 -0.091731846 0.0099996729 0
-0.0014626152 -0.091609195 -0.010000326 0
0.0019372124 -0.091369025 0.0099996626 0
0.001730449 -0.091855004 -0.010000341 0
0.0043606088 -0.091587916 0.0099996533 0
0.0047894581 -0.091605306 -0.01000035 0
0.0075507876 -0.091425851 0.009999644 0
0.0075130966 -0.091254167 -0.010000357 0
0.0097770719 -0.091698013 0.0097144702 0
0.010000029 -0.091475271 0.0076248995 0
0.010000017 -0.09153831 0.0046449536 0
0.010000004 -0.09165892 0.001485855 0
0.0099999951 -0.091489427 -0.0017141033 0
0.0099999849 -0.091576584 -0.0045581972 0
0.0099999737 -0.091492571 -0.0074558384 0
0.0097834766 -0.091503821 -0.0097913509 0
-0.0097808456 -0.094667092 0.0096776765 0
-0.0099999737 -0.094515793 0.0076316795 0
-0.0099999839 -0.09442915 0.0043771323 0
-0.0099999942 -0.094443232 0.0016687547 0
-0.010000007 -0.094579391 -0.0015481897 0
-0.010000017 -0.094479702 -0.0043898025 0
-0.010000028 -0.094373137 -0.0072878855 0
-0.0096883122 -0.094563402 -0.0097418316 0
-0.0072637373 -0.094326816 0.0099996859 0
-0.0077398792 -0.094442703 -0.010000314 0
-0.0045523378 -0.094623744 0.0099996747 0
-0.0041107615 -0.094750479 -0.010000328 0
-0.0017155545 -0.094616666 0.0099996636 0
-0.0016161025 -0.094194479 -0.010000337 0
0.001388162 -0.094481878 0.0099996552 0
0.0014474849 -0.0946595 -0.01000035 0
0.0043926514 -0.094703972 0.0099996412 0
0.0045659514 -0.094186112 -0.010000359 0
0.0075496999 -0.094372518 0.009999631 0
0.0076962085 -0.09460479 -0.010000371 0
0.0097477715 -0.094331749 0.0096761025 0
0.010000028 -0.094394736 0.0076767839 0
0.010000017 -0.094873846 0.0045507941 0
0.010000005 -0.094293386 0.0013084542 0
0.0099999951 -0.09440615 -0.0015274665 0
0.0099999839 -0.094535768 -0.0043081301 0
0.0099999737 -0.094659261 -0.0075947698 0
0.0097443527 -0.094318539 -0.0097309966 0
-0.0098201223 -0.097869664 0.0097441711 0
-0.0099999746 -0.097460702 0.0075540068 0
-0.0099999821 -0.09764488 0.0048651779 0
-0.009999997 -0.097828671 0.0010496759 0
-0.010000006 -0.097344175 -0.0015684491 0
-0.010000017 -0.09731847 -0.0045917593 0
-0.01000003 -0.097147778 -0.0079199849 0
-0.009790577 -0.097550727 -0.0096043916 0
-0.0075926045 -0.097696476 0.0099996747 0
-0.0075803013 -0.09732198 -0.010000324 0
-0.004609881 -0.097395912 0.0099996654 0
-0.0043625659 -0.097446457 -0.010000339 0
-0.0016175052 -0.097365171 0.0099996552 0
-0.001441438 -0.097470194 -0.010000348 0
0.00144157 -0.097520813 0.0099996421 0
0.0014317187 -0.097439721 -0.010000359 0
0.004543019 -0.097245947 0.0099996319 0
0.0047447956 -0.09750697 -0.01000037 0
0.0073725693 -0.097521715 0.0099996198 0
0.0078625372 -0.097449839 -0.010000382 0
0.0096864775 -0.097861759 0.0097053302 0
0.010000027 -0.0977479 0.0074272803 0
0.010000019 -0.097703911 0.0050761076 0
0.010000006 -0.097422443 0.0016340805 0
0.0099999961 -0.097702645 -0.0013394952 0
0.0099999858 -0.097252131 -0.004393735 0
0.0099999746 -0.09737698 -0.007403648 0
0.0095360409 -0.09777566 -0.0099212797 0
-0.009725865 -0.10047093 0.0098542767 0
-0.0099999756 -0.10046479 0.0073046167 0
-0.009999983 -0.10068665 0.0047925557 0
-0.0099999951 -0.10067715 0.0016015002 0
-0.010000006 -0.10029889 -0.0016318676 0
-0.010000017 -0.10031451 -0.0043163202 0
-0.010000028 -0.10055882 -0.0076292194 0
-0.0096467556 -0.10050188 -0.0099249808 0
-0.00725319 -0.10063232 0.0099996626 0
-0.0074072415 -0.10033828 -0.010000338 0
-0.0046476102 -0.10029044 0.0099996533 0
-0.0042996393 -0.10041998 -0.010000348 0
-0.00081466592 -0.10052612 0.0099996384 0
-0.0012190345 -0.10083646 -0.01000036 0
0.0013937656 -0.10014918 0.0099996328 0
0.001592182 -0.10051623 -0.01000037 0
0.0045526875 -0.10026829 0.0099996198 0
0.0043521724 -0.10077523 -0.010000381 0
0.0077822283 -0.10054544 0.0099996086 0
0.0073810294 -0.1007755 -0.010000394 0
0.0096664317 -0.1005563 0.0096886698 0
0.010000028 -0.10050116 0.0075336038 0
0.010000017 -0.10053404 0.0047589014 0
0.010000004 -0.10063853 0.0013572559 0
0.0099999951 -0.10050359 -0.0014853438 0
0.0099999858 -0.10047326 -0.0044453978 0
0.0099999728 -0.10062166 -0.0078980112 0
0.0098177418 -0.10058605 -0.0097178621 0
-0.0096484981 -0.10359735 0.009837212 0
-0.0099999746 -0.10335958 0.0075696781 0
-0.0099999849 -0.10341187 0.0045299372 0
-0.0099999942 -0.10373054 0.0014236213 0
-0.010000004 -0.10362146 -0.00087357842 0
-0.010000017 -0.10346506 -0.0043608053 0
-0.010000028 -0.10360995 -0.0074612033 0
-0.0098237749 -0.10352157 -0.0096872086 0
-0.007266514 -0.1033315 0.0099996533 0
-0.0076429993 -0.10356984 -0.010000348 0
-0.0045795972 -0.10371257 0.0099996421 0
-0.004604781 -0.10374721 -0.01000036 0
-0.0013637668 -0.10365142 0.00999963 0
-0.0011305505 -0.10360836 -0.010000372 0
0.0014715291 -0.10379177 0.0099996189 0
0.0013943262 -0.10370072 -0.010000382 0
0.0042024795 -0.10366768 0.0099996096 0
0.0045787157 -0.10352264 -0.010000392 0
0.0074379188 -0.10340457 0.0099996002 0
0.0074133477 -0.10346042 -0.010000403 0
0.009711273 -0.10321066 0.00973232 0
0.010000027 -0.10341923 0.0074378774 0
0.010000017 -0.10391411 0.0042832461 0
0.010000007 -0.10387364 0.0015430829 0
0.0099999961 -0.10363983 -0.0014452586 0
0.0099999839 -0.10398409 -0.0044516614 0
0.0099999737 -0.10346675 -0.0075789597 0
0.0097446339 -0.10324043 -0.0096285995 0
-0.0097727329 -0.1062963 0.0097522 0
-0.0099999746 -0.10623926 0.0073798699 0
-0.0099999821 -0.10641356 0.0046301265 0
-0.009999997 -0.10637215 0.0013352536 0
-0.010000005 -0.10644251 -0.0011405034 0
-0.010000017 -0.1065542 -0.0049864836 0
-0.01000003 -0.10630997 -0.0076862532 0
-0.0098129753 -0.10645843 -0.0097700395 0
-0.007534889 -0.10654832 0.0099996412 0
-0.0074722585 -0.10653255 -0.010000358 0
-0.0043914658 -0.10638475 0.009999631 0
-0.004454087 -0.10671109 -0.010000371 0
-0.0016077834 -0.10642212 0.0099996207 0
-0.001696995 -0.10704681 -0.010000381 0
0.0012967389 -0.10671227 0.0099996096 0
0.0015857033 -0.1063926 -0.010000392 0
0.0044851094 -0.10633375 0.0099996012 0
0.0048395749 -0.10643911 -0.010000403 0
0.0076669222 -0.10669675 0.0099995853 0
0.0076468186 -0.10657312 -0.010000415 0
0.0099115483 -0.10647342 0.0096369563 0
0.010000028 -0.10638039 0.007445774 0
0.010000015 -0.10623653 0.0044069174 0
0.010000006 -0.10671166 0.0014083344 0
0.0099999961 -0.10641624 -0.0013828306 0
0.0099999839 -0.10672505 -0.0045352764 0
0.0099999737 -0.10627094 -0.0074828467 0
0.0096375691 -0.10660521 -0.0098363552 0
-0.0097085172 -0.10974317 0.0098127862 0
-0.0099999737 -0.10939334 0.0073724352 0
-0.009999983 -0.10956337 0.0047786403 0
-0.0099999942 -0.1094365 0.0017918433 0
-0.010000007 -0.10910191 -0.0017253604 0
-0.010000017 -0.10958158 -0.0044437246 0
-0.010000028 -0.10952248 -0.0075312685 0
-0.009698567 -0.10932111 -0.0098426463 0
-0.0074428772 -0.10958619 0.009999631 0
-0.0075541614 -0.10974754 -0.01000037 0
-0.0042981924 -0.10948689 0.0099996189 0
-0.0045872014 -0.10959192 -0.01000038 0
-0.0014279131 -0.10955602 0.0099996096 0
-0.001393117 -0.10979341 -0.010000394 0
0.0017634333 -0.10936203 0.0099995993 0
0.0016642699 -0.10972179 -0.010000404 0
0.0047207191 -0.10914314 0.0099995881 0
0.0044606565 -0.10964682 -0.010000414 0
0.0074299667 -0.1094894 0.0099995779 0
0.0072012353 -0.10963071 -0.010000424 0
0.0098931594 -0.10938117 0.009735126 0
0.010000028 -0.10993415 0.0076674982 0
0.010000017 -0.10932274 0.0043511749 0
0.010000005 -0.10965114 0.0015399302 0
0.0099999951 -0.10914068 -0.0012377646 0
0.0099999849 -0.10958815 -0.0046666674 0
0.0099999737 -0.10932013 -0.0077835037 0
0.0098089166 -0.10995954 -0.0097066611 0
-0.0097912112 -0.11248986 0.0096989069 0
-0.0099999737 -0.11240556 0.0077022612 0
-0.0099999858 -0.11240924 0.0043414086 0
-0.0099999951 -0.11266278 0.0016188588 0
-0.010000006 -0.1126641 -0.0016857884 0
-0.010000017 -0.11243276 -0.0048266239 0
-0.010000025 -0.11232818 -0.0072975666 0
-0.0098887086 -0.11298564 -0.0097290473 0
-0.0075084004 -0.11206904 0.0099996217 0
-0.0074740704 -0.11251004 -0.010000382 0
-0.0043214867 -0.11254479 0.0099996077 0
-0.0043444592 -0.112498 -0.010000392 0
-0.0017124651 -0.11232935 0.0099996012 0
-0.0012131982 -0.11245831 -0.010000404 0
0.0011331906 -0.11240916 0.00999959 0
0.0015999718 -0.11244454 -0.010000413 0
0.0048759822 -0.11274153 0.009999576 0
0.0044900198 -0.11266463 -0.010000425 0
0.0075669372 -0.11260182 0.0099995648 0
0.0076153786 -0.11229524 -0.010000436 0
0.0096484283 -0.11242206 0.0098569766 0
0.01000003 -0.11277188 0.007595174 0
0.010000016 -0.11242961 0.004413872 0
0.010000005 -0.11251425 0.0012237999 0
0.0099999942 -0.11222319 -0.0017187056 0
0.0099999849 -0.11239945 -0.0044127968 0
0.0099999746 -0.11288422 -0.0074283015 0
0.0094751129 -0.11275424 -0.0099554658 0
-0.0097049559 -0.11572265 0.0097875176 0
-0.0099999718 -0.11591359 0.0080553247 0
-0.0099999858 -0.11536089 0.0044003502 0
-0.0099999961 -0.11510574 0.0014586522 0
-0.010000004 -0.11572075 -0.0014043269 0
-0.010000017 -0.11538268 -0.0044749654 0
-0.010000029 -0.11545572 -0.0076786387 0
-0.0098052965 -0.11533703 -0.009657559 0
-0.0076068724 -0.11534813 0.0099996123 0
-0.0071479212 -0.11568189 -0.010000395 0
-0.0041224542 -0.11556495 0.0099995974 0
-0.004482381 -0.11568382 -0.010000404 0
-0.0014589648 -0.11532418 0.0099995891 0
-0.0016055021 -0.11555547 -0.010000414 0
0.0013287589 -0.11493479 0.0099995788 0
0.0016254273 -0.11579479 -0.010000424 0
0.0042530061 -0.11575606 0.0099995639 0
0.0046345843 -0.11561074 -0.010000436 0
0.0077393665 -0.11554865 0.0099995546 0
0.0076160813 -0.11579421 -0.010000449 0
0.0097850319 -0.11533234 0.0098363236 0
0.010000027 -0.11548022 0.0073236697 0
0.010000017 -0.11553674 0.0045011668 0
0.010000007 -0.11521102 0.001435884 0
0.0099999951 -0.11542971 -0.0015066372 0
0.0099999867 -0.11565945 -0.0041224728 0
0.0099999737 -0.11551508 -0.0074212388 0
0.0096654575 -0.11549176 -0.0097950911 0
-0.0096824188 -0.11880795 0.0097970786 0
-0.0099999737 -0.11831714 0.0072897114 0
-0.0099999849 -0.11831875 0.0041371747 0
-0.009999997 -0.11850119 0.0012132591 0
-0.010000007 -0.11836253 -0.0014463095 0
-0.010000017 -0.11845817 -0.0048519881 0
-0.010000029 -0.11846933 -0.007629225 0
-0.0098903449 -0.1186429 -0.0096012903 0
-0.0075914864 -0.11824541 0.0099995993 0
-0.0076906965 -0.11858577 -0.010000402 0
-0.0045577609 -0.11859072 0.0099995881 0
-0.0044348571 -0.11830223 -0.010000413 0
-0.0015222101 -0.11860487 0.009999576 0
-0.0013009771 -0.11879886 -0.010000427 0
0.0015212193 -0.11863495 0.0099995658 0
0.0011953331 -0.11823938 -0.010000435 0
0.0045923777 -0.11842491 0.0099995546 0
0.004508392 -0.11837696 -0.010000447 0
0.0075921677 -0.1182505 0.0099995453 0
0.0073528606 -0.1186204 -0.010000456 0
0.0098016439 -0.11840231 0.0097537776 0
0.010000027 -0.11857107 0.0071336939 0
0.010000016 -0.11854584 0.0040681115 0
0.010000005 -0.11826985 0.001533061 0
0.0099999951 -0.11856321 -0.0018161034 0
0.0099999839 -0.11853932 -0.00454131 0
0.0099999728 -0.11868323 -0.0076212338 0
0.0097582182 -0.11842883 -0.0097850543 0
-0.0095806308 -0.12161168 0.0099073434 0
-0.0099999737 -0.12135563 0.0073026204 0
-0.0099999849 -0.12137397 0.0040393025 0
-0.0099999951 -0.12176639 0.0014116862 0
-0.010000006 -0.12200223 -0.0016258577 0
-0.010000018 -0.12140968 -0.0046501169 0
-0.010000029 -0.12131575 -0.0075794677 0
-0.0098188361 -0.121213 -0.0097031081 0
-0.0074109039 -0.12171575 0.0099995872 0
-0.0075300275 -0.1219153 -0.010000415 0
-0.0042461548 -0.12161665 0.009999577 0
-0.0045482186 -0.12173489 -0.010000424 0
-0.0014173434 -0.12165131 0.0099995667 0
-0.0011923149 -0.12117632 -0.010000435 0
0.0018923833 -0.12165189 0.0099995537 0
0.0014525886 -0.12163134 -0.010000446 0
0.0047135847 -0.12153647 0.0099995453 0
0.0046231509 -0.12131415 -0.010000455 0
0.0074492106 -0.12133162 0.0099995341 0
0.0075852582 -0.12148111 -0.010000467 0
0.0097953212 -0.12124119 0.0098515712 0
0.010000031 -0.12146872 0.0079719834 0
0.010000016 -0.12130348 0.0045994609 0
0.010000008 -0.12117576 0.0016921178 0
0.0099999961 -0.12144449 -0.0015677141 0
0.0099999839 -0.12124558 -0.004408123 0
0.0099999728 -0.12177503 -0.0071675517 0
0.0096854456 -0.12136614 -0.0098395031 0
-0.0097709866 -0.12431293 0.0099086491 0
-0.0099999737 -0.12441667 0.0075519187 0
-0.0099999821 -0.12452558 0.0050787493 0
-0.0099999961 -0.12444328 0.0014416963 0
-0.010000007 -0.12444808 -0.0015466943 0
-0.010000018 -0.12470171 -0.0047630966 0
-0.010000028 -0.12447581 -0.00734556 0
-0.0096279988 -0.12429421 -0.0097675649 0
-0.0074267322 -0.12434427 0.0099995779 0
-0.0074394657 -0.12444456 -0.010000425 0
-0.0045460584 -0.12460299 0.0099995667 0
-0.0046203164 -0.12442232 -0.010000436 0
-0.0015249348 -0.12469058 0.0099995546 0
-0.0018630528 -0.12465752 -0.010000447 0
0.0012570578 -0.12435081 0.0099995462 0
0.0016029354 -0.12457103 -0.010000457 0
0.0045100776 -0.12423028 0.0099995341 0
0.0043486753 -0.12445715 -0.010000467 0
0.0076142247 -0.12446148 0.0099995211 0
0.0074305311 -0.12463285 -0.010000478 0
0.0099328188 -0.12453943 0.0097294766 0
0.010000027 -0.1246574 0.0073252735 0
0.010000017 -0.12462129 0.0048009693 0
0.010000005 -0.12447359 0.0015956239 0
0.0099999951 -0.12427472 -0.0015246604 0
0.009999983 -0.12430329 -0.0048657651 0
0.0099999709 -0.12446706 -0.0077239061 0
0.0098045943 -0.12461738 -0.009721132 0
-0.0097053666 -0.12750748 0.0096421577 0
-0.0099999709 -0.12756023 0.0076390859 0
-0.0099999849 -0.12753478 0.0045039016 0
-0.0099999951 -0.12731703 0.001303841 0
-0.010000006 -0.12765305 -0.0014549898 0
-0.010000017 -0.12735879 -0.0043457872 0
-0.01000003 -0.12757544 -0.0075499169 0
-0.0098176952 -0.1273417 -0.0097828163 0
-0.0076238299 -0.12737489 0.0099995676 0
-0.0074381498 -0.12769386 -0.010000437 0
-0.0048476998 -0.12710659 0.0099995583 0
-0.0044274642 -0.12750953 -0.010000446 0
-0.0019645174 -0.1274621 0.0099995472 0
-0.0014845685 -0.12751357 -0.010000457 0
0.0012674441 -0.12745896 0.009999536 0
0.0015425324 -0.12777451 -0.010000467 0
0.0045369621 -0.12749659 0.0099995211 0
0.0043742042 -0.12752025 -0.010000478 0
0.0079019694 -0.12760654 0.0099995099 0
0.0073047695 -0.12756212 -0.01000049 0
0.0098276427 -0.12742543 0.0097661391 0
0.010000028 -0.12784339 0.0075712986 0
0.010000017 -0.12729153 0.0044612428 0
0.010000006 -0.12751259 0.0014735855 0
0.0099999933 -0.1276639 -0.0013804808 0
0.009999983 -0.12706861 -0.0042731194 0
0.0099999728 -0.12729968 -0.0075893831 0
0.0096968208 -0.12746814 -0.0098936828 0
-0.0097991917 -0.13043585 0.0096755167 0
-0.0099999737 -0.13071765 0.0076031722 0
-0.0099999839 -0.1304027 0.0045383684 0
-0.0099999933 -0.13033374 0.0018709567 0
-0.010000005 -0.13057269 -0.0015507542 0
-0.010000017 -0.13057555 -0.0043942584 0
-0.010000028 -0.13041578 -0.0075813066 0
-0.00977307 -0.13068868 -0.0097585348 0
-0.0073660058 -0.13045554 0.0099995546 0
-0.0072186873 -0.13058043 -0.010000447 0
-0.0042732335 -0.13065705 0.0099995434 0
-0.0047002393 -0.13046956 -0.010000455 0
-0.0015434067 -0.13039444 0.009999535 0
-0.0014796852 -0.13009715 -0.010000465 0
0.0016329641 -0.13023342 0.0099995248 0
0.0016038297 -0.13066322 -0.01000048 0
0.0043896427 -0.13055818 0.0099995127 0
0.0041190693 -0.13023548 -0.010000485 0
0.0079763541 -0.13039917 0.0099994987 0
0.0076319971 -0.13040316 -0.010000502 0
0.0098510226 -0.13030684 0.0097352779 0
0.010000028 -0.13065445 0.0076847277 0
0.010000017 -0.13025323 0.0043958686 0
0.010000006 -0.1303293 0.0016274001 0
0.0099999942 -0.13019267 -0.0011825635 0
0.0099999867 -0.13054301 -0.0042266548 0
0.0099999737 -0.13082428 -0.007518643 0
0.0097069312 -0.13044903 -0.0097326199 0
-0.0096757105 -0.13349368 0.0099362163 0
-0.0099999728 -0.13326186 0.0074711284 0
-0.0099999821 -0.13385075 0.0045620226 0
-0.0099999951 -0.13366975 0.001403211 0
-0.010000006 -0.13370089 -0.0014384068 0
-0.010000017 -0.13338473 -0.0046543828 0
-0.01000003 -0.13353547 -0.0076790405 0
-0.0096979896 -0.13372098 -0.0096706003 0
-0.0076818941 -0.13357218 0.0099995444 0
-0.0074320729 -0.13388011 -0.010000457 0
-0.0045296298 -0.13341482 0.0099995323 0
-0.0042627268 -0.13324039 -0.010000467 0
-0.0017872715 -0.13371296 0.0099995229 0
-0.0016851643 -0.13327777 -0.010000476 0
0.0016358935 -0.13361998 0.0099995127 0
0.0014353218 -0.1339151 -0.010000492 0
0.0045309728 -0.1335098 0.0099995015 0
0.0043711858 -0.13367046 -0.0100005 0
0.0073082228 -0.13363905 0.0099994922 0
0.0080176555 -0.13358232 -0.010000513 0
0.0099466275 -0.13363901 0.0096948855 0
0.010000027 -0.13329692 0.0078136707 0
0.010000016 -0.1335879 0.0045319665 0
0.010000004 -0.13317406 0.001540451 0
0.0099999961 -0.13354973 -0.0013807149 0
0.0099999839 -0.13383479 -0.0043427162 0
0.0099999746 -0.13334195 -0.0073433039 0
0.0096470099 -0.13351232 -0.0098304693 0
-0.0098094018 -0.13671057 0.0097189061 0
-0.0099999737 -0.13652107 0.0075715682 0
-0.0099999849 -0.13687541 0.004368213 0
-0.0099999951 -0.13647905 0.0014807998 0
-0.010000004 -0.1363644 -0.0012293631 0
-0.010000017 -0.13640264 -0.0047326176 0
-0.010000029 -0.13642795 -0.0074335453 0
-0.0097492496 -0.13611835 -0.0095788073 0
-0.0074972212 -0.13646364 0.0099995341 0
-0.0075294133 -0.13677061 -0.010000468 0
-0.0046765436 -0.1366874 0.0099995229 0
-0.0045195562 -0.13647644 -0.010000478 0
-0.0017795714 -0.13663882 0.0099995118 0
-0.0015468088 -0.13654402 -0.01000049 0
0.0015793239 -0.1367303 0.0099994997 0
0.0016930877 -0.13687472 -0.010000503 0
0.0045970092 -0.1366366 0.0099994885 0
0.00460786 -0.13681518 -0.010000513 0
0.0073431903 -0.13649882 0.0099994792 0
0.0074400697 -0.13657965 -0.010000522 0
0.0099045252 -0.13696247 0.0094385073 0
0.01000003 -0.13633814 0.0076141404 0
0.010000017 -0.13663958 0.0044382415 0
0.010000007 -0.13656528 0.0015719702 0
0.0099999951 -0.13650104 -0.0014148537 0
0.009999983 -0.13669229 -0.0045934608 0
0.0099999718 -0.13648523 -0.0078928713 0
0.0098272013 -0.1365688 -0.0095826378 0
-0.009760879 -0.13929644 0.00973651 0
-0.0099999728 -0.13931324 0.007730416 0
-0.009999983 -0.13960981 0.0045029637 0
-0.0099999951 -0.13936995 0.0015505234 0
-0.010000007 -0.13970605 -0.0017029832 0
-0.010000018 -0.13952173 -0.0046922085 0
-0.010000028 -0.13964996 -0.0077352468 0
-0.0097765056 -0.13941719 -0.0096979942 0
-0.0076980013 -0.1395091 0.0099995229 0
-0.0076777125 -0.1393248 -0.010000478 0
-0.0046699597 -0.13933426 0.0099995127 0
-0.0043710093 -0.13954669 -0.01000049 0
-0.0018313803 -0.13940778 0.0099995006 0
-0.00098790275 -0.13955148 -0.010000503 0
0.0016429112 -0.13947725 0.0099994885 0
0.0012947485 -0.1393736 -0.010000508 0
0.0046494314 -0.13958964 0.0099994782 0
0.0044948347 -0.13950528 -0.010000521 0
0.0073526329 -0.13971148 0.009999468 0
0.0076161674 -0.13968873 -0.010000535 0
0.0096240425 -0.13921775 0.0098733623 0
0.010000028 -0.13942124 0.0073139262 0
0.010000017 -0.13928328 0.0042636199 0
0.010000006 -0.13969551 0.0013874564 0
0.0099999951 -0.13928738 -0.001492827 0
0.0099999849 -0.13970925 -0.0044945497 0
0.0099999728 -0.13942641 -0.0076094428 0
0.0098096589 -0.13918625 -0.0096929558 0
-0.0096324235 -0.14232121 0.0098579098 0
-0.0099999718 -0.14286818 0.0075935889 0
-0.0099999849 -0.14236151 0.0044142115 0
-0.0099999951 -0.14284359 0.0012860337 0
-0.010000006 -0.14260089 -0.0014969066 0
-0.010000017 -0.1422302 -0.0048821899 0
-0.010000028 -0.1422139 -0.0075228154 0
-0.0097311968 -0.14258486 -0.0097548924 0
-0.0074506425 -0.14254652 0.0099995108 0
-0.0076854974 -0.14260903 -0.01000049 0
-0.0045296829 -0.14211157 0.0099995025 0
-0.0045955228 -0.14264928 -0.010000501 0
-0.0012481497 -0.14252117 0.0099994903 0
-0.0015570752 -0.14252643 -0.010000512 0
0.0015532201 -0.14214762 0.0099994782 0
0.0011330816 -0.14248052 -0.010000519 0
0.0044381823 -0.1429435 0.0099994671 0
0.0043590679 -0.1424859 -0.010000533 0
0.0072267111 -0.14247422 0.0099994587 0
0.0077422685 -0.14271836 -0.010000546 0
0.009474799 -0.14273612 0.0099640088 0
0.010000028 -0.14283559 0.0076053091 0
0.010000017 -0.14245339 0.0044297804 0
0.010000005 -0.14246708 0.0018552237 0
0.0099999979 -0.14277938 -0.0010955842 0
0.0099999839 -0.1423555 -0.004080012 0
0.0099999746 -0.14273012 -0.0070313672 0
0.0097042834 -0.14262621 -0.0097801592 0
-0.0096062729 -0.14571898 0.0098768352 0
-0.0099999718 -0.14566886 0.0076488866 0
-0.0099999858 -0.14543636 0.0040946081 0
-0.0099999951 -0.14596331 0.0014260322 0
-0.010000005 -0.14526172 -0.0012458902 0
-0.010000018 -0.1453373 -0.0045086732 0
-0.010000028 -0.1457037 -0.007532136 0
-0.0097902445 -0.14535719 -0.0098444978 0
-0.0075768256 -0.1455688 0.0099994997 0
-0.007740227 -0.14541133 -0.0100005 0
-0.0044710524 -0.14538245 0.0099994913 0
-0.0045872494 -0.14564674 -0.010000512 0
-0.001398967 -0.14567454 0.0099994782 0
-0.0015450625 -0.14539006 -0.010000521 0
0.0013695993 -0.14564037 0.0099994689 0
0.00119866 -0.14535181 -0.010000532 0
0.0046123592 -0.14567824 0.0099994559 0
0.0044510053 -0.14566763 -0.010000545 0
0.0073130741 -0.14541586 0.0099994484 0
0.0073812208 -0.14510043 -0.010000552 0
0.0097502796 -0.1456856 0.0097738048 0
0.010000027 -0.14563617 0.0075261528 0
0.010000017 -0.14553615 0.0044254186 0
0.010000005 -0.14550641 0.0016277502 0
0.0099999961 -0.14564054 -0.0014498493 0
0.009999983 -0.14549658 -0.0047713793 0
0.0099999737 -0.14548111 -0.0076332972 0
0.0098153958 -0.14542262 -0.0097791301 0
-0.0097534321 -0.14884073 0.0097732767 0
-0.0099999756 -0.14825252 0.0072314786 0
-0.0099999858 -0.14871654 0.0044849981 0
-0.0099999951 -0.14850564 0.0017220998 0
-0.010000006 -0.1486921 -0.0017543824 0
-0.010000014 -0.14883758 -0.0038047447 0
-0.010000028 -0.14833014 -0.0075301412 0
-0.0097698634 -0.14850199 -0.0096456185 0
-0.0075537697 -0.14844614 0.0099994913 0
-0.0075874063 -0.14839774 -0.010000511 0
-0.0042773043 -0.14865395 0.0099994773 0
-0.0042260671 -0.14869142 -0.010000523 0
-0.0014756308 -0.14846815 0.0099994689 0
-0.0015438718 -0.14840001 -0.010000532 0
0.0018829496 -0.14858989 0.009999455 0
0.0012820853 -0.14819425 -0.010000543 0
0.0044969968 -0.14853822 0.0099994484 0
0.0046720975 -0.14841904 -0.010000555 0
0.0075541628 -0.14890467 0.0099994345 0
0.0072468272 -0.14859986 -0.010000564 0
0.0095612053 -0.1486598 0.0099565536 0
0.010000027 -0.14847398 0.0074328338 0
0.010000016 -0.14850947 0.0044804672 0
0.010000006 -0.14890233 0.0016060187 0
0.0099999951 -0.14834611 -0.0014596834 0
0.0099999849 -0.14814728 -0.0045982017 0
0.0099999718 -0.14834434 -0.0075606327 0
0.0099410834 -0.14862785 -0.0095594265 0
-0.0098322341 -0.15122584 0.0096856495 0
-0.0099999728 -0.15142168 0.0078444118 0
-0.0099999849 -0.15152122 0.004328547 0
-0.0099999961 -0.15129383 0.0013343733 0
-0.010000006 -0.15122347 -0.0014784334 0
-0.010000018 -0.151362 -0.0046641501 0
-0.010000026 -0.1512906 -0.0072234138 0
-0.00980232 -0.15130553 -0.0098595768 0
-0.0073762876 -0.15161847 0.0099994792 0
-0.0075474102 -0.15141496 -0.010000522 0
-0.0043153809 -0.15154506 0.0099994689 0
-0.0044529191 -0.15158693 -0.010000533 0
-0.0016388244 -0.15162119 0.0099994568 0
-0.0014657986 -0.15186159 -0.010000545 0
0.0012935722 -0.15160821 0.0099994466 0
0.001436446 -0.15170555 -0.010000557 0
0.0043106568 -0.15142141 0.0099994354 0
0.0043754308 -0.15157476 -0.010000564 0
0.0072532766 -0.15144089 0.0099994261 0
0.0074938633 -0.15169057 -0.010000575 0
0.0096327476 -0.15117808 0.009870844 0
0.010000026 -0.15185674 0.0071611619 0
0.010000018 -0.15142877 0.0045937859 0
0.010000007 -0.15117611 0.0018151395 0
0.0099999961 -0.15146148 -0.0013696692 0
0.0099999858 -0.15135291 -0.0043849219 0
0.0099999746 -0.15181503 -0.0075793699 0
0.0099136131 -0.15142243 -0.0097662127 0
-0.0097183893 -0.15470959 0.0097047621 0
-0.0099999728 -0.15452009 0.0078161042 0
-0.009999983 -0.15476978 0.0048150322 0
-0.0099999961 -0.15441827 0.0013379538 0
-0.010000007 -0.15486969 -0.0014268742 0
-0.010000017 -0.15444663 -0.004491779 0
-0.010000027 -0.15468439 -0.0072437064 0
-0.0097596217 -0.15470715 -0.0097008394 0
-0.0075083477 -0.15439022 0.0099994699 0
-0.0075137946 -0.1546478 -0.010000533 0
-0.0043177977 -0.1545313 0.0099994577 0
-0.0045171962 -0.1548558 -0.010000544 0
-0.0015601709 -0.1545233 0.0099994466 0
-0.001480933 -0.15482701 -0.010000556 0
0.001720966 -0.15455961 0.0099994335 0
0.0014178992 -0.15448079 -0.010000565 0
0.0045866775 -0.15452249 0.0099994252 0
0.0045181056 -0.15470544 -0.010000576 0
0.00754483 -0.15443787 0.0099994149 0
0.0073343269 -0.15465567 -0.010000588 0
0.0094945552 -0.15398718 0.0099353893 0
0.010000029 -0.15456747 0.0075550401 0
0.010000017 -0.15453973 0.0048077065 0
0.010000005 -0.15465644 0.0014550902 0
0.0099999923 -0.15416136 -0.0019889991 0
0.009999983 -0.15451027 -0.004668525 0
0.0099999756 -0.15400389 -0.0072118705 0
0.0097065587 -0.15435636 -0.0098743783 0
-0.0096851839 -0.15766877 0.0097981319 0
-0.0099999746 -0.1575924 0.0075490703 0
-0.0099999849 -0.15733445 0.0044806288 0
-0.0099999951 -0.15764813 0.0014793255 0
-0.010000005 -0.15738828 -0.0012773594 0
-0.010000017 -0.15743025 -0.0042546932 0
-0.010000027 -0.15750812 -0.0075175916 0
-0.0096922843 -0.15735042 -0.0096993735 0
-0.0078534735 -0.1577632 0.0099994596 0
-0.0079265367 -0.15754223 -0.010000541 0
-0.0045796838 -0.15743336 0.0099994475 0
-0.0043900488 -0.15726595 -0.010000553 0
-0.001600317 -0.15716766 0.0099994363 0
-0.001580357 -0.15757392 -0.010000566 0
0.0018401308 -0.15759544 0.0099994233 0
0.0014903924 -0.15731964 -0.010000575 0
0.0045630448 -0.15761983 0.009999413 0
0.0045429734 -0.15753004 -0.010000587 0
0.0077369534 -0.15776461 0.0099994028 0
0.0076623284 -0.15756187 -0.010000598 0
0.0096991295 -0.15710567 0.0097073428 0
0.01000003 -0.15751642 0.0074328436 0
0.010000017 -0.15758324 0.0045598825 0
0.010000008 -0.15744552 0.0018999043 0
0.0099999961 -0.15760799 -0.0016040821 0
0.009999983 -0.15753151 -0.0046920837 0
0.0099999737 -0.15748666 -0.0073552565 0
0.0096264314 -0.15778935 -0.0099102408 0
-0.0096452795 -0.16007146 0.0097832587 0
-0.0099999737 -0.16033752 0.0075144684 0
-0.0099999821 -0.16043241 0.0049391352 0
-0.0099999951 -0.1605891 0.0013174112 0
-0.010000005 -0.16045532 -0.0015729634 0
-0.010000018 -0.16058572 -0.0046571586 0
-0.01000003 -0.16037013 -0.007647498 0
-0.0098656211 -0.16015665 -0.0096228644 0
-0.0074910047 -0.16046302 0.0099994456 0
-0.0075528068 -0.16061369 -0.010000555 0
-0.0045537697 -0.1605815 0.0099994363 0
-0.0043050339 -0.16052522 -0.010000566 0
-0.0012760967 -0.16056064 0.0099994242 0
-0.0016092163 -0.16043726 -0.010000577 0
0.0016785339 -0.16078852 0.0099994121 0
0.0019597148 -0.16044253 -0.01000059 0
0.0045881895 -0.1599068 0.0099994037 0
0.0046600415 -0.16073766 -0.0100006 0
0.0075315046 -0.16026801 0.0099993916 0
0.007211905 -0.16084383 -0.01000061 0
0.0099622151 -0.16056304 0.0096034631 0
0.010000029 -0.16051584 0.0075951302 0
0.010000017 -0.16039631 0.0043215542 0
0.010000007 -0.16046096 0.001600983 0
0.0099999951 -0.16027923 -0.0015726547 0
0.0099999839 -0.15979366 -0.0042578755 0
0.0099999728 -0.16101199 -0.007514914 0
0.009728075 -0.16081065 -0.0098091448 0
-0.0098122191 -0.16324674 0.0097761191 0
-0.0099999728 -0.16334029 0.0076472596 0
-0.0099999849 -0.16347139 0.0042430628 0
-0.0099999923 -0.1633748 0.0017538811 0
-0.010000008 -0.16333294 -0.001809439 0
-0.010000017 -0.16346355 -0.0043386188 0
-0.010000028 -0.16342504 -0.0075245332 0
-0.0097435564 -0.16307783 -0.00972775 0
-0.0078875571 -0.16380337 0.0099994354 0
-0.0075920653 -0.16395357 -0.010000567 0
-0.0043563992 -0.16335122 0.0099994242 0
-0.0045297365 -0.16333756 -0.010000575 0
-0.0014222073 -0.16350213 0.009999414 0
-0.0013756752 -0.16315626 -0.010000587 0
0.0014607252 -0.1635368 0.0099994028 0
0.001471357 -0.16381635 -0.0100006 0
0.0046262122 -0.16358258 0.0099993926 0
0.0045500183 -0.16369168 -0.010000611 0
0.0074920366 -0.16356772 0.0099993823 0
0.0073507782 -0.16369718 -0.010000619 0
0.0097505162 -0.16343068 0.0096544642 0
0.010000028 -0.16333501 0.0074346894 0
0.010000018 -0.16376862 0.0045656194 0
0.010000008 -0.16323084 0.0017096263 0
0.0099999961 -0.16331598 -0.0014116549 0
0.0099999821 -0.16356213 -0.0047451193 0
0.0099999728 -0.16333158 -0.0075139888 0
0.0097977808 -0.16357909 -0.0096965805 0
-0.0097323647 -0.16651165 0.0097043095 0
-0.0099999746 -0.16649345 0.007291167 0
-0.0099999849 -0.16656433 0.0045049386 0
-0.009999997 -0.1659348 0.00094610377 0
-0.010000006 -0.16597036 -0.0014521418 0
-0.010000017 -0.16645564 -0.004610965 0
-0.010000027 -0.16666535 -0.0072954199 0
-0.009683311 -0.16645078 -0.009705455 0
-0.0075222729 -0.16659489 0.0099994252 0
-0.007685374 -0.16651656 -0.010000575 0
-0.0044727535 -0.16656916 0.009999414 0
-0.0045200116 -0.16663559 -0.010000587 0
-0.0012925544 -0.16640742 0.0099994028 0
-0.0013926063 -0.16635166 -0.010000599 0
0.0014213218 -0.16655342 0.0099993926 0
0.0013912487 -0.16640322 -0.010000607 0
0.0046533314 -0.16622782 0.0099993823 0
0.0045234389 -0.16622406 -0.01000062 0
0.0072621242 -0.16654736 0.0099993721 0
0.0073837647 -0.16627926 -0.01000063 0
0.0099031506 -0.16657136 0.0095250886 0
0.010000027 -0.16630536 0.007497937 0
0.010000018 -0.16665851 0.0046398737 0
0.010000006 -0.16643588 0.0015760622 0
0.0099999933 -0.16657005 -0.0016727833 0
0.0099999839 -0.16682927 -0.0044706184 0
