# .PCD v0.7 - Point Cloud Data file format
VERSION 0.7
FIELDS x y z rgb
SIZE 4 4 4 4
TYPE F F F F
COUNT 1 1 1 1
WIDTH 1222
HEIGHT 1
VIEWPOINT 0 0 0 1 0 0 0
POINTS 1222
DATA ascii
0.010823963 -0.23255074 -0.029999118 0
0.011229546 -0.23236553 0.03000088 0
0.01052124 -0.23257834 0.030000875 0
0.013777614 -0.23282428 -0.029999109 0
0.013186401 -0.23241593 -0.029999107 0
0.013395402 -0.23254651 0.03000089 0
0.013504249 -0.23266686 0.030000893 0
0.015962575 -0.23306896 -0.0299991 0
0.016438497 -0.23252445 -0.029999092 0
0.016178753 -0.2324677 0.030000899 0
0.016686685 -0.23266593 0.030000892 0
0.019576473 -0.2324544 -0.029999088 0
0.019236764 -0.23273492 -0.029999088 0
0.019158941 -0.23281489 0.03000091 0
0.019235292 -0.23216794 0.030000908 0
0.022652199 -0.23298408 -0.029999075 0
0.023139454 -0.23230655 -0.029999075 0
0.022246912 -0.23333658 0.030000923 0
0.02300657 -0.23247018 0.030000929 0
0.026062043 -0.2323065 -0.029999066 0
0.025485016 -0.23243059 -0.029999064 0
0.025771828 -0.23239659 0.030000934 0
0.025198955 -0.23276284 0.030000936 0
0.028236153 -0.23254785 -0.029999057 0
0.02842105 -0.2327942 -0.029999055 0
0.028402347 -0.23247473 0.030000942 0
0.028439071 -0.23287608 0.030000942 0
0.031464189 -0.23241478 -0.029999046 0
0.031337097 -0.23260003 -0.029999044 0
0.03165587 -0.23292583 0.030000959 0
0.03148748 -0.23242281 0.030000949 0
0.034768749 -0.23244527 -0.029999033 0
0.034439847 -0.23268248 -0.029999033 0
0.035027426 -0.23261438 0.030000968 0
0.03465629 -0.2323264 0.03000096 0
0.037709687 -0.23270272 -0.029999023 0
0.037358984 -0.23233923 -0.029999021 0
0.037562225 -0.23230018 0.030000975 0
0.037667457 -0.23257513 0.030000975 0
0.040797774 -0.23223141 -0.029999014 0
0.040292699 -0.23237786 -0.029999003 0
0.040319543 -0.23296382 0.030000988 0
0.040306844 -0.23262288 0.030000988 0
0.043075625 -0.23251206 -0.029999005 0
0.04341156 -0.23232506 -0.029999001 0
0.043518584 -0.23230445 0.030000998 0
0.04320775 -0.23261951 0.030001001 0
0.046677802 -0.23312275 -0.029998988 0
0.046367239 -0.2326327 -0.02999899 0
0.046633739 -0.23243812 0.030001009 0
0.046504792 -0.23274553 0.030001003 0
0.049014851 -0.23272441 -0.029998982 0
0.049745634 -0.23240222 -0.029998967 0
0.049636777 -0.23211087 0.030001016 0
0.04945118 -0.23266344 0.03000102 0
0.052198131 -0.23254892 -0.029998973 0
0.05282215 -0.23219989 -0.029998964 0
0.052725121 -0.23234314 0.030001031 0
0.052681398 -0.23249504 0.030001031 0
0.054718081 -0.23291394 -0.02999896 0
0.055286329 -0.23261479 -0.029998953 0
0.055398978 -0.23266812 0.030001042 0
0.055760592 -0.23223063 0.030001039 0
0.058410626 -0.23241524 -0.029998947 0
0.058806419 -0.23243852 -0.029998947 0
0.058185626 -0.23307671 0.030001054 0
0.058128644 -0.23254161 0.030001054 0
0.061339483 -0.23228785 -0.029998939 0
0.061476287 -0.2325421 -0.029998934 0
0.062038295 -0.23246206 0.030001067 0
0.061402079 -0.23267579 0.030001054 0
0.064667478 -0.23292127 -0.029998925 0
0.064405903 -0.2324992 -0.029998923 0
0.064470217 -0.23249237 0.030001074 0
0.064441159 -0.23238538 0.030001068 0
0.067308731 -0.23285954 -0.029998913 0
0.067451127 -0.23222573 -0.029998917 0
0.067310877 -0.23285203 0.030001085 0
0.067490146 -0.23255803 0.030001076 0
0.070717372 -0.23272751 -0.029998906 0
0.070932619 -0.23220007 -0.0299989 0
0.070534818 -0.232631 0.030001096 0
0.070593208 -0.23239142 0.030001095 0
0.073223136 -0.23259459 -0.029998895 0
0.073769324 -0.23247105 -0.029998891 0
0.073608972 -0.23254304 0.030001108 0
0.073505834 -0.23241831 0.030001106 0
0.075696491 -0.23338273 -0.029998882 0
0.076519601 -0.2327757 -0.02999888 0
0.076467648 -0.23310623 0.030001119 0
0.07642132 -0.23191981 0.030001119 0
0.079270944 -0.23261109 -0.029998872 0
0.079811275 -0.23274228 -0.029998858 0
0.079761155 -0.23316509 0.030001132 0
0.079749353 -0.23228556 0.030001121 0
0.082009979 -0.23300271 -0.029998861 0
0.082460433 -0.23260751 -0.029998859 0
0.082093664 -0.23247474 0.030001139 0
0.082458206 -0.23217538 0.030001139 0
0.085593961 -0.23324609 -0.02999885 0
0.085457802 -0.23261616 -0.029998844 0
0.085680358 -0.23287268 0.030001152 0
0.085661501 -0.23241428 0.030001143 0
0.088612795 -0.23292373 -0.029998839 0
0.088601835 -0.23256984 -0.029998833 0
0.088763356 -0.23306687 0.030001165 0
0.088217765 -0.23257513 0.030001154 0
0.09000013 -0.23247308 -0.028586255 0
0.090000115 -0.23278408 -0.025706116 0
0.090000071 -0.23241127 -0.022173721 0
0.090000078 -0.23234646 -0.0193289 0
0.090000048 -0.23222059 -0.01632008 0
0.090000048 -0.23255645 -0.0135636 0
0.090000056 -0.23233874 -0.010610714 0
0.090000026 -0.23249498 -0.0076338486 0
0.090000018 -0.23240249 -0.004362775 0
0.089999996 -0.23259917 -0.0016316242 0
0.090000011 -0.2324184 0.001657952 0
0.089999989 -0.23245531 0.0042744051 0
0.089999981 -0.23269245 0.0075284741 0
0.089999981 -0.23238811 0.010304859 0
0.089999944 -0.23235682 0.013779319 0
0.089999944 -0.23272002 0.016586758 0
0.089999907 -0.23238206 0.01962653 0
0.089999929 -0.2328397 0.022867961 0
0.089999929 -0.2323797 0.025549857 0
0.089999877 -0.23236842 0.028481008 0
-0.0096524935 -0.22927511 -0.0098053869 0
-0.0098324604 -0.2295128 -0.0073422827 0
-0.0099131735 -0.22941723 -0.0044830092 0
-0.0099162301 -0.22922316 -0.0014658504 0
-0.0098492289 -0.22948031 0.0013048268 0
-0.009824302 -0.22950527 0.0047532097 0
-0.0098749753 -0.22941834 0.0075146481 0
-0.0096652368 -0.22939393 0.0096777575 0
-0.0079075908 -0.22963621 -0.0098221917 0
-0.0075359182 -0.23053452 -0.0075551402 0
-0.0071979174 -0.23061743 -0.0045230254 0
-0.0070337704 -0.23065275 -0.0015407059 0
-0.0074073542 -0.23056661 0.0018092599 0
-0.0072965724 -0.2305968 0.0039982111 0
-0.0074533313 -0.23055999 0.0076138861 0
-0.007283526 -0.23002183 0.0098580737 0
-0.0043604556 -0.22928123 -0.0099991849 0
-0.0059817717 -0.23099095 -0.0060061547 0
-0.0045939954 -0.22971231 0.010000816 0
-0.0015689052 -0.22968432 -0.0099991746 0
-0.001330329 -0.22987165 0.010000828 0
0.0018655398 -0.23082952 -0.029999157 0
0.0012411251 -0.23034096 -0.028545627 0
0.0011110175 -0.23026431 -0.025491148 0
0.0012893716 -0.23025537 -0.022400968 0
0.001121444 -0.23023298 -0.019565789 0
0.00096200401 -0.23028259 -0.016484549 0
0.0013122052 -0.2303561 -0.01353062 0
0.0014500977 -0.22951841 -0.010449763 0
0.001405212 -0.22973941 0.010566732 0
0.0014359512 -0.23029046 0.013471702 0
0.001168942 -0.23027734 0.016364265 0
0.0012950199 -0.2302516 0.01956089 0
0.0012165802 -0.23029478 0.022600289 0
0.0014273173 -0.2302606 0.025532903 0
0.0012487834 -0.23028566 0.028339677 0
0.0020780126 -0.23056187 0.030000841 0
0.0045142826 -0.23028484 -0.028866738 0
0.0045488984 -0.23020011 -0.02536303 0
0.0043709311 -0.23020002 -0.022508355 0
0.004246037 -0.23020005 -0.019395366 0
0.0045684446 -0.23020002 -0.016517743 0
0.0044132937 -0.23019998 -0.013460618 0
0.004455511 -0.22980754 -0.010581468 0
0.0044196104 -0.22964162 0.010490411 0
0.0044854395 -0.2301999 0.013641665 0
0.0045058765 -0.23019987 0.016478773 0
0.0047587617 -0.23019989 0.019520402 0
0.0043520941 -0.23019993 0.022583302 0
0.004658584 -0.2301999 0.025532462 0
0.0044257999 -0.23019984 0.028724978 0
0.0047644461 -0.23064841 0.030000852 0
0.0080753947 -0.23037156 -0.029999137 0
0.0073414873 -0.23025635 -0.028954493 0
0.0075406325 -0.23020001 -0.025319235 0
0.0075524691 -0.23020002 -0.022285532 0
0.0074662128 -0.23020001 -0.019657867 0
0.0076021911 -0.23020004 -0.016439743 0
0.007347439 -0.23019996 -0.013728071 0
0.007458251 -0.22963087 -0.010461544 0
0.0074906042 -0.22976832 0.010406175 0
0.007516189 -0.23019992 0.013241292 0
0.0075059338 -0.23019992 0.016649107 0
0.0076312847 -0.23019989 0.019403243 0
0.0074021197 -0.23019984 0.022671154 0
0.0074014007 -0.23019983 0.025721844 0
0.0074624084 -0.23024619 0.029041065 0
0.0075424048 -0.23069274 0.030000864 0
0.0095316311 -0.23099852 -0.029999129 0
0.010567858 -0.23028906 -0.02909942 0
0.010609773 -0.23020008 -0.02564344 0
0.010529161 -0.23020005 -0.022224629 0
0.010337331 -0.23020004 -0.019473048 0
0.010493788 -0.23020005 -0.016688345 0
0.010382762 -0.23019998 -0.013446772 0
0.010708463 -0.22997089 -0.010484037 0
0.010281524 -0.22966248 -0.0073816278 0
0.010338672 -0.22949071 -0.0045512468 0
0.010341186 -0.22935785 -0.0013626586 0
0.010573549 -0.22975247 0.0014368522 0
0.010497503 -0.22967245 0.0044310805 0
0.010410024 -0.22967346 0.0074239457 0
0.010427359 -0.22998476 0.010423481 0
0.010499769 -0.23019993 0.01330063 0
0.010702933 -0.23019993 0.016609984 0
0.010726176 -0.23019989 0.019650448 0
0.010382151 -0.23019989 0.022315949 0
0.010449246 -0.23019992 0.025335694 0
0.010279931 -0.23020928 0.028818747 0
0.010675917 -0.23072094 0.030000875 0
0.01465271 -0.23051038 -0.029999115 0
0.013523074 -0.23028742 -0.029031843 0
0.013449124 -0.23020005 -0.025095338 0
0.013363798 -0.23020011 -0.022646327 0
0.013606692 -0.23020004 -0.019702308 0
0.013449433 -0.23020002 -0.016452437 0
0.013725656 -0.23020001 -0.013477921 0
0.013393256 -0.23020001 -0.010539142 0
0.013666764 -0.23019999 -0.0076726619 0
0.013481023 -0.23019998 -0.004750296 0
0.013174653 -0.23019996 -0.0015021031 0
0.013668666 -0.23019996 0.0013272555 0
0.013477583 -0.23020001 0.0043754857 0
0.013483813 -0.23019999 0.0075261639 0
0.013332778 -0.23019993 0.010178144 0
0.013266694 -0.23019993 0.013146344 0
0.013457774 -0.23019986 0.016338797 0
0.013635776 -0.23019987 0.019205758 0
0.013507229 -0.23019984 0.022578809 0
0.013435106 -0.23019987 0.025431151 0
0.013433439 -0.23019981 0.028561594 0
0.01358937 -0.23045751 0.03000088 0
0.015249669 -0.23086506 -0.029999109 0
0.016591709 -0.23026963 -0.028717762 0
0.016488688 -0.23020005 -0.025784083 0
0.016482404 -0.23020007 -0.022797616 0
0.016305141 -0.23020002 -0.019769797 0
0.016531402 -0.23020002 -0.016329346 0
0.016731011 -0.23019995 -0.013486358 0
0.01649506 -0.23020002 -0.010495675 0
0.016398262 -0.23019999 -0.0076654465 0
0.01664966 -0.23019995 -0.0043544681 0
0.016503802 -0.23019993 -0.0016754455 0
0.016399944 -0.23019993 0.0014802809 0
0.016480425 -0.23019996 0.0045491522 0
0.016372975 -0.2301999 0.0076070768 0
0.016623059 -0.2301999 0.010545082 0
0.01629536 -0.23019987 0.013404244 0
0.016385486 -0.2301999 0.016743142 0
0.016538294 -0.23019989 0.019755492 0
0.01647746 -0.23019983 0.022484293 0
0.016848696 -0.23019989 0.025247714 0
0.016550057 -0.23024489 0.028583312 0
0.016912829 -0.2306996 0.030000899 0
0.019613901 -0.23059061 -0.029999096 0
0.019452175 -0.23030683 -0.028569091 0
0.019765034 -0.23020002 -0.025553107 0
0.019572256 -0.23020002 -0.02262542 0
0.019425223 -0.23020004 -0.019443193 0
0.019547094 -0.23020002 -0.016203124 0
0.019500468 -0.23020005 -0.013455547 0
0.019377859 -0.23019998 -0.010448739 0
0.019401556 -0.23019998 -0.007540334 0
0.019464334 -0.23020002 -0.004700602 0
0.019231262 -0.23019996 -0.0015025141 0
0.019531196 -0.23019998 0.0016256096 0
0.019537399 -0.23019998 0.0045151897 0
0.019578053 -0.2301999 0.0072936933 0
0.019274352 -0.23019993 0.010571796 0
0.019762404 -0.2301999 0.01354387 0
0.01938555 -0.23019992 0.016456524 0
0.019506292 -0.2301999 0.019440569 0
0.019856945 -0.23019995 0.022276511 0
0.019677445 -0.2301999 0.025762739 0
0.019632043 -0.23026462 0.028970515 0
0.020272588 -0.23055497 0.030000906 0
0.022156781 -0.23026559 -0.028717436 0
0.022603938 -0.23020008 -0.025321467 0
0.02226009 -0.23020007 -0.022255588 0
0.022527831 -0.23020001 -0.019388288 0
0.022576496 -0.23019999 -0.01645612 0
0.022465764 -0.23020001 -0.013414792 0
0.022680404 -0.23020004 -0.010408957 0
0.02231491 -0.23019999 -0.0076263123 0
0.022497576 -0.23019995 -0.0046694675 0
0.022678977 -0.23019996 -0.0014781076 0
0.022399703 -0.23019996 0.0013554039 0
0.022447444 -0.23019993 0.0044250949 0
0.022438124 -0.2301999 0.0073681194 0
0.02218667 -0.23019999 0.010731545 0
0.022559762 -0.23019992 0.013450643 0
0.022581464 -0.23019996 0.016481951 0
0.022525048 -0.23019989 0.01963499 0
0.022529619 -0.23019993 0.022841634 0
0.022368757 -0.2301999 0.025303356 0
0.022296648 -0.2302305 0.028783046 0
0.022696212 -0.23059511 0.030000918 0
0.025758287 -0.23059246 -0.029999074 0
0.025478033 -0.23032838 -0.0290394 0
0.025423996 -0.23020002 -0.025304824 0
0.025681812 -0.23020005 -0.022535931 0
0.02574279 -0.23020004 -0.019732799 0
0.02536469 -0.23019998 -0.016449429 0
0.02530512 -0.23020002 -0.013768237 0
0.025346218 -0.23019999 -0.010565499 0
0.02559348 -0.23020005 -0.0073230732 0
0.025567045 -0.23019998 -0.0041976515 0
0.025532272 -0.23019995 -0.0014373707 0
0.025404034 -0.23019995 0.0018143586 0
0.025551455 -0.23019995 0.0043879058 0
0.025536565 -0.2301999 0.007759003 0
0.025540452 -0.23019992 0.010614704 0
0.025531713 -0.23019992 0.013628315 0
0.025738025 -0.23019987 0.016652422 0
0.025647316 -0.23019992 0.019605698 0
0.025510205 -0.23019986 0.022495344 0
0.025324255 -0.23019984 0.025580293 0
0.025550751 -0.23024081 0.028632557 0
0.025761425 -0.23071462 0.030000929 0
0.027465375 -0.23040284 -0.029999068 0
0.028463099 -0.23021896 -0.028772656 0
0.028353412 -0.23020005 -0.025817681 0
0.027993513 -0.23020007 -0.022170123 0
0.028366974 -0.23020007 -0.019784149 0
0.028478274 -0.23020007 -0.01658353 0
0.02850784 -0.23020002 -0.013575885 0
0.028259542 -0.23020002 -0.010819627 0
0.028465565 -0.23019993 -0.0075083687 0
0.028745197 -0.23020001 -0.0044248756 0
0.028554697 -0.23019996 -0.0015319497 0
0.028492827 -0.23019993 0.0015502009 0
0.028592698 -0.23019995 0.0047673583 0
0.028422656 -0.23019996 0.0073757148 0
0.028831357 -0.23020001 0.010374896 0
0.028738094 -0.23019989 0.013555616 0
0.028626207 -0.2301999 0.016439153 0
0.028639691 -0.2301999 0.019775288 0
0.02852935 -0.23019986 0.02241374 0
0.028214533 -0.23019984 0.025233336 0
0.028110998 -0.23022249 0.028503468 0
0.028907454 -0.23078914 0.030000942 0
0.030932218 -0.23093413 -0.029999053 0
0.031661201 -0.23024394 -0.028576948 0
0.031477887 -0.23020005 -0.025254387 0
0.03149505 -0.23020005 -0.022468461 0
0.03168419 -0.23020001 -0.019466259 0
0.031231567 -0.23019999 -0.016794974 0
0.031405773 -0.23020001 -0.013579422 0
0.03158246 -0.23020001 -0.010520444 0
0.031358611 -0.23020002 -0.0069805998 0
0.031502496 -0.23019999 -0.0044801179 0
0.031600121 -0.23019996 -0.0015199688 0
0.031553701 -0.23019999 0.0017790052 0
0.031616967 -0.23019995 0.0044405698 0
0.031449869 -0.23019995 0.0073783607 0
0.031550262 -0.23019987 0.010669093 0
0.031914346 -0.23019998 0.013522691 0
0.031211143 -0.23019992 0.016574187 0
0.03144224 -0.23019986 0.019466102 0
0.031620976 -0.23019989 0.022610107 0
0.031742763 -0.23019987 0.025365755 0
0.031452883 -0.23024426 0.028463369 0
0.031653531 -0.23071481 0.030000951 0
0.034386907 -0.23075263 -0.029999042 0
0.034384914 -0.23023409 -0.028904328 0
0.034716532 -0.23020002 -0.025657913 0
0.034556098 -0.23019999 -0.022459636 0
0.034428608 -0.2302001 -0.019542851 0
0.034227323 -0.23020001 -0.016418301 0
0.034409728 -0.23019998 -0.013349981 0
0.03433032 -0.23019996 -0.010681566 0
0.034395561 -0.23020002 -0.0073703257 0
0.034700286 -0.23019995 -0.0043306914 0
0.034315918 -0.23020001 -0.001532712 0
0.034428004 -0.23019996 0.0017443743 0
0.034278445 -0.23019992 0.0046416302 0
0.034604583 -0.23019993 0.0074940976 0
0.0346529 -0.23019989 0.01050161 0
0.034329955 -0.2301999 0.013742807 0
0.034652032 -0.23019987 0.016349403 0
0.034899116 -0.23019993 0.019352725 0
0.034624431 -0.23019987 0.022465484 0
0.034669176 -0.23019984 0.025244154 0
0.034524426 -0.23019983 0.028731931 0
0.034545761 -0.23064631 0.030000962 0
0.037296012 -0.23098211 -0.029999031 0
0.037712976 -0.2302306 -0.028631849 0
0.037018925 -0.23020008 -0.025136897 0
0.038077302 -0.23020005 -0.022089446 0
0.037250452 -0.23020008 -0.019666802 0
0.037448384 -0.23019998 -0.016446818 0
0.037804402 -0.23020004 -0.013483147 0
0.037425779 -0.23020001 -0.010756765 0
0.037645131 -0.23019998 -0.0075640329 0
0.037650581 -0.23019995 -0.0043501323 0
0.037676044 -0.23020001 -0.0015320663 0
0.03750062 -0.23019998 0.0016599123 0
0.037482977 -0.23019995 0.0043882802 0
0.037660923 -0.23019993 0.0076288856 0
0.037269998 -0.23019998 0.010482576 0
0.037594698 -0.23019993 0.013504071 0
0.037181411 -0.2301999 0.016463771 0
0.037296861 -0.23019986 0.019429045 0
0.037346385 -0.23019986 0.022538481 0
0.037380185 -0.2301999 0.0257791 0
0.037560862 -0.2302285 0.028775584 0
0.037723638 -0.23051952 0.030000972 0
0.040049799 -0.23066656 -0.029999021 0
0.040428322 -0.23026389 -0.028882198 0
0.040506475 -0.23020005 -0.02515747 0
0.04035693 -0.23020004 -0.022390792 0
0.040372238 -0.23020004 -0.019515967 0
0.04059121 -0.23019998 -0.016361209 0
0.040422048 -0.23020001 -0.013889956 0
0.040278316 -0.23020002 -0.010425258 0
0.040383559 -0.23019996 -0.0075671603 0
0.040523738 -0.23019998 -0.0043328637 0
0.040340681 -0.23019993 -0.0015858274 0
0.04059463 -0.23019996 0.0013143007 0
0.040488098 -0.23019992 0.0043374314 0
0.040420495 -0.23019992 0.0075600306 0
0.040281266 -0.23019992 0.010466077 0
0.040474139 -0.23019992 0.013377757 0
0.04053868 -0.23019993 0.0166713 0
0.040655516 -0.2301999 0.019582553 0
0.040527377 -0.23019986 0.022548169 0
0.040731348 -0.2301999 0.025061287 0
0.039964374 -0.23021148 0.028758183 0
0.040730514 -0.23062231 0.030000981 0
0.043348644 -0.23072438 -0.02999901 0
0.043736864 -0.23025678 -0.028763577 0
0.043460619 -0.23020001 -0.025441682 0
0.043337844 -0.23020008 -0.022672394 0
0.043269459 -0.23020005 -0.019274689 0
0.043382104 -0.23020001 -0.016497012 0
0.043461561 -0.23020002 -0.0133268 0
0.043723121 -0.23019998 -0.010296169 0
0.04313504 -0.23019999 -0.0075858398 0
0.043716401 -0.23019993 -0.0045702769 0
0.043480501 -0.23019996 -0.0013604771 0
0.04355976 -0.23019996 0.0013355858 0
0.043313865 -0.23019995 0.0048819948 0
0.043267637 -0.23019993 0.0075674299 0
0.043373663 -0.23019995 0.010767911 0
0.04354595 -0.23019989 0.0134636 0
0.043219231 -0.23019993 0.016474742 0
0.043301359 -0.23019986 0.01955387 0
0.043380816 -0.23019987 0.022581158 0
0.043203525 -0.23019987 0.025529789 0
0.043516323 -0.23019984 0.028113049 0
0.043222569 -0.2305146 0.03000099 0
0.045957919 -0.23055735 -0.029999001 0
0.046605453 -0.2302698 -0.028525881 0
0.046375871 -0.23020007 -0.025584172 0
0.04656532 -0.23020001 -0.022563573 0
0.046483051 -0.23020007 -0.019540532 0
0.046199478 -0.23020002 -0.016425036 0
0.046497319 -0.23019998 -0.013565452 0
0.04658908 -0.23020001 -0.010229778 0
0.046507746 -0.23020002 -0.0075540966 0
0.046411693 -0.23020005 -0.0045543136 0
0.046694815 -0.23020002 -0.0015993683 0
0.046704888 -0.23019993 0.0013210827 0
0.046423055 -0.23019992 0.0047710291 0
0.046615932 -0.23019998 0.0075091929 0
0.046429783 -0.23019993 0.010571298 0
0.046710569 -0.23019989 0.013485817 0
0.046665054 -0.23019987 0.016634857 0
0.046776053 -0.2301999 0.019422136 0
0.046311434 -0.23019989 0.022399064 0
0.046487413 -0.23019986 0.025709664 0
0.046648785 -0.23022951 0.028613107 0
0.046174332 -0.23050292 0.030001003 0
0.049548756 -0.23025067 -0.02999899 0
0.049269479 -0.23027714 -0.02869235 0
0.0499097 -0.23020011 -0.025585959 0
0.049486481 -0.23020004 -0.022563055 0
0.049490586 -0.23020005 -0.019265717 0
0.049475387 -0.23020004 -0.016569788 0
0.049050603 -0.23020002 -0.013452684 0
0.049406283 -0.23020001 -0.010539549 0
0.049511142 -0.23019996 -0.0074660336 0
0.049408071 -0.23019998 -0.00456357 0
0.049565084 -0.23019996 -0.0012957945 0
0.049623381 -0.23019999 0.0015845094 0
0.04954277 -0.23019996 0.0043111914 0
0.049588423 -0.23019993 0.0076492196 0
0.049633618 -0.23019992 0.010373309 0
0.049457617 -0.23019992 0.013407147 0
0.049517754 -0.23019992 0.016348161 0
0.049693294 -0.23019989 0.019618193 0
0.049515605 -0.23019986 0.022516703 0
0.049571585 -0.23019984 0.025486263 0
0.049380869 -0.23020172 0.028283453 0
0.049523301 -0.230608 0.030001014 0
0.051918123 -0.23022112 -0.02999898 0
0.052155759 -0.23024046 -0.028898053 0
0.052463409 -0.23020005 -0.025523841 0
0.052555449 -0.23020004 -0.022377612 0
0.052838188 -0.2302001 -0.019442985 0
0.052572988 -0.23020005 -0.016354864 0
0.052535638 -0.23019998 -0.013421094 0
0.052464291 -0.23019998 -0.010550911 0
0.052851681 -0.23020005 -0.007719663 0
0.05270147 -0.23019998 -0.0044489759 0
0.052629068 -0.23019993 -0.0014038737 0
0.052654311 -0.23020001 0.001262176 0
0.052653901 -0.23019996 0.0045516747 0
0.052553825 -0.23019996 0.0073221698 0
0.052577417 -0.23019989 0.010510154 0
0.0525591 -0.23019987 0.013528427 0
0.052534461 -0.23019989 0.016559776 0
0.052257549 -0.23019987 0.019686325 0
0.052690361 -0.23019995 0.022539128 0
0.052398931 -0.23019986 0.025574528 0
0.05284664 -0.2302276 0.028803378 0
0.052675527 -0.23045284 0.030001026 0
0.054016337 -0.23054865 -0.029998971 0
0.055468533 -0.2302966 -0.028840596 0
0.055855785 -0.23020002 -0.025681591 0
0.055546977 -0.23020005 -0.022278516 0
0.055770375 -0.23020005 -0.019423826 0
0.055615995 -0.23020001 -0.016487995 0
0.055288583 -0.23019998 -0.013542585 0
0.055307783 -0.23019999 -0.010278283 0
0.05570209 -0.23020002 -0.0071546207 0
0.05560467 -0.23020001 -0.0045181108 0
0.05570681 -0.23019996 -0.00144681 0
0.055842958 -0.23019998 0.0016351715 0
0.055590004 -0.23019998 0.0044296668 0
0.055583354 -0.23019999 0.0077409912 0
0.055284206 -0.23019996 0.010512498 0
0.05540562 -0.23019993 0.013462318 0
0.055551536 -0.23019987 0.016672302 0
0.055399038 -0.23019998 0.019561797 0
0.055655051 -0.23019984 0.022696238 0
0.055531953 -0.23019984 0.025426783 0
0.055530548 -0.2302745 0.028706793 0
0.05426171 -0.23050062 0.030001031 0
0.057247397 -0.23076349 -0.02999896 0
0.058388941 -0.2302397 -0.028387733 0
0.058547303 -0.23020013 -0.025819276 0
0.058448117 -0.23020004 -0.022525279 0
0.058512658 -0.23019999 -0.019395769 0
0.058582611 -0.23020007 -0.016594118 0
0.058651507 -0.23020002 -0.013610003 0
0.058537498 -0.23020001 -0.01058105 0
0.05875646 -0.23020002 -0.0075554438 0
0.058531109 -0.23020005 -0.0040415851 0
0.058300205 -0.23019998 -0.0017046448 0
0.05849281 -0.23020002 0.0012325792 0
0.058603108 -0.23019992 0.0045418064 0
0.058683008 -0.23019992 0.0075819283 0
0.058431931 -0.2301999 0.010542282 0
0.058367349 -0.23019987 0.013649306 0
0.058623578 -0.2301999 0.016450556 0
0.058566548 -0.23019984 0.019543665 0
0.058746848 -0.23019992 0.022658357 0
0.058366291 -0.23019987 0.025317088 0
0.058723893 -0.23021691 0.028381445 0
0.057851199 -0.23080261 0.030001046 0
0.060666166 -0.23067063 -0.029998947 0
0.061386917 -0.2303178 -0.028928002 0
0.061611086 -0.23020005 -0.025564071 0
0.061418403 -0.2302001 -0.022270054 0
0.06131734 -0.23020005 -0.019542502 0
0.061682295 -0.23020007 -0.016544184 0
0.061384454 -0.23020001 -0.013475949 0
0.061625801 -0.23019998 -0.010570192 0
0.061484449 -0.23020002 -0.0074311877 0
0.06168244 -0.23019999 -0.0046628197 0
0.061565306 -0.23019996 -0.0011500973 0
0.061486769 -0.23019999 0.0018530914 0
0.061294038 -0.2301999 0.0045370525 0
0.061393734 -0.23019993 0.0074467617 0
0.061484057 -0.23019993 0.010745667 0
0.061532248 -0.23019998 0.013718008 0
0.061673794 -0.2301999 0.016756373 0
0.06170667 -0.23019986 0.019370863 0
0.061612636 -0.23019989 0.02237267 0
0.06172245 -0.23019987 0.025376504 0
0.061573636 -0.23029624 0.029066477 0
0.061880145 -0.23059936 0.030001059 0
0.064705044 -0.23032248 -0.029067738 0
0.064581059 -0.23020002 -0.025501117 0
0.064497754 -0.23019999 -0.022415893 0
0.064748317 -0.23020001 -0.019503806 0
0.064523958 -0.23019999 -0.016705507 0
0.064319201 -0.23020001 -0.013540004 0
0.064512789 -0.23019998 -0.010301171 0
0.064585455 -0.23019996 -0.0075299647 0
0.064606577 -0.23019999 -0.0043026009 0
0.06475503 -0.23020002 -0.0014066006 0
0.064634077 -0.23019996 0.0015379072 0
0.064219415 -0.23019993 0.0045222216 0
0.06458813 -0.23019995 0.0077437214 0
0.064588197 -0.23019995 0.010425626 0
0.064481586 -0.23019998 0.013724709 0
0.064749882 -0.23019992 0.016679509 0
0.064439997 -0.23019989 0.019693136 0
0.064676099 -0.23019992 0.022399614 0
0.064589396 -0.23019987 0.025568638 0
0.064538434 -0.23019989 0.028481515 0
0.064654164 -0.23078151 0.030001072 0
0.066318668 -0.23085517 -0.029998925 0
0.067322828 -0.23028933 -0.028636189 0
0.067589283 -0.23020005 -0.025712758 0
0.067457162 -0.23020007 -0.022686068 0
0.067365259 -0.23020007 -0.019452864 0
0.067326523 -0.23020002 -0.016205629 0
0.067382909 -0.23019998 -0.013381307 0
0.067438319 -0.23020004 -0.010401177 0
0.067510143 -0.23019998 -0.0075815059 0
0.06741944 -0.23019998 -0.0044241459 0
0.067409158 -0.23019995 -0.0013816709 0
0.067511745 -0.23019995 0.0012958397 0
0.067458063 -0.23019995 0.0042018141 0
0.067307442 -0.23019993 0.0076611666 0
0.067379437 -0.23019995 0.010467515 0
0.067414396 -0.23019993 0.013307281 0
0.06740246 -0.2301999 0.016453784 0
0.067411251 -0.23019984 0.019650498 0
0.067417525 -0.2301999 0.02256011 0
0.067417495 -0.23019986 0.02532647 0
0.067334726 -0.23024833 0.028888136 0
0.067284472 -0.23065449 0.03000108 0
0.070350669 -0.2302904 -0.02887038 0
0.070361756 -0.23020005 -0.025771586 0
0.07054814 -0.23020002 -0.022576768 0
0.070622087 -0.23020001 -0.019487953 0
0.070382237 -0.23020004 -0.016647397 0
0.070765495 -0.23020005 -0.013171802 0
0.070479989 -0.23020001 -0.01062908 0
0.070629403 -0.23020001 -0.0075868759 0
0.070735484 -0.23019998 -0.0042401468 0
0.070627406 -0.23019996 -0.0015762155 0
0.070467524 -0.23019996 0.0013955217 0
0.070647106 -0.23019995 0.0043897121 0
0.070571393 -0.23019993 0.0076212445 0
0.070596643 -0.23019989 0.010651567 0
0.07065209 -0.23019995 0.013211889 0
0.070504688 -0.23019992 0.016876228 0
0.070564143 -0.23019986 0.01950613 0
0.070501938 -0.23019984 0.022452485 0
0.070308767 -0.2301999 0.025765255 0
0.070705041 -0.23022561 0.028608082 0
0.069935955 -0.23072909 0.030001089 0
0.074401282 -0.23085739 -0.029998895 0
0.073701926 -0.23026016 -0.028706852 0
0.073630095 -0.23020008 -0.025514301 0
0.073621146 -0.23020005 -0.022338916 0
0.073262751 -0.23020005 -0.019296896 0
0.073538043 -0.23020008 -0.016716957 0
0.073561735 -0.23020001 -0.013198329 0
0.07348042 -0.23020002 -0.010366403 0
0.073456421 -0.23019996 -0.0074144048 0
0.073388003 -0.23019995 -0.0045743114 0
0.07369706 -0.23019998 -0.0016133856 0
0.073525615 -0.23019993 0.0014952871 0
0.073762447 -0.23019992 0.0045378804 0
0.073478714 -0.23019989 0.0075849281 0
0.073641293 -0.23019993 0.010327156 0
0.073674724 -0.23019992 0.013697754 0
0.073508419 -0.2301999 0.016592767 0
0.073438376 -0.23019992 0.019444998 0
0.0734955 -0.23019987 0.022706488 0
0.073434703 -0.23019987 0.02542159 0
0.07335975 -0.23021451 0.028655691 0
0.073471613 -0.23052518 0.0300011 0
0.07632874 -0.23023263 -0.028751554 0
0.076498263 -0.23020001 -0.025436221 0
0.076591879 -0.23020001 -0.022252934 0
0.076357916 -0.23019999 -0.019575994 0
0.076528192 -0.23020001 -0.016279386 0
0.076601394 -0.23020001 -0.013516174 0
0.076403193 -0.23019998 -0.010723705 0
0.076467142 -0.23020005 -0.0071403724 0
0.076278724 -0.23019995 -0.0043874658 0
0.076584302 -0.23019993 -0.0014262161 0
0.076277353 -0.23019996 0.0014452087 0
0.076532513 -0.23019992 0.0046091336 0
0.076617941 -0.23019995 0.0072562606 0
0.076263897 -0.23019992 0.010731164 0
0.076341823 -0.2301999 0.013574244 0
0.076365851 -0.2301999 0.016490273 0
0.076391459 -0.23019992 0.019511525 0
0.076485984 -0.23019987 0.022370959 0
0.076532327 -0.2301999 0.025531601 0
0.076403655 -0.23019983 0.028298335 0
0.076311573 -0.23066728 0.030001108 0
0.079496913 -0.23026468 -0.028792713 0
0.079293422 -0.2302001 -0.025493054 0
0.079262428 -0.23020007 -0.022791449 0
0.079310812 -0.23020004 -0.019684421 0
0.07937225 -0.23020002 -0.01651055 0
0.079519168 -0.23020004 -0.013467235 0
0.079475127 -0.23020002 -0.010438059 0
0.079742901 -0.23019999 -0.0073038847 0
0.079472445 -0.23019996 -0.0045027314 0
0.079536855 -0.23019998 -0.0014146226 0
0.079355069 -0.23019995 0.0016846589 0
0.079167724 -0.23019995 0.0043173651 0
0.079399183 -0.23019993 0.0075487127 0
0.079505458 -0.2301999 0.010563801 0
0.079582371 -0.23019989 0.013745068 0
0.07960207 -0.23019986 0.016377602 0
0.079517491 -0.23019986 0.01950117 0
0.079573788 -0.23019993 0.02287153 0
0.079508573 -0.23019989 0.025528582 0
0.079756923 -0.23024808 0.028632758 0
0.079560637 -0.23055476 0.030001123 0
0.082370661 -0.23027956 -0.028869191 0
0.082668252 -0.23020005 -0.025455622 0
0.082491562 -0.23020005 -0.022386162 0
0.082648687 -0.23020004 -0.019424662 0
0.082524031 -0.23019999 -0.016486943 0
0.08245346 -0.23020001 -0.013691906 0
0.08257658 -0.23020001 -0.010438135 0
0.082680739 -0.23019999 -0.0076170196 0
0.082373172 -0.23019995 -0.0047693742 0
0.08243458 -0.23019993 -0.0015630302 0
0.082810692 -0.23020004 0.0016142916 0
0.082236506 -0.23019998 0.0044399421 0
0.082434982 -0.23020001 0.0076865549 0
0.082814127 -0.23019993 0.010772717 0
0.082380116 -0.2301999 0.013327561 0
0.082243517 -0.23019992 0.016470328 0
0.082620367 -0.23019987 0.019270267 0
0.082582928 -0.23019986 0.022781223 0
0.082870193 -0.2301999 0.025625352 0
0.082399048 -0.23019986 0.028489232 0
0.082525849 -0.23069453 0.030001132 0
0.084025785 -0.2302364 -0.029998865 0
0.085366338 -0.23027304 -0.028883208 0
0.085491396 -0.23020007 -0.025481876 0
0.085431993 -0.23019999 -0.022478342 0
0.085473843 -0.23020007 -0.019623421 0
0.085440353 -0.23020002 -0.016697451 0
0.085793383 -0.23020004 -0.013163904 0
0.085589334 -0.23019996 -0.010394864 0
0.085652553 -0.23020001 -0.0075735515 0
0.085185997 -0.23020001 -0.0044987299 0
0.085421287 -0.23019996 -0.001750189 0
0.085179552 -0.23019999 0.0016893122 0
0.085581318 -0.23019992 0.0046125487 0
0.085465319 -0.23019996 0.0074158018 0
0.085452177 -0.2301999 0.01033102 0
0.085824884 -0.23019993 0.013143703 0
0.085541464 -0.23019992 0.016430954 0
0.085403524 -0.23019989 0.019462196 0
0.085281767 -0.23019989 0.022302194 0
0.085723132 -0.23019987 0.025671359 0
0.085598305 -0.23024279 0.028646285 0
0.085281566 -0.2305923 0.030001143 0
0.088526517 -0.23032267 -0.028850788 0
0.088287696 -0.23020001 -0.025242733 0
0.088790976 -0.23020007 -0.022407949 0
0.088593632 -0.23020004 -0.019059459 0
0.088709809 -0.23020007 -0.01630388 0
0.088416316 -0.23020001 -0.013231369 0
0.088447481 -0.23019998 -0.010428476 0
0.088413849 -0.23019999 -0.0077562495 0
0.088328451 -0.23019998 -0.0048062266 0
0.088607423 -0.23019999 -0.0014247983 0
0.088652715 -0.23020001 0.0012806739 0
0.088201508 -0.23019999 0.0046647047 0
0.088562071 -0.2301999 0.0074824062 0
0.088462174 -0.23019992 0.010664345 0
0.08867567 -0.23019989 0.013270467 0
0.088586494 -0.2301999 0.016653042 0
0.08831957 -0.23019987 0.019473404 0
0.08862979 -0.23019989 0.022445429 0
0.088108771 -0.23019987 0.025634961 0
0.088845611 -0.23020121 0.028509008 0
0.08889468 -0.23064308 0.030001158 0
0.090000108 -0.23057163 -0.028164199 0
0.090000093 -0.23060709 -0.025513873 0
0.090000086 -0.23062535 -0.02197588 0
0.090000071 -0.23059741 -0.01954147 0
0.090000063 -0.23044269 -0.016540347 0
0.090000056 -0.2307854 -0.013633856 0
0.090000041 -0.23070896 -0.010745642 0
0.090000033 -0.23059613 -0.0077597317 0
0.090000018 -0.2305804 -0.0046557118 0
0.090000011 -0.2306665 -0.0016880005 0
0.090000004 -0.23052584 0.001778428 0
0.089999989 -0.23038737 0.0043312316 0
0.089999981 -0.2305968 0.0077575799 0
0.089999974 -0.23060267 0.0107489 0
0.089999959 -0.2304889 0.013006376 0
0.089999944 -0.230647 0.016851747 0
0.089999937 -0.23078723 0.019354625 0
0.089999922 -0.23046719 0.022091245 0
0.089999914 -0.23080257 0.02492029 0
0.089999907 -0.23067774 0.027691208 0
-0.0096870502 -0.22639918 -0.009869338 0
-0.0099999718 -0.22643937 -0.0075655538 0
-0.0099999849 -0.22661275 -0.0046971138 0
-0.009999997 -0.22699112 -0.0013488337 0
-0.010000007 -0.22649179 0.0015792158 0
-0.010000017 -0.22648887 0.0046778074 0
-0.010000028 -0.22648831 0.0073401616 0
-0.0097401245 -0.22645055 0.009694919 0
-0.007455064 -0.22672041 -0.0099992072 0
-0.0074710441 -0.22642948 0.010000791 0
-0.0044773822 -0.22653118 -0.0099991951 0
-0.0044646389 -0.22660489 0.010000806 0
-0.0015138655 -0.22633135 -0.0099991877 0
-0.0014959094 -0.2264636 0.010000815 0
0.0014477941 -0.22694232 -0.0099991737 0
0.0013576548 -0.22667646 0.010000826 0
0.0044777011 -0.22629173 -0.0099991616 0
0.004649871 -0.22662252 0.010000839 0
0.0075175609 -0.22642908 -0.0099991551 0
0.0077306922 -0.22680546 0.01000085 0
0.0097345626 -0.22660522 -0.0098248264 0
0.010000026 -0.22622095 -0.0073541882 0
0.010000018 -0.2269222 -0.0046674768 0
0.010000004 -0.22651383 -0.0011219719 0
0.0099999951 -0.22649649 0.0015449103 0
0.0099999849 -0.22658703 0.0044123861 0
0.0099999746 -0.22683498 0.0075830873 0
0.0096527468 -0.2263982 0.009724956 0
-0.0097743776 -0.22330898 -0.0097711664 0
-0.0099999737 -0.22329061 -0.0075465906 0
-0.0099999849 -0.22380653 -0.004738268 0
-0.0099999942 -0.2235543 -0.0015017795 0
-0.010000008 -0.22362582 0.0016955058 0
-0.010000017 -0.22354048 0.0045435163 0
-0.010000026 -0.22368291 0.0075823166 0
-0.0098349489 -0.22348726 0.0096913762 0
-0.0078680953 -0.22339867 -0.0099992212 0
-0.0076595536 -0.22342268 0.010000782 0
-0.0043551018 -0.22358987 -0.0099992082 0
-0.0043044854 -0.2237462 0.010000796 0
-0.001419118 -0.22334853 -0.009999196 0
-0.0014982953 -0.22356054 0.010000804 0
0.0016526012 -0.22362767 -0.0099991858 0
0.001542137 -0.22372849 0.010000817 0
0.0040616677 -0.2233534 -0.0099991765 0
0.0042659999 -0.22341353 0.010000826 0
0.0075504654 -0.22335252 -0.0099991653 0
0.0075988909 -0.22342023 0.010000837 0
0.0097472565 -0.22366101 -0.0097508216 0
0.010000027 -0.2236926 -0.0075224089 0
0.010000018 -0.2237177 -0.0047097355 0
0.010000005 -0.22340946 -0.0014771699 0
0.0099999961 -0.22345921 0.0012936705 0
0.0099999839 -0.22335094 0.0043249847 0
0.0099999737 -0.2238894 0.007395911 0
0.0098498818 -0.22341858 0.0097744558 0
-0.0096648848 -0.22038738 -0.0098020229 0
-0.0099999756 -0.22047822 -0.0071523916 0
-0.009999983 -0.2204805 -0.0047802133 0
-0.0099999942 -0.22073457 -0.0015672821 0
-0.010000006 -0.2204704 0.0015562284 0
-0.010000017 -0.22028734 0.0046694721 0
-0.010000026 -0.22056 0.0077594118 0
-0.0098365396 -0.22067925 0.0098474128 0
-0.0073980368 -0.22021767 -0.0099992305 0
-0.0076428023 -0.22047095 0.010000771 0
-0.0044833561 -0.22065048 -0.0099992175 0
-0.004382926 -0.22029781 0.010000782 0
-0.0010511414 -0.22043571 -0.0099992072 0
-0.001276368 -0.22050092 0.010000794 0
0.0013686229 -0.22017458 -0.0099991988 0
0.0016191987 -0.22065745 0.010000804 0
0.0046288683 -0.22029212 -0.0099991867 0
0.0043880646 -0.220613 0.010000817 0
0.0073366188 -0.22048999 -0.0099991756 0
0.0073919878 -0.2209042 0.010000827 0
0.009696696 -0.22073056 -0.009733675 0
0.010000027 -0.22075363 -0.0072345622 0
0.010000019 -0.22067893 -0.0045409924 0
0.010000004 -0.22040269 -0.0015180372 0
0.0099999942 -0.22031173 0.0017931144 0
0.0099999821 -0.22039126 0.0044926689 0
0.00999997 -0.22058193 0.0078330757 0
0.0098584741 -0.22094093 0.0097952494 0
-0.0098909047 -0.21761131 -0.0097039873 0
-0.0099999746 -0.21760203 -0.0075195325 0
-0.0099999858 -0.21750663 -0.0042727171 0
-0.0099999933 -0.21773642 -0.0015921394 0
-0.010000007 -0.21764097 0.0015425959 0
-0.010000016 -0.21715917 0.0042234608 0
-0.010000028 -0.21703987 0.0075438786 0
-0.0096917646 -0.2176117 0.0097839572 0
-0.007459783 -0.21765091 -0.0099992389 0
-0.0075894319 -0.21734883 0.01000076 0
-0.0043576774 -0.21778314 -0.0099992286 0
-0.0045515001 -0.21746245 0.010000771 0
-0.0012681995 -0.2174972 -0.0099992184 0
-0.0014104688 -0.21744961 0.010000783 0
0.0017211585 -0.21771115 -0.0099992063 0
0.0015314524 -0.217476 0.010000791 0
0.0045417883 -0.21765454 -0.009999197 0
0.0046027172 -0.21742314 0.010000804 0
0.0076302849 -0.21763827 -0.009999183 0
0.0075185946 -0.21777284 0.010000815 0
0.0096186809 -0.21735926 -0.0098666735 0
0.010000029 -0.21791202 -0.0077580838 0
0.010000017 -0.21724387 -0.0043983269 0
0.010000003 -0.21760663 -0.0013946368 0
0.0099999923 -0.21778464 0.0015146869 0
0.0099999849 -0.21769099 0.004547609 0
0.0099999737 -0.21733393 0.007538252 0
0.0097845094 -0.21775092 0.0097691882 0
-0.0097658653 -0.21437952 -0.0096955812 0
-0.0099999746 -0.2144585 -0.0073181409 0
-0.0099999839 -0.21460922 -0.0045963731 0
-0.0099999942 -0.21444367 -0.0015377015 0
-0.010000005 -0.21454865 0.0012125502 0
-0.010000017 -0.21451789 0.0041403542 0
-0.010000027 -0.21426313 0.0077235284 0
-0.0097201774 -0.21484083 0.0097075766 0
-0.0071996422 -0.21453303 -0.0099992501 0
-0.0076344465 -0.21482934 0.01000075 0
-0.0042944625 -0.21454443 -0.0099992407 0
-0.0046979324 -0.21448681 0.010000761 0
-0.0017160266 -0.21419172 -0.0099992296 0
-0.0013930203 -0.21444756 0.010000773 0
0.0017555392 -0.21440405 -0.0099992184 0
0.0014403927 -0.214564 0.010000782 0
0.0043034693 -0.21459386 -0.0099992091 0
0.0046096998 -0.21465237 0.010000794 0
0.0075158905 -0.21426615 -0.0099991979 0
0.0075356774 -0.21432959 0.010000804 0
0.0097413426 -0.21456054 -0.0097591095 0
0.010000029 -0.21480873 -0.0073814145 0
0.010000015 -0.21492532 -0.0045506833 0
0.010000007 -0.21459888 -0.0014679697 0
0.0099999951 -0.21461765 0.0014717105 0
0.0099999849 -0.21473667 0.0044289166 0
0.0099999718 -0.21448672 0.0077155293 0
0.0097639794 -0.21457148 0.0099150455 0
-0.0097982287 -0.2114988 -0.0095790066 0
-0.0099999728 -0.21167207 -0.0073922668 0
-0.0099999839 -0.21117207 -0.0046792817 0
-0.0099999951 -0.21119207 -0.0016275233 0
-0.010000003 -0.21151789 0.0015724482 0
-0.010000017 -0.21156532 0.0042975461 0
-0.01000003 -0.21119276 0.0074599511 0
-0.0098171886 -0.21181163 0.0096183782 0
-0.0072872899 -0.21159054 -0.0099992603 0
-0.0074190679 -0.21140215 0.010000739 0
-0.0043589231 -0.21127221 -0.0099992519 0
-0.0043588537 -0.21155894 0.010000749 0
-0.0016049522 -0.21168859 -0.0099992398 0
-0.0017713483 -0.21136026 0.01000076 0
0.0016650612 -0.21156192 -0.0099992305 0
0.0014171521 -0.21150297 0.010000771 0
0.0046892948 -0.21158355 -0.0099992184 0
0.0045668231 -0.21150884 0.010000782 0
0.0076718382 -0.21164988 -0.0099992063 0
0.0073518879 -0.21154761 0.010000793 0
0.0097548673 -0.21144842 -0.0097991889 0
0.01000003 -0.21161781 -0.0073952312 0
0.010000017 -0.2116899 -0.0045545837 0
0.010000005 -0.21133973 -0.0013968123 0
0.0099999933 -0.21132132 0.00149174 0
0.0099999849 -0.21157157 0.004684322 0
0.0099999746 -0.211208 0.0075387931 0
0.0098556019 -0.21155764 0.0097461035 0
-0.0098686777 -0.20832069 -0.0096987803 0
-0.0099999737 -0.2086402 -0.0074215131 0
-0.0099999821 -0.2087843 -0.0045654732 0
-0.0099999951 -0.20863895 -0.0015245916 0
-0.010000006 -0.20845106 0.0015896611 0
-0.010000015 -0.20860702 0.0044922284 0
-0.010000028 -0.20837854 0.007279037 0
-0.0099323886 -0.20856529 0.0095355287 0
-0.007614613 -0.20822552 -0.0099992761 0
-0.0070393952 -0.20855509 0.010000731 0
-0.0045355167 -0.20837693 -0.0099992631 0
-0.004208195 -0.20843108 0.01000074 0
-0.001656963 -0.20842133 -0.0099992501 0
-0.0014238938 -0.20871641 0.010000749 0
0.0011539843 -0.20827933 -0.0099992426 0
0.0016535206 -0.20847024 0.010000761 0
0.0045051645 -0.20832634 -0.0099992286 0
0.004320886 -0.20842271 0.010000771 0
0.0073585343 -0.20847535 -0.0099992203 0
0.0076498897 -0.20820519 0.010000783 0
0.0097611584 -0.20853634 -0.0096344221 0
0.010000028 -0.20869344 -0.0074884044 0
0.010000018 -0.20829971 -0.0045519364 0
0.010000007 -0.20879301 -0.0016354162 0
0.0099999942 -0.20865977 0.0014459457 0
0.0099999867 -0.20877765 0.0040986538 0
0.0099999728 -0.20868845 0.007480768 0
0.0097304685 -0.20853759 0.0096124662 0
-0.0098583307 -0.20551156 -0.0096594738 0
-0.0099999709 -0.20550583 -0.0074805459 0
-0.0099999839 -0.20549554 -0.004694764 0
-0.0099999961 -0.20587832 -0.0013698768 0
-0.010000004 -0.20539702 0.0016012461 0
-0.010000019 -0.20561412 0.0048555546 0
-0.01000003 -0.20558263 0.0077801892 0
-0.0096771223 -0.20581566 0.0098676486 0
-0.0074787755 -0.20549685 -0.0099992817 0
-0.0076418412 -0.20550707 0.010000718 0
-0.0048550833 -0.20530847 -0.0099992752 0
-0.0044842781 -0.20542739 0.010000726 0
-0.0014709488 -0.20548145 -0.0099992603 0
-0.0015382374 -0.20544678 0.01000074 0
0.0012803288 -0.20539017 -0.009999251 0
0.001666061 -0.20543443 0.010000749 0
0.0044724983 -0.20559932 -0.0099992417 0
0.004455368 -0.20523697 0.01000076 0
0.0073647844 -0.20530178 -0.0099992314 0
0.007326623 -0.20551737 0.01000077 0
0.0097400723 -0.20561536 -0.0098887375 0
0.010000029 -0.20580085 -0.0077700191 0
0.010000018 -0.20567335 -0.0046515609 0
0.010000006 -0.20504338 -0.0016426056 0
0.009999997 -0.20572576 0.000951831 0
0.0099999839 -0.20536871 0.0045137717 0
0.0099999737 -0.20525178 0.0074424422 0
0.0095460964 -0.20547774 0.0099060088 0
-0.0096849911 -0.20258272 -0.0097058732 0
-0.0099999728 -0.203035 -0.0076039471 0
-0.0099999839 -0.20278603 -0.0046236888 0
-0.0099999951 -0.20237224 -0.001602327 0
-0.010000005 -0.20285457 0.0013787827 0
-0.010000017 -0.20251364 0.0043290169 0
-0.010000028 -0.2025252 0.0072014495 0
-0.0098649766 -0.20222454 0.0097454283 0
-0.0071812561 -0.20202306 -0.0099992966 0
-0.0077215084 -0.20264462 0.010000708 0
-0.0050038728 -0.20277579 -0.0099992855 0
-0.0046709129 -0.20250791 0.010000717 0
-0.0010224038 -0.20242701 -0.0099992706 0
-0.0016071795 -0.20240214 0.010000728 0
0.0015394379 -0.20227507 -0.0099992622 0
0.0017807347 -0.20221446 0.01000074 0
0.0041553876 -0.2024627 -0.0099992519 0
0.0043267962 -0.20257121 0.01000075 0
0.007474591 -0.20263569 -0.009999238 0
0.0075403042 -0.20266862 0.010000763 0
0.0097406758 -0.20254037 -0.0096930657 0
0.01000003 -0.20244904 -0.0076316982 0
0.010000016 -0.20225798 -0.0043289824 0
0.010000007 -0.20262973 -0.0014281957 0
0.0099999933 -0.20262043 0.001572785 0
0.0099999858 -0.20242436 0.0043514976 0
0.0099999746 -0.20251852 0.007471866 0
0.009674794 -0.20229678 0.009851858 0
-0.0097855525 -0.19951506 -0.0096899718 0
-0.00999997 -0.19935744 -0.0078752693 0
-0.0099999849 -0.19927216 -0.0045053279 0
-0.0099999942 -0.19953355 -0.0015906839 0
-0.010000006 -0.19954443 0.0014926421 0
-0.010000017 -0.19968174 0.0044732336 0
-0.010000028 -0.19965266 0.007343831 0
-0.0098096598 -0.19956036 0.0098558525 0
-0.0075341924 -0.19939014 -0.0099993041 0
-0.0072871922 -0.1994888 0.010000695 0
-0.0045711137 -0.19948462 -0.0099992966 0
-0.0045368699 -0.19945309 0.010000706 0
-0.0015490185 -0.19965149 -0.0099992836 0
-0.0017408447 -0.19976047 0.010000717 0
0.0017495689 -0.19949426 -0.0099992715 0
0.001584597 -0.19959934 0.010000729 0
0.0045445287 -0.19952202 -0.0099992612 0
0.0041615912 -0.1997592 0.010000736 0
0.0074237031 -0.19954219 -0.0099992519 0
0.0074858707 -0.19943042 0.010000749 0
0.0096709635 -0.19986458 -0.0098332074 0
0.010000029 -0.19957323 -0.0075118621 0
0.010000017 -0.19949464 -0.0044436622 0
0.010000008 -0.19903883 -0.0017218763 0
0.0099999942 -0.19932295 0.0016567368 0
0.0099999849 -0.19964276 0.0045349291 0
0.0099999728 -0.19968934 0.0074063214 0
0.0096578784 -0.19933602 0.0098323794 0
-0.009880458 -0.19671351 -0.0097453743 0
-0.0099999746 -0.19626883 -0.0073861526 0
-0.0099999821 -0.19633099 -0.004688906 0
-0.0099999961 -0.19672716 -0.0015130246 0
-0.010000006 -0.19630848 0.0016188739 0
-0.010000017 -0.19679612 0.004457965 0
-0.010000028 -0.19666131 0.007517423 0
-0.0096371435 -0.19658773 0.0096853925 0
-0.0074385731 -0.19660534 -0.0099993162 0
-0.0075936555 -0.19629914 0.010000684 0
-0.0042768647 -0.19671626 -0.0099993022 0
-0.0043489719 -0.1966386 0.010000696 0
-0.0015112525 -0.19658349 -0.0099992929 0
-0.0017411807 -0.19644365 0.010000705 0
0.0015535835 -0.1964823 -0.0099992817 0
0.0013840162 -0.19621067 0.010000715 0
0.0043040565 -0.19654506 -0.0099992715 0
0.0046150363 -0.19680592 0.010000731 0
0.0073231622 -0.19655581 -0.0099992631 0
0.0072352174 -0.19628879 0.010000737 0
0.0096594607 -0.19661114 -0.0097031789 0
0.01000003 -0.19637761 -0.0076652276 0
0.010000014 -0.19648428 -0.0043901172 0
0.010000006 -0.19653779 -0.0016427388 0
0.0099999951 -0.19657162 0.0013782727 0
0.0099999839 -0.19645643 0.0047079814 0
0.0099999737 -0.19654854 0.0074549909 0
0.0097694304 -0.19650611 0.0099574011 0
-0.0097495392 -0.19364466 -0.0097014774 0
-0.0099999746 -0.19362524 -0.0073705926 0
-0.0099999839 -0.19360273 -0.0044222944 0
-0.0099999961 -0.19353378 -0.001475753 0
-0.010000007 -0.19353501 0.0015911605 0
-0.010000017 -0.19374163 0.0043034148 0
-0.010000028 -0.19339825 0.0075362609 0
-0.009829171 -0.19330361 0.0096207261 0
-0.0076695532 -0.19357002 -0.0099993283 0
-0.0074196821 -0.19332355 0.010000673 0
-0.0042919219 -0.19370125 -0.0099993153 0
-0.0046867863 -0.19382758 0.010000685 0
-0.0015242436 -0.19346498 -0.0099993059 0
-0.0015328237 -0.19373223 0.010000697 0
0.0014134819 -0.1934706 -0.0099992929 0
0.0013497106 -0.1934239 0.010000704 0
0.0043992773 -0.19332884 -0.0099992855 0
0.0047152843 -0.19358499 0.010000718 0
0.0072959145 -0.19364695 -0.0099992733 0
0.0073848446 -0.19313821 0.010000726 0
0.0098237889 -0.19364202 -0.0096569862 0
0.010000028 -0.19367889 -0.0073428298 0
0.010000016 -0.19369613 -0.0045235357 0
0.010000004 -0.1936295 -0.0013068366 0
0.0099999951 -0.19335181 0.0016353241 0
0.0099999839 -0.19337659 0.0044329506 0
0.0099999746 -0.19344196 0.0073525165 0
0.0095748482 -0.19372503 0.0098697618 0
-0.0097628413 -0.19023332 -0.0096442187 0
-0.0099999728 -0.19089918 -0.0074077677 0
-0.0099999858 -0.19035888 -0.0041633402 0
-0.0099999951 -0.19042362 -0.0014582124 0
-0.010000005 -0.19039777 0.0014249504 0
-0.010000017 -0.19068205 0.0042293519 0
-0.010000027 -0.19042884 0.0074529061 0
-0.0099357441 -0.19043048 0.009603289 0
-0.0075947661 -0.19028747 -0.0099993385 0
-0.0078013404 -0.19070093 0.010000661 0
-0.0045686346 -0.19024916 -0.0099993302 0
-0.00453811 -0.19023745 0.010000672 0
-0.0017443555 -0.1907884 -0.0099993153 0
-0.0015990593 -0.19043957 0.010000685 0
0.0013356847 -0.19035314 -0.0099993069 0
0.0016858263 -0.19062597 0.010000695 0
0.0045551723 -0.19039698 -0.009999292 0
0.004664876 -0.19079211 0.010000709 0
0.0074529741 -0.19014379 -0.0099992855 0
0.007335207 -0.1907095 0.010000719 0
0.0096839825 -0.19012846 -0.0097903535 0
0.010000028 -0.19045992 -0.0074258754 0
0.010000019 -0.19085191 -0.0047845026 0
0.010000006 -0.19046834 -0.0015600848 0
0.0099999942 -0.19052738 0.0018694632 0
0.0099999821 -0.190391 0.004602999 0
0.0099999718 -0.1904701 0.007551495 0
0.0098306751 -0.19087566 0.0096584968 0
-0.0097481366 -0.18708961 -0.0097703394 0
-0.0099999718 -0.18742529 -0.0076210801 0
-0.0099999849 -0.18759283 -0.0045012832 0
-0.009999997 -0.18758693 -0.0013390614 0
-0.010000006 -0.18735608 0.0013718194 0
-0.010000018 -0.18748343 0.0046398412 0
-0.01000003 -0.18745656 0.0076767178 0
-0.0098691322 -0.18698983 0.0097206095 0
-0.0076266173 -0.18752441 -0.0099993506 0
-0.0076471134 -0.18726398 0.010000652 0
-0.0049132849 -0.187472 -0.0099993404 0
-0.0044270889 -0.18762387 0.010000664 0
-0.0013091173 -0.18759058 -0.0099993264 0
-0.0015218596 -0.18755209 0.010000672 0
0.0017052015 -0.1877134 -0.0099993143 0
0.0015683253 -0.18728901 0.010000684 0
0.0045057787 -0.18769562 -0.009999305 0
0.0041291364 -0.18750007 0.010000695 0
0.0077590747 -0.18773001 -0.0099992938 0
0.0075083403 -0.18747273 0.010000704 0
0.0098147718 -0.18744858 -0.0097604366 0
0.010000026 -0.1872475 -0.0075811273 0
0.010000014 -0.18779047 -0.0044111721 0
0.010000003 -0.18738419 -0.0012077604 0
0.009999997 -0.18781535 0.0012140477 0
0.0099999849 -0.18755434 0.0043639196 0
0.0099999737 -0.18735585 0.0075702867 0
0.0096978778 -0.18726556 0.0097375242 0
-0.0096954294 -0.18476762 -0.009833009 0
-0.0099999728 -0.18452448 -0.0075508952 0
-0.0099999812 -0.18463315 -0.00456597 0
-0.0099999933 -0.18463111 -0.0016149865 0
-0.010000004 -0.18445072 0.0012864106 0
-0.010000017 -0.18428071 0.0042626159 0
-0.010000027 -0.18452336 0.0074147382 0
-0.0097820284 -0.1846028 0.0097317565 0
-0.0076279333 -0.18453753 -0.0099993618 0
-0.0070816483 -0.18446474 0.010000641 0
-0.0042802352 -0.18451084 -0.0099993469 0
-0.0042820349 -0.18457988 0.010000654 0
-0.00095033279 -0.18445159 -0.0099993348 0
-0.0015024592 -0.18457617 0.010000663 0
0.001530692 -0.18435439 -0.0099993274 0
0.0017721333 -0.18455808 0.010000675 0
0.0048825596 -0.18413371 -0.0099993162 0
0.0041120951 -0.18469167 0.010000685 0
0.0075376537 -0.18452784 -0.0099993059 0
0.0077293981 -0.18446957 0.010000697 0
0.0098331189 -0.18450515 -0.0097142868 0
0.010000026 -0.18449168 -0.0073975073 0
0.010000019 -0.18461695 -0.004806695 0
0.010000004 -0.18456575 -0.0016366642 0
0.0099999942 -0.18465884 0.0013524294 0
0.0099999839 -0.18446366 0.0044896062 0
0.0099999756 -0.18432587 0.0072280453 0
0.0098491358 -0.18434691 0.0096644135 0
