# .PCD v0.7 - Point Cloud Data file format
VERSION 0.7
FIELDS x y z rgb
SIZE 4 4 4 4
TYPE F F F F
COUNT 1 1 1 1
WIDTH 1178
HEIGHT 1
VIEWPOINT 0 0 0 1 0 0 0
POINTS 1178
DATA ascii
-0.010000015 -0.14861983 0.0045000752 0
-0.01000003 -0.14829451 0.0075959899 0
-0.0096400902 -0.14808594 0.0098853149 0
-0.0073642209 -0.14854416 -0.0099994885 0
-0.0071841814 -0.14841796 0.010000508 0
-0.0046610222 -0.14838296 -0.0099994792 0
-0.0044053351 -0.14848575 0.010000523 0
-0.0016595831 -0.14864953 -0.0099994689 0
-0.00154735 -0.14855359 0.010000531 0
0.0014176982 -0.14836077 -0.0099994568 0
0.0012213959 -0.14840719 0.010000543 0
0.0044275178 -0.14849739 -0.0099994456 0
0.0043511614 -0.14830086 0.01000055 0
0.0073743849 -0.1484831 -0.0099994354 0
0.0074250577 -0.14853564 0.010000562 0
0.0098046958 -0.14843942 -0.009779199 0
0.010000025 -0.1484867 -0.00738271 0
0.010000015 -0.1484786 -0.0044027879 0
0.010000006 -0.14855237 -0.0015872169 0
0.0099999933 -0.14830159 0.0013092896 0
0.009999983 -0.14856705 0.0045607081 0
0.0099999737 -0.14827961 0.0077003562 0
0.0096889446 -0.14865503 0.0097501865 0
-0.0097267376 -0.14545883 -0.009665885 0
-0.0099999718 -0.1455836 -0.0074208332 0
-0.0099999849 -0.14565508 -0.0046163974 0
-0.0099999933 -0.14547715 -0.0014396772 0
-0.010000006 -0.14534795 0.001433668 0
-0.010000017 -0.14569698 0.00439404 0
-0.010000025 -0.14570257 0.0078459205 0
-0.0097266538 -0.1455431 0.0097947586 0
-0.0075428905 -0.14544819 -0.0099995006 0
-0.0074634827 -0.14532673 0.0100005 0
-0.0045962147 -0.14527059 -0.0099994894 0
-0.0047116964 -0.14553781 0.010000509 0
-0.001548838 -0.14551011 -0.0099994792 0
-0.0016476886 -0.14575617 0.010000524 0
0.0016045496 -0.14553981 -0.0099994643 0
0.0015336841 -0.14549972 0.010000531 0
0.0043567736 -0.1455612 -0.0099994568 0
0.0043185828 -0.14571615 0.010000544 0
0.0075085666 -0.14553869 -0.0099994447 0
0.0074596163 -0.14566372 0.010000554 0
0.0097754057 -0.14551596 -0.0097644785 0
0.010000025 -0.14532934 -0.0072108665 0
0.010000013 -0.14556555 -0.0043771272 0
0.010000004 -0.14560214 -0.0015961503 0
0.0099999951 -0.14548072 0.0017265535 0
0.009999983 -0.14530821 0.0044745407 0
0.0099999718 -0.14548843 0.007710008 0
0.0096579986 -0.14533713 0.0097520277 0
-0.0096873976 -0.1426606 -0.0098222299 0
-0.0099999709 -0.14284669 -0.0076590395 0
-0.0099999858 -0.1426935 -0.0043210182 0
-0.0099999923 -0.14229172 -0.0016239859 0
-0.010000003 -0.14264601 0.0014019196 0
-0.010000016 -0.14247112 0.0046745464 0
-0.010000028 -0.14245729 0.0080252169 0
-0.0097063277 -0.14258307 0.0097831115 0
-0.0072958525 -0.14246346 -0.009999508 0
-0.0076243994 -0.14273328 0.010000488 0
-0.0046034004 -0.14258125 -0.0099995006 0
-0.0045659342 -0.14266708 0.010000499 0
-0.0015478794 -0.14263025 -0.0099994885 0
-0.001415942 -0.14276281 0.010000509 0
0.0014706969 -0.14266923 -0.0099994764 0
0.001493098 -0.1423398 0.010000522 0
0.0045787869 -0.14231299 -0.009999468 0
0.0047473144 -0.14259422 0.010000533 0
0.0077869422 -0.14251833 -0.0099994577 0
0.0075553884 -0.14239189 0.010000543 0
0.0098512899 -0.14245024 -0.0095982971 0
0.010000027 -0.14259686 -0.0075120586 0
0.010000017 -0.14227608 -0.0044169277 0
0.010000004 -0.14243731 -0.0013800756 0
0.0099999914 -0.14261371 0.0015841123 0
0.0099999821 -0.14259098 0.0045773201 0
0.0099999709 -0.14269754 0.0073736487 0
0.009680286 -0.14247409 0.0098691033 0
-0.0096431775 -0.13928533 -0.0097481459 0
-0.0099999756 -0.13947766 -0.0072856755 0
-0.0099999812 -0.13961744 -0.004509395 0
-0.0099999951 -0.13949007 -0.0017122168 0
-0.010000006 -0.13950786 0.0013044633 0
-0.010000015 -0.13972095 0.0045185196 0
-0.010000028 -0.13960102 0.0075266967 0
-0.0097759562 -0.13947237 0.0097354278 0
-0.0075268704 -0.13937816 -0.0099995229 0
-0.0075557935 -0.13932306 0.010000476 0
-0.0044562072 -0.13960195 -0.009999509 0
-0.0042340821 -0.13944836 0.010000487 0
-0.0015639854 -0.13941328 -0.0099994997 0
-0.0015970501 -0.13941495 0.010000497 0
0.0013261046 -0.13947107 -0.0099994894 0
0.001746594 -0.13963808 0.010000512 0
0.0043495581 -0.13931638 -0.0099994782 0
0.0045729359 -0.13931212 0.01000052 0
0.0073944284 -0.1396406 -0.0099994652 0
0.0075962436 -0.13934378 0.01000053 0
0.0098255891 -0.1394179 -0.009707286 0
0.010000027 -0.13959543 -0.0074560363 0
0.010000014 -0.13919866 -0.0044424389 0
0.010000004 -0.13953803 -0.0014074192 0
0.0099999942 -0.13968299 0.0016152592 0
0.0099999821 -0.13931508 0.004715086 0
0.0099999737 -0.13945192 0.0075235423 0
0.0098098414 -0.13961966 0.0097696958 0
-0.0097443443 -0.13686435 -0.0097978208 0
-0.009999969 -0.13665953 -0.007603134 0
-0.0099999812 -0.13654041 -0.0045312871 0
-0.0099999942 -0.13646483 -0.0014047208 0
-0.010000004 -0.13641289 0.0014003607 0
-0.010000016 -0.13669346 0.0046148882 0
-0.010000024 -0.13632868 0.007261693 0
-0.0099152559 -0.13652855 0.0096323593 0
-0.0075069019 -0.1366799 -0.0099995295 0
-0.0074014175 -0.13635765 0.010000465 0
-0.0045575057 -0.13667193 -0.0099995201 0
-0.0043120743 -0.13632005 0.010000478 0
-0.0014403305 -0.13644288 -0.009999508 0
-0.0015784211 -0.13680762 0.010000488 0
0.0012084189 -0.13664345 -0.0099994997 0
0.0015097829 -0.13648197 0.010000497 0
0.0046351724 -0.13675705 -0.0099994866 0
0.0043886099 -0.13684636 0.010000513 0
0.0074571627 -0.13669127 -0.0099994773 0
0.0074262642 -0.13645159 0.010000522 0
0.0097401701 -0.13637714 -0.0098205786 0
0.01000003 -0.13631803 -0.0078671286 0
0.010000014 -0.13644768 -0.0043378389 0
0.010000006 -0.1366123 -0.0015095677 0
0.0099999942 -0.13626775 0.0015091724 0
0.009999983 -0.13637668 0.004340509 0
0.0099999709 -0.13650656 0.0074292747 0
0.0097797876 -0.13624136 0.0097639346 0
-0.0098441606 -0.13335429 -0.0096836397 0
-0.00999997 -0.13350873 -0.0074090571 0
-0.0099999821 -0.13348275 -0.004469947 0
-0.009999997 -0.1334933 -0.0013538691 0
-0.010000004 -0.13375202 0.0014701398 0
-0.010000013 -0.13348654 0.0044597504 0
-0.010000025 -0.1334278 0.0074715256 0
-0.0097260224 -0.13367689 0.0099212639 0
-0.0074662557 -0.13350883 -0.0099995425 0
-0.007674966 -0.13342136 0.010000455 0
-0.0041167354 -0.1335071 -0.0099995285 0
-0.0044870623 -0.1335316 0.010000466 0
-0.001532354 -0.13364822 -0.009999522 0
-0.0013229795 -0.13310747 0.010000478 0
0.0013284343 -0.13363412 -0.0099995108 0
0.0018415948 -0.13366835 0.010000492 0
0.0048386836 -0.1334464 -0.0099994997 0
0.0046270955 -0.13351092 0.010000498 0
0.0075223176 -0.13339205 -0.0099994894 0
0.007581952 -0.13340597 0.010000509 0
0.0097300373 -0.13372786 -0.0097863376 0
0.010000029 -0.13381216 -0.0074432855 0
0.010000015 -0.13356958 -0.0047280462 0
0.010000005 -0.1333909 -0.0011672119 0
0.0099999942 -0.13323911 0.0012488012 0
0.009999983 -0.13352756 0.0046155294 0
0.0099999709 -0.13355219 0.0073453062 0
0.0097796954 -0.13356195 0.0097302254 0
-0.0096710846 -0.13081352 -0.0098743187 0
-0.0099999709 -0.13056588 -0.0075268862 0
-0.0099999821 -0.13047718 -0.0046608485 0
-0.0099999923 -0.13050903 -0.0013650315 0
-0.010000003 -0.13056894 0.0012559156 0
-0.010000017 -0.13034983 0.0046768989 0
-0.010000025 -0.13072465 0.0075136959 0
-0.0096516972 -0.13029814 0.0097525837 0
-0.0075362371 -0.13072175 -0.0099995537 0
-0.0074550598 -0.13061941 0.010000447 0
-0.0043498874 -0.13055949 -0.0099995416 0
-0.0045890245 -0.13035017 0.010000454 0
-0.0013568389 -0.13051106 -0.0099995313 0
-0.0014724671 -0.13071653 0.010000465 0
0.0016362445 -0.13054393 -0.0099995201 0
0.0016772558 -0.13057522 0.01000048 0
0.0044602612 -0.13035272 -0.0099995127 0
0.004698229 -0.13057812 0.010000492 0
0.0072573181 -0.13057658 -0.0099995006 0
0.0076164589 -0.13066311 0.010000503 0
0.0097442959 -0.13015339 -0.0098042982 0
0.01000003 -0.13079044 -0.0076594013 0
0.010000017 -0.1303063 -0.0045204666 0
0.010000004 -0.13051802 -0.0014188667 0
0.0099999923 -0.1304936 0.0017175897 0
0.0099999839 -0.13078099 0.0045071705 0
0.0099999728 -0.13048534 0.0075825732 0
0.0097302767 -0.13050027 0.0098014362 0
-0.0096981777 -0.12753117 -0.0097564515 0
-0.0099999709 -0.12738328 -0.0073342123 0
-0.0099999821 -0.12754558 -0.0045633689 0
-0.0099999951 -0.12760495 -0.0012429759 0
-0.010000004 -0.12757097 0.0015552536 0
-0.010000014 -0.12729688 0.0042788689 0
-0.010000024 -0.12740143 0.0073356386 0
-0.0095495116 -0.12733428 0.0098818941 0
-0.007578169 -0.12747779 -0.009999563 0
-0.0076156491 -0.12745869 0.010000433 0
-0.0047111395 -0.12772647 -0.0099995555 0
-0.0042377594 -0.1275868 0.010000445 0
-0.0015400271 -0.12745953 -0.0099995453 0
-0.0015069123 -0.12738331 0.010000452 0
0.0014601668 -0.1273784 -0.0099995332 0
0.0014040065 -0.12743638 0.010000464 0
0.0043740734 -0.12744448 -0.0099995211 0
0.0044657015 -0.12731308 0.010000478 0
0.0076033687 -0.12749095 -0.009999509 0
0.0075744209 -0.12743008 0.010000489 0
0.0096965497 -0.12780601 -0.0097255539 0
0.010000025 -0.12753822 -0.0075348751 0
0.010000015 -0.12726125 -0.0043558246 0
0.010000006 -0.12752131 -0.0015367817 0
0.0099999923 -0.12717065 0.0014849836 0
0.0099999858 -0.12738328 0.004163411 0
0.009999969 -0.12759058 0.0076743457 0
0.0097045759 -0.12766546 0.009776325 0
-0.009831503 -0.12456065 -0.0096853087 0
-0.0099999737 -0.12456854 -0.00756991 0
-0.0099999802 -0.12460426 -0.0047688335 0
-0.0099999933 -0.12463642 -0.0016672798 0
-0.010000003 -0.12451183 0.001523125 0
-0.010000019 -0.12481347 0.0047858162 0
-0.010000024 -0.12461878 0.0074126325 0
-0.0097838221 -0.12446074 0.0098386658 0
-0.0072444696 -0.12465325 -0.009999576 0
-0.0075350129 -0.12443163 0.010000425 0
-0.0043805707 -0.1243016 -0.0099995648 0
-0.0047006113 -0.12432902 0.010000434 0
-0.001417566 -0.12466197 -0.0099995518 0
-0.0015469396 -0.12462404 0.010000446 0
0.0015094306 -0.12457715 -0.0099995406 0
0.001429515 -0.12439806 0.010000456 0
0.0042483825 -0.12427542 -0.009999536 0
0.0042847139 -0.12446807 0.010000465 0
0.007557713 -0.12454664 -0.009999522 0
0.007206561 -0.12434157 0.010000476 0
0.0097019244 -0.12410018 -0.0098721823 0
0.010000028 -0.12438329 -0.0075760651 0
0.010000013 -0.12449089 -0.0042905705 0
0.010000003 -0.12440182 -0.0013732276 0
0.0099999923 -0.1245442 0.0016694661 0
0.0099999812 -0.12465374 0.0044388445 0
0.0099999718 -0.12459353 0.0075708707 0
0.0096700657 -0.1241056 0.0097138248 0
-0.0097005134 -0.12158982 -0.0097514745 0
-0.0099999709 -0.12177807 -0.0077568223 0
-0.0099999821 -0.12147705 -0.0046270634 0
-0.0099999923 -0.12172347 -0.0017798591 0
-0.010000004 -0.12149353 0.0016089849 0
-0.010000015 -0.12151418 0.0043993704 0
-0.010000025 -0.12170083 0.0074936533 0
-0.009787715 -0.12138947 0.0096667297 0
-0.0076113301 -0.12113017 -0.0099995891 0
-0.0075273467 -0.12165701 0.010000412 0
-0.0046806964 -0.1212711 -0.0099995779 0
-0.0045120423 -0.12148597 0.010000422 0
-0.0014203999 -0.12122808 -0.0099995639 0
-0.0013925014 -0.12128864 0.010000435 0
0.0014201978 -0.12142853 -0.0099995527 0
0.0014073594 -0.12139823 0.010000446 0
0.0046200105 -0.12137493 -0.0099995406 0
0.0046739806 -0.1213491 0.010000454 0
0.0077169207 -0.12167054 -0.0099995285 0
0.0073667313 -0.12158938 0.010000466 0
0.0098997978 -0.12116991 -0.0096616326 0
0.010000028 -0.12124297 -0.0075205965 0
0.010000015 -0.12159908 -0.0045810728 0
0.010000004 -0.12118582 -0.0014674891 0
0.0099999923 -0.12170615 0.0014869822 0
0.009999983 -0.12159198 0.0045775417 0
0.0099999709 -0.12146099 0.0075661908 0
0.0097348262 -0.12141372 0.0097701224 0
-0.0097575402 -0.11868314 -0.0098156938 0
-0.0099999718 -0.11853082 -0.0080153765 0
-0.0099999793 -0.11845592 -0.0048648119 0
-0.009999997 -0.1184864 -0.0011392437 0
-0.010000003 -0.11835235 0.00138416 0
-0.010000013 -0.11861899 0.0043043075 0
-0.010000028 -0.11842447 0.0073458818 0
-0.0096021397 -0.11878528 0.0098415976 0
-0.0075686667 -0.11846118 -0.0099995984 0
-0.0071152463 -0.1186012 0.010000404 0
-0.0042807977 -0.11834259 -0.0099995853 0
-0.0045079621 -0.11864055 0.010000414 0
-0.0014570678 -0.11834434 -0.0099995788 0
-0.0013715437 -0.11866964 0.010000424 0
0.0015249662 -0.11850595 -0.0099995667 0
0.0014325499 -0.11823526 0.010000435 0
0.0044160439 -0.11862006 -0.0099995555 0
0.004545154 -0.11810824 0.010000442 0
0.0075667803 -0.11863746 -0.0099995453 0
0.0072119464 -0.1184267 0.010000456 0
0.0097182952 -0.1185759 -0.0098040905 0
0.010000026 -0.11837406 -0.0073223845 0
0.010000017 -0.11847863 -0.004506066 0
0.010000004 -0.11816069 -0.0014017456 0
0.0099999933 -0.1186626 0.001544015 0
0.009999983 -0.11838646 0.0046841991 0
0.0099999728 -0.11860194 0.0075905304 0
0.009673899 -0.11853081 0.0098245218 0
-0.0097077424 -0.11557661 -0.0097147636 0
-0.0099999737 -0.11540812 -0.0075341356 0
-0.009999983 -0.11532523 -0.0044792905 0
-0.0099999961 -0.11567365 -0.0013516651 0
-0.010000006 -0.11553051 0.0015916877 0
-0.010000016 -0.11526263 0.0045565087 0
-0.010000024 -0.11562815 0.0072593968 0
-0.0097084632 -0.11546915 0.0097998688 0
-0.0078798244 -0.11552862 -0.0099996086 0
-0.0072000572 -0.11550242 0.010000393 0
-0.0045222002 -0.11553886 -0.0099995993 0
-0.0047556292 -0.11545181 0.010000399 0
-0.0013522335 -0.11567067 -0.0099995835 0
-0.0015984511 -0.11576063 0.010000414 0
0.0019088126 -0.11580548 -0.0099995751 0
0.0013500259 -0.11593325 0.010000424 0
0.0043742354 -0.11562708 -0.0099995667 0
0.0045511951 -0.11536274 0.010000435 0
0.007788742 -0.11521168 -0.0099995565 0
0.0072172438 -0.11542037 0.010000443 0
0.0097266603 -0.11506642 -0.0097140884 0
0.010000026 -0.11550511 -0.0074619432 0
0.010000015 -0.11559834 -0.0039390819 0
0.010000004 -0.1150521 -0.0011792665 0
0.0099999933 -0.11540391 0.0014240823 0
0.0099999849 -0.1155445 0.004249346 0
0.0099999728 -0.11562409 0.0075740535 0
0.0095172254 -0.11535696 0.0098664491 0
-0.0099048717 -0.11298586 -0.0097196102 0
-0.0099999746 -0.11248976 -0.0071827318 0
-0.0099999839 -0.11245985 -0.0043666097 0
-0.0099999923 -0.11242152 -0.0018062631 0
-0.010000003 -0.11261082 0.0013556826 0
-0.010000017 -0.11215903 0.0048392988 0
-0.010000027 -0.11269293 0.0073185121 0
-0.009660786 -0.11246381 0.0098106237 0
-0.0075105228 -0.11238037 -0.0099996207 0
-0.0073489863 -0.11228594 0.010000377 0
-0.004394982 -0.11243687 -0.0099996077 0
-0.0045218552 -0.11245126 0.010000393 0
-0.0016477092 -0.11225732 -0.0099996002 0
-0.0012905535 -0.1124167 0.010000399 0
0.0016003873 -0.11265523 -0.0099995872 0
0.0016469387 -0.11273731 0.010000415 0
0.0045878114 -0.11269208 -0.0099995742 0
0.0047850995 -0.11243325 0.010000424 0
0.0073482324 -0.1125037 -0.0099995639 0
0.0073888861 -0.11255059 0.010000435 0
0.0097857574 -0.11295674 -0.0097497869 0
0.010000028 -0.11235461 -0.0076255738 0
0.010000017 -0.11294398 -0.0046793679 0
0.010000007 -0.11216292 -0.0016847274 0
0.0099999951 -0.11258274 0.0013618999 0
0.0099999839 -0.11235754 0.0042922348 0
0.0099999709 -0.11246622 0.0074520241 0
0.0098549938 -0.11253497 0.009627305 0
-0.0096968198 -0.10926719 -0.0097690057 0
-0.0099999728 -0.1095321 -0.0076359762 0
-0.0099999821 -0.10974391 -0.0046164044 0
-0.0099999951 -0.10961198 -0.0015401463 0
-0.010000004 -0.10965848 0.0013415675 0
-0.010000016 -0.10955697 0.0044027581 0
-0.010000029 -0.10950831 0.0075757466 0
-0.0098015005 -0.10968259 0.0096532525 0
-0.0075508831 -0.10967666 -0.00999963 0
-0.0075441748 -0.10972279 0.010000368 0
-0.0041783545 -0.10958494 -0.0099996161 0
-0.0044098906 -0.10948297 0.010000379 0
-0.0012376317 -0.10965234 -0.0099996068 0
-0.0014843626 -0.10974018 0.010000389 0
0.0016598988 -0.10970744 -0.0099995993 0
0.0015356666 -0.10967834 0.010000404 0
0.0044763568 -0.10930407 -0.0099995844 0
0.0045797387 -0.10959725 0.010000415 0
0.0073892763 -0.10950877 -0.0099995732 0
0.0074182712 -0.10955843 0.010000425 0
0.009677683 -0.10968994 -0.0097426707 0
0.010000026 -0.10965034 -0.0074818586 0
0.010000016 -0.10951758 -0.0046687252 0
0.010000004 -0.10925348 -0.0015480767 0
0.0099999923 -0.10914116 0.0016357404 0
0.0099999802 -0.10937752 0.0046179537 0
0.0099999746 -0.10935926 0.0072868909 0
0.0097343344 -0.10934767 0.0097829308 0
-0.0097410865 -0.10634203 -0.0098668989 0
-0.0099999728 -0.10643341 -0.0076814815 0
-0.0099999812 -0.10637938 -0.0045920028 0
-0.0099999942 -0.10669459 -0.0012738138 0
-0.010000005 -0.10642591 0.0015823685 0
-0.010000018 -0.10660574 0.0046356935 0
-0.010000026 -0.10635189 0.0076445867 0
-0.0097717056 -0.10654519 0.00969241 0
-0.0074084159 -0.10648587 -0.0099996403 0
-0.0075130546 -0.10638737 0.010000359 0
-0.0046802121 -0.10659603 -0.0099996328 0
-0.0045645391 -0.10659822 0.010000368 0
-0.0011800852 -0.10625733 -0.0099996179 0
-0.0012895734 -0.10656751 0.01000038 0
0.0015729546 -0.10674338 -0.0099996086 0
0.0014805704 -0.10659904 0.010000392 0
0.0045679593 -0.10653815 -0.0099995984 0
0.0047133826 -0.10657106 0.010000401 0
0.0075187869 -0.1064368 -0.0099995863 0
0.0074709854 -0.10632733 0.010000412 0
0.0097432276 -0.10656939 -0.0097903619 0
0.010000026 -0.10652661 -0.0075646904 0
0.010000015 -0.10663912 -0.0044137738 0
0.010000007 -0.10651634 -0.0015276877 0
0.0099999951 -0.10638867 0.0015194187 0
0.0099999839 -0.10637493 0.0046771937 0
0.009999969 -0.10647559 0.0074987002 0
0.0099092079 -0.10631416 0.0097208545 0
-0.0096843773 -0.10345089 -0.0097510777 0
-0.00999997 -0.10337271 -0.007491563 0
-0.0099999812 -0.10342173 -0.0043968051 0
-0.0099999942 -0.10347573 -0.0013385763 0
-0.010000004 -0.10346362 0.0014321612 0
-0.010000016 -0.10325912 0.0045970534 0
-0.010000024 -0.103605 0.0075336187 0
-0.0096222693 -0.10338286 0.0098871402 0
-0.0076936511 -0.10344205 -0.0099996543 0
-0.0075499993 -0.10356759 0.01000035 0
-0.0046817544 -0.10334723 -0.0099996403 0
-0.0043903072 -0.10356005 0.010000359 0
-0.0013788977 -0.103448 -0.00999963 0
-0.0018799679 -0.10352926 0.010000369 0
0.0013267521 -0.10353329 -0.0099996198 0
0.0013746228 -0.10331231 0.010000379 0
0.0046903039 -0.10341816 -0.0099996077 0
0.0046284068 -0.10350645 0.01000039 0
0.0077288779 -0.10368395 -0.0099995956 0
0.007439211 -0.1036249 0.010000403 0
0.009757054 -0.10356146 -0.0097188735 0
0.010000025 -0.10352105 -0.0076105641 0
0.010000016 -0.10362323 -0.0046277014 0
0.010000004 -0.10359786 -0.0014600084 0
0.0099999933 -0.10339867 0.0014602131 0
0.0099999849 -0.10364577 0.0044224877 0
0.0099999718 -0.10353538 0.0077564162 0
0.0097805215 -0.1036959 0.0096381782 0
-0.0096348375 -0.1006623 -0.0097635407 0
-0.00999997 -0.10024907 -0.0073331692 0
-0.0099999812 -0.10073099 -0.0046165814 0
-0.0099999923 -0.10040627 -0.0015170388 0
-0.010000004 -0.10063142 0.0017591426 0
-0.010000018 -0.10062577 0.0046211979 0
-0.010000028 -0.1005899 0.0075442931 0
-0.0096369432 -0.10060072 0.0098112356 0
-0.0076819812 -0.10016267 -0.0099996664 0
-0.0074837445 -0.10026538 0.010000337 0
-0.0043611936 -0.10064257 -0.0099996524 0
-0.0045316159 -0.10070984 0.010000344 0
-0.0013931434 -0.10046611 -0.0099996375 0
-0.0013589596 -0.10050641 0.01000036 0
0.0018677686 -0.10037423 -0.0099996291 0
0.0014721463 -0.10051681 0.010000369 0
0.0044047399 -0.10067439 -0.0099996179 0
0.0045179673 -0.10034961 0.010000378 0
0.0073185568 -0.10083412 -0.0099996096 0
0.0074486337 -0.10046338 0.010000391 0
0.0098381946 -0.10035503 -0.0096670594 0
0.010000027 -0.10056263 -0.0077718771 0
0.010000016 -0.10045836 -0.0043973452 0
0.010000004 -0.10045875 -0.0016769788 0
0.0099999942 -0.10035773 0.0015543797 0
0.0099999812 -0.10033701 0.0045647873 0
0.00999997 -0.10076613 0.007462169 0
0.0096278172 -0.10029584 0.0098184347 0
-0.0096966708 -0.097215578 -0.0098311771 0
-0.0099999746 -0.097261958 -0.0074996199 0
-0.0099999821 -0.097296052 -0.0046241707 0
-0.0099999933 -0.097280845 -0.0014441084 0
-0.010000004 -0.097359449 0.0014023263 0
-0.010000015 -0.09736982 0.0045814528 0
-0.010000027 -0.097731322 0.0076747597 0
-0.0097761033 -0.097510204 0.0098024411 0
-0.0073565333 -0.097517036 -0.0099996747 0
-0.0075832056 -0.097607076 0.010000326 0
-0.0045183818 -0.097175986 -0.0099996626 0
-0.0041576014 -0.097601734 0.010000337 0
-0.0013354368 -0.097644337 -0.0099996524 0
-0.0014122861 -0.097661115 0.010000346 0
0.001406631 -0.097624019 -0.0099996403 0
0.0017660962 -0.097606912 0.010000357 0
0.0045754472 -0.097745501 -0.0099996282 0
0.0043878458 -0.097660951 0.010000367 0
0.0075356434 -0.097565368 -0.0099996189 0
0.0074017984 -0.097383738 0.010000379 0
0.0097162994 -0.097714081 -0.0097630862 0
0.010000028 -0.097492047 -0.0073003299 0
0.010000016 -0.097424284 -0.0042497832 0
0.010000004 -0.097630925 -0.0014403414 0
0.0099999961 -0.097689919 0.0016311286 0
0.0099999821 -0.097454622 0.0045396946 0
0.0099999737 -0.097783096 0.0073805526 0
0.0097339889 -0.097341299 0.0097100101 0
-0.0098424917 -0.094599888 -0.009651172 0
-0.009999969 -0.094541483 -0.0076448973 0
-0.0099999802 -0.094631359 -0.0045115412 0
-0.0099999933 -0.0946026 -0.0014083921 0
-0.010000003 -0.094028711 0.0013710663 0
-0.010000017 -0.094516411 0.0045465874 0
-0.010000025 -0.094369955 0.0074287974 0
-0.0096830502 -0.094344601 0.0098579396 0
-0.0073298523 -0.094491102 -0.0099996831 0
-0.0075217313 -0.094593756 0.010000314 0
-0.0045917351 -0.094497375 -0.0099996747 0
-0.0046587288 -0.094662532 0.010000326 0
-0.0013811815 -0.094449967 -0.0099996608 0
-0.0012446105 -0.094630763 0.010000337 0
0.0014886642 -0.094606109 -0.0099996524 0
0.0015091331 -0.094356604 0.010000345 0
0.0044580977 -0.094573118 -0.0099996412 0
0.0044243163 -0.094377063 0.010000356 0
0.0077829491 -0.09454073 -0.0099996282 0
0.0075587127 -0.094611607 0.010000369 0
0.0098068723 -0.093993314 -0.0097180111 0
0.010000025 -0.094357081 -0.0075399778 0
0.010000016 -0.094609089 -0.0042866976 0
0.010000004 -0.094391339 -0.0016089433 0
0.0099999961 -0.09465833 0.001368418 0
0.0099999821 -0.09457171 0.0048586759 0
0.0099999728 -0.094607815 0.0075089051 0
0.0096775703 -0.094648495 0.009812084 0
-0.0098066032 -0.091682695 -0.0098206857 0
-0.0099999709 -0.091696754 -0.0074621588 0
-0.0099999821 -0.091518797 -0.0044540884 0
-0.0099999961 -0.091305651 -0.0014310948 0
-0.010000005 -0.091484368 0.001747623 0
-0.010000015 -0.091381989 0.0042011444 0
-0.010000025 -0.091637366 0.0075618606 0
-0.0097770393 -0.091611207 0.0098437136 0
-0.0075223334 -0.091481768 -0.0099996943 0
-0.0076982584 -0.091207393 0.010000302 0
-0.0044952873 -0.091747314 -0.0099996822 0
-0.0044151298 -0.091504306 0.010000316 0
-0.0015320792 -0.091733098 -0.009999672 0
-0.0015472232 -0.091200754 0.010000322 0
0.001498203 -0.091105707 -0.0099996617 0
0.0017402951 -0.091374569 0.010000337 0
0.004426097 -0.091607638 -0.0099996515 0
0.0046188864 -0.091562763 0.010000346 0
0.0076436927 -0.091696538 -0.0099996384 0
0.0075973887 -0.091626503 0.010000357 0
0.0097608874 -0.091097228 -0.0097773215 0
0.010000028 -0.091289788 -0.0075008143 0
0.010000015 -0.091441654 -0.0044182767 0
0.010000004 -0.091672026 -0.0015324544 0
0.0099999942 -0.091534033 0.0014510466 0
0.0099999849 -0.091493398 0.0044453577 0
0.00999997 -0.091474429 0.007650312 0
0.009772948 -0.091435224 0.0097255083 0
-0.0099047376 -0.08815138 -0.0096277259 0
-0.0099999737 -0.088604555 -0.0075505902 0
-0.0099999802 -0.088700779 -0.0047980626 0
-0.0099999933 -0.088456161 -0.001648575 0
-0.010000004 -0.088850982 0.0016757481 0
-0.010000016 -0.088505641 0.0045968373 0
-0.010000025 -0.088444948 0.00756317 0
-0.0097913565 -0.088249296 0.0097635975 0
-0.0075584408 -0.088506177 -0.0099997036 0
-0.0072582108 -0.088587388 0.010000295 0
-0.0041354494 -0.088428937 -0.0099996934 0
-0.0048098997 -0.08826068 0.010000302 0
-0.0015885513 -0.088254333 -0.0099996869 0
-0.0015212242 -0.088324845 0.010000312 0
0.0015859896 -0.088455945 -0.0099996747 0
0.0014990235 -0.088610798 0.010000324 0
0.0045826738 -0.088446826 -0.0099996626 0
0.0045888098 -0.088552795 0.010000336 0
0.0074458802 -0.088488832 -0.0099996533 0
0.0075414558 -0.08862707 0.010000345 0
0.0097882412 -0.088462606 -0.0097635332 0
0.010000025 -0.088292904 -0.0075431988 0
0.010000014 -0.088848047 -0.004296056 0
0.010000008 -0.088411078 -0.0017276468 0
0.0099999933 -0.088750757 0.0014703022 0
0.0099999849 -0.08823964 0.0042891768 0
0.0099999709 -0.088395402 0.0074714129 0
0.0097539099 -0.08819247 0.0097350264 0
-0.0098480415 -0.086052224 -0.0097127156 0
-0.0099999709 -0.085590973 -0.0075680539 0
-0.0099999858 -0.085831985 -0.0044881981 0
-0.0099999942 -0.085500866 -0.001360969 0
-0.010000005 -0.085509323 0.0013782935 0
-0.010000015 -0.085194953 0.0045265327 0
-0.010000026 -0.085563369 0.0074011455 0
-0.0098211216 -0.085515857 0.0097439792 0
-0.007600409 -0.085333489 -0.0099997176 0
-0.0073796222 -0.08571475 0.010000283 0
-0.0045031626 -0.085525401 -0.0099997055 0
-0.0044962373 -0.085403301 0.010000291 0
-0.0016685107 -0.085451812 -0.0099996962 0
-0.0017441678 -0.085493423 0.010000302 0
0.0015376788 -0.085385814 -0.0099996822 0
0.0014066417 -0.085637502 0.010000315 0
0.0047071353 -0.08536832 -0.0099996738 0
0.00456831 -0.085290134 0.010000325 0
0.0073277075 -0.085334033 -0.0099996636 0
0.0073501794 -0.085622981 0.010000335 0
0.0098242452 -0.085481018 -0.0095639527 0
0.010000024 -0.085753471 -0.0072435909 0
0.010000016 -0.085521422 -0.0047170687 0
0.010000004 -0.085773267 -0.0017566592 0
0.0099999923 -0.08563894 0.0014442718 0
0.0099999849 -0.08527185 0.0046223593 0
0.0099999737 -0.085354209 0.0075687366 0
0.0097831599 -0.085550889 0.0096651763 0
-0.0098600378 -0.082635984 -0.0097461026 0
-0.0099999737 -0.082628638 -0.0075542652 0
-0.0099999821 -0.082591839 -0.0043382845 0
-0.0099999933 -0.08258564 -0.0015492813 0
-0.010000004 -0.082399674 0.0012846451 0
-0.010000017 -0.082652763 0.0045757429 0
-0.010000027 -0.08271011 0.0077222027 0
-0.0097199436 -0.082527764 0.009720888 0
-0.0073211212 -0.082686588 -0.009999726 0
-0.0073812907 -0.082322061 0.010000269 0
-0.0045800405 -0.082642183 -0.0099997157 0
-0.0044811796 -0.082683586 0.010000283 0
-0.0016019903 -0.082319692 -0.0099997045 0
-0.0014602157 -0.082672052 0.010000294 0
0.0014916847 -0.082391217 -0.0099996952 0
0.0015862196 -0.082597129 0.010000303 0
0.0043269158 -0.082747892 -0.0099996859 0
0.0043291785 -0.082445435 0.010000313 0
0.0074761212 -0.082222223 -0.0099996757 0
0.0075966371 -0.082405582 0.010000327 0
0.0096242977 -0.082480401 -0.0098845921 0
0.010000026 -0.082640544 -0.0073977802 0
0.010000017 -0.082522981 -0.0048003998 0
0.010000003 -0.082299232 -0.0014031264 0
0.0099999942 -0.082212321 0.0012339747 0
0.0099999839 -0.082549877 0.0043368847 0
0.0099999737 -0.082564361 0.0077643488 0
0.0097754635 -0.08254426 0.0096787736 0
-0.0097650038 -0.079327241 -0.0097252727 0
-0.0099999718 -0.079350621 -0.007357772 0
-0.0099999839 -0.079563513 -0.004521545 0
-0.0099999933 -0.079515822 -0.001620899 0
-0.010000003 -0.079503186 0.0013881304 0
-0.010000017 -0.079755284 0.0043471423 0
-0.010000028 -0.079486184 0.0076962211 0
-0.0097912662 -0.079636507 0.0096567739 0
-0.0075531439 -0.079629943 -0.0099997362 0
-0.0075085736 -0.079441406 0.010000261 0
-0.0046761208 -0.079625778 -0.0099997269 0
-0.0043454617 -0.07935641 0.01000027 0
-0.0014690865 -0.07969673 -0.0099997157 0
-0.0017463786 -0.079378225 0.01000028 0
0.0014355549 -0.079353027 -0.0099997064 0
0.0013240572 -0.079685204 0.010000291 0
0.00446838 -0.079647303 -0.0099996943 0
0.0043955538 -0.079552241 0.010000304 0
0.0071677179 -0.079557359 -0.0099996841 0
0.0076742689 -0.079586007 0.010000315 0
0.0096839005 -0.079528302 -0.0097573623 0
0.010000025 -0.07951922 -0.0074677174 0
0.010000017 -0.079334006 -0.0045328788 0
0.010000005 -0.079590596 -0.0014462274 0
0.0099999951 -0.07978566 0.0015705035 0
0.0099999821 -0.07956481 0.0046648621 0
0.0099999718 -0.079489507 0.0074622142 0
0.009733988 -0.079603158 0.0098609999 0
-0.0097182021 -0.076623157 -0.0096400725 0
-0.0099999728 -0.076531686 -0.0074066301 0
-0.0099999812 -0.076360635 -0.0045504319 0
-0.0099999933 -0.076468796 -0.0017089491 0
-0.010000007 -0.076398022 0.0017952744 0
-0.010000018 -0.07661736 0.00463353 0
-0.010000027 -0.076578543 0.0075306813 0
-0.0097787362 -0.076552205 0.0097548887 0
-0.0075396532 -0.076454572 -0.009999752 0
-0.0075972304 -0.076435931 0.010000248 0
-0.0043775477 -0.07674925 -0.0099997371 0
-0.0045513338 -0.076450966 0.010000257 0
-0.0015136545 -0.076306984 -0.0099997288 0
-0.0012047302 -0.076446332 0.010000269 0
0.0015313238 -0.076460674 -0.0099997167 0
0.0013555737 -0.076397434 0.010000278 0
0.0043493896 -0.076296695 -0.0099997055 0
0.0047712442 -0.076414101 0.010000295 0
0.0074953353 -0.076565892 -0.0099996971 0
0.0077814437 -0.076509386 0.010000302 0
0.009715992 -0.076466359 -0.0097122053 0
0.010000024 -0.076383449 -0.0074007609 0
0.010000017 -0.076381437 -0.0045790942 0
0.010000007 -0.076446302 -0.0015725421 0
0.0099999914 -0.076734409 0.001683928 0
0.0099999858 -0.07655254 0.0044778823 0
0.0099999728 -0.07665097 0.007652849 0
0.0096428953 -0.076418035 0.0098435115 0
-0.0095897513 -0.073370956 -0.0097906087 0
-0.0099999737 -0.07336922 -0.007399702 0
-0.0099999802 -0.073351093 -0.0048494036 0
-0.009999997 -0.073663458 -0.0012991799 0
-0.010000004 -0.073552124 0.0016319783 0
-0.010000016 -0.073624231 0.0043044062 0
-0.010000026 -0.07335452 0.0073533668 0
-0.0098244101 -0.073819198 0.0097393068 0
-0.0074874279 -0.073507637 -0.0099997604 0
-0.007366817 -0.073438361 0.01000024 0
-0.0041893204 -0.073543154 -0.0099997502 0
-0.0043645101 -0.073422663 0.010000248 0
-0.0015598397 -0.073359296 -0.0099997371 0
-0.0010596359 -0.073373295 0.010000263 0
0.0016976896 -0.073397323 -0.0099997269 0
0.0012418632 -0.073551521 0.010000269 0
0.0046366607 -0.073496379 -0.0099997176 0
0.0044157668 -0.073345989 0.01000028 0
0.0074024736 -0.073383979 -0.0099997055 0
0.0075197569 -0.073463224 0.010000292 0
0.0097263632 -0.073483564 -0.0097113382 0
0.010000023 -0.073403552 -0.0074133789 0
0.010000018 -0.073511474 -0.0046320152 0
0.010000004 -0.073346719 -0.001532726 0
0.0099999914 -0.073632382 0.0015975294 0
0.0099999821 -0.073505066 0.0042828112 0
0.0099999718 -0.073243864 0.0074947537 0
0.0097981608 -0.073254324 0.0097414982 0
-0.0096925376 -0.070822515 -0.0098148976 0
-0.0099999737 -0.070726633 -0.0076522171 0
-0.0099999849 -0.070658676 -0.0044947667 0
-0.0099999933 -0.07070756 -0.001584403 0
-0.010000006 -0.07050658 0.0014635505 0
-0.010000015 -0.070502043 0.0046989676 0
-0.010000026 -0.070368677 0.0072652544 0
-0.0098896697 -0.070604697 0.0096813841 0
-0.0074367076 -0.070181504 -0.0099997707 0
-0.0074766856 -0.070204511 0.010000225 0
-0.0046189548 -0.070503868 -0.0099997586 0
-0.0044460217 -0.070741169 0.010000241 0
-0.0013256947 -0.070574775 -0.0099997483 0
-0.0013732811 -0.070684083 0.010000248 0
0.0015717339 -0.070684269 -0.0099997362 0
0.0011695643 -0.070289224 0.010000257 0
0.0045461929 -0.070467725 -0.0099997288 0
0.004501678 -0.070289314 0.01000027 0
0.0074099344 -0.070473023 -0.0099997157 0
0.0073758294 -0.070660211 0.010000285 0
0.0097769266 -0.070425369 -0.0096874768 0
0.010000027 -0.070593029 -0.0076818001 0
0.010000015 -0.070655055 -0.0046064765 0
0.010000004 -0.070162259 -0.0014438386 0
0.0099999914 -0.070511565 0.0017521834 0
0.0099999849 -0.070425533 0.0047571543 0
0.0099999718 -0.07052137 0.0074665667 0
0.0095864246 -0.070500478 0.0098336888 0
-0.0098058395 -0.067556404 -0.0097306194 0
-0.0099999728 -0.067712583 -0.0077153337 0
-0.0099999849 -0.067472905 -0.0045666965 0
-0.0099999933 -0.067560986 -0.0016358139 0
-0.010000004 -0.067726523 0.0014713843 0
-0.010000016 -0.067612275 0.0046507968 0
-0.010000027 -0.067475699 0.0076350993 0
-0.0097902538 -0.067525715 0.0098153008 0
-0.0075240675 -0.067421488 -0.0099997818 0
-0.007577457 -0.067349985 0.010000218 0
-0.0044651357 -0.067751296 -0.0099997716 0
-0.0044570183 -0.067448929 0.010000225 0
-0.0014642595 -0.067252129 -0.0099997623 0
-0.0014659278 -0.067532375 0.010000237 0
0.0016095489 -0.067265309 -0.009999752 0
0.0013405716 -0.067557722 0.010000247 0
0.0044353451 -0.067615382 -0.0099997362 0
0.0046530007 -0.067505889 0.010000259 0
0.007475493 -0.067630202 -0.0099997269 0
0.0074293935 -0.06718903 0.010000271 0
0.0096668797 -0.067780055 -0.0097494954 0
0.010000026 -0.067501999 -0.0075053349 0
0.010000016 -0.067403443 -0.0045854617 0
0.010000004 -0.067625575 -0.0016395912 0
0.0099999933 -0.067731455 0.0015849748 0
0.0099999821 -0.067468278 0.0044333539 0
0.0099999737 -0.067624807 0.007241508 0
0.0098485462 -0.06742049 0.0096448027 0
-0.01370192 -0.063421085 -0.013651503 0
-0.013890443 -0.063456625 -0.010651197 0
-0.013571259 -0.063488185 -0.0074325772 0
-0.013629539 -0.063455783 -0.004669711 0
-0.013673203 -0.063474678 -0.0015194512 0
-0.013566319 -0.063472033 0.0017479875 0
-0.013488427 -0.063457832 0.0044438052 0
-0.013611539 -0.063462146 0.0076828822 0
-0.013738299 -0.063439704 0.010701204 0
-0.013504378 -0.063446403 0.01368243 0
-0.010518817 -0.063452803 -0.013556983 0
-0.010336023 -0.063947916 -0.010542084 0
-0.010543448 -0.064342931 -0.0075327493 0
-0.010572709 -0.064154193 -0.004333775 0
-0.010322616 -0.064126834 -0.0013100468 0
-0.010581876 -0.064014181 0.0014851887 0
-0.010426302 -0.064112149 0.0045663384 0
-0.010473755 -0.064221755 0.0073751644 0
-0.010494807 -0.063893713 0.010356957 0
-0.010593819 -0.063426256 0.013740701 0
-0.0073347497 -0.063474655 -0.013784674 0
-0.0073006158 -0.064353094 -0.0104581 0
-0.00750871 -0.064088024 0.010495609 0
-0.0077363793 -0.063478626 0.013156274 0
-0.0044580074 -0.063454866 -0.013716285 0
-0.00430407 -0.063955672 -0.010676824 0
-0.0044785319 -0.064116016 0.010609445 0
-0.0045862454 -0.063449487 0.013883571 0
-0.0016508152 -0.063465901 -0.013622291 0
-0.0014289059 -0.064205661 -0.010277078 0
-0.0015642572 -0.06398271 0.010587288 0
-0.0013814147 -0.063440531 0.013549003 0
0.0014963372 -0.063459195 -0.013547247 0
0.0014732581 -0.064314112 -0.010420394 0
0.0015101865 -0.064094774 0.010507779 0
0.0014855053 -0.06347812 0.013413448 0
0.0046786605 -0.063460536 -0.013648421 0
0.0046787811 -0.06420061 -0.010416124 0
0.0045806598 -0.064241126 0.010339633 0
0.0045646285 -0.063469775 0.013673201 0
0.0077007301 -0.063486166 -0.013601804 0
0.007492804 -0.064259566 -0.010355642 0
0.0075457357 -0.064061657 0.010634472 0
0.0075462135 -0.063482754 0.01379491 0
0.010692798 -0.063467354 -0.013688746 0
0.010121292 -0.064127699 -0.010180355 0
0.010446495 -0.064145185 -0.0072437045 0
0.010570615 -0.064277276 -0.0046599903 0
0.010458298 -0.064116366 -0.0014518718 0
0.010690604 -0.063953362 0.0013340607 0
0.010449002 -0.064289667 0.004492702 0
0.010526207 -0.064124547 0.0075086732 0
0.010320601 -0.064029172 0.010447381 0
0.010546277 -0.063487567 0.01383585 0
0.013590722 -0.063397884 -0.014062691 0
0.013793021 -0.063479841 -0.010481279 0
0.013726568 -0.063479394 -0.0074973037 0
0.013687738 -0.06349159 -0.0044058901 0
0.013799602 -0.063483387 -0.001855106 0
0.01346539 -0.063458659 0.0017882868 0
0.01370322 -0.063472107 0.0045327987 0
0.013800792 -0.06344635 0.0074880174 0
0.013489441 -0.063477226 0.010596634 0
0.013697777 -0.063465297 0.013454916 0
-0.014036327 -0.06155302 -0.014357211 0
-0.014899963 -0.061397865 -0.010443937 0
-0.014899974 -0.06151519 -0.0074667912 0
-0.014899984 -0.061502803 -0.0045728222 0
-0.014899995 -0.061424218 -0.0014565041 0
-0.014900005 -0.061467234 0.0014656138 0
-0.014900025 -0.06128281 0.0045929514 0
-0.014900026 -0.061654024 0.0075426176 0
-0.014900037 -0.061832946 0.010622821 0
-0.014194185 -0.061532501 0.014097272 0
-0.010511253 -0.061322372 -0.01489982 0
-0.01052563 -0.06161651 0.014900184 0
-0.0074295076 -0.061532564 -0.014899808 0
-0.0076053548 -0.061493371 0.014900194 0
-0.0044714371 -0.06136483 -0.014899792 0
-0.0045888661 -0.061661851 0.014900207 0
-0.0014231928 -0.061557967 -0.014899782 0
-0.0018038217 -0.061512791 0.014900216 0
0.0012086557 -0.061448306 -0.014899774 0
0.0015218077 -0.061650082 0.014900229 0
0.0045479978 -0.061180182 -0.014899763 0
0.0045898678 -0.061674222 0.01490024 0
0.0077369786 -0.061510298 -0.01489975 0
0.0075475639 -0.061400667 0.014900248 0
0.010809746 -0.061742298 -0.014899738 0
0.010460285 -0.06160219 0.01490026 0
0.01429197 -0.061596964 -0.014088753 0
0.014900037 -0.061418731 -0.010489425 0
0.014900027 -0.061414205 -0.0076832916 0
0.014900018 -0.061321557 -0.0044022193 0
0.014900005 -0.061312091 -0.0014344546 0
0.014899995 -0.061701309 0.0013041385 0
0.014899986 -0.061493378 0.0044950843 0
0.014899975 -0.061818782 0.0073996698 0
0.014899965 -0.061376091 0.010673721 0
0.013902679 -0.061406083 0.014190834 0
-0.014111894 -0.058516949 -0.014344429 0
-0.014899964 -0.058425393 -0.010530897 0
-0.014899972 -0.058350373 -0.0074626668 0
-0.014899983 -0.058562778 -0.0046817693 0
-0.014899993 -0.058468275 -0.0015265337 0
-0.014900004 -0.058514986 0.0013212913 0
-0.014900016 -0.058541767 0.0043976968 0
-0.014900028 -0.058303542 0.0076782946 0
-0.014900037 -0.058785785 0.010238905 0
-0.014254831 -0.058641575 0.014135399 0
-0.010548933 -0.058129743 -0.014899827 0
-0.010632235 -0.058556698 0.014900175 0
-0.0075929756 -0.058374748 -0.014899816 0
-0.0075477618 -0.058541615 0.014900185 0
-0.0044954014 -0.058273893 -0.014899807 0
-0.004304722 -0.058430832 0.014900195 0
-0.0013497452 -0.058332015 -0.014899792 0
-0.0017176304 -0.058272619 0.014900204 0
0.0017009621 -0.058884013 -0.014899782 0
0.0014320624 -0.058364034 0.014900218 0
0.0045010936 -0.05862781 -0.014899772 0
0.004259422 -0.058537595 0.014900228 0
0.0075136446 -0.058310375 -0.014899761 0
0.0074524349 -0.058558039 0.014900238 0
0.010482809 -0.058601934 -0.01489975 0
0.010789914 -0.058531981 0.01490025 0
0.014413842 -0.058366515 -0.014030231 0
0.014900039 -0.058842361 -0.010618276 0
0.014900025 -0.05879195 -0.007250132 0
0.014900017 -0.058443531 -0.0045673326 0
0.014900004 -0.058569781 -0.0015203113 0
0.014899995 -0.058675185 0.0015215765 0
0.01489999 -0.058215439 0.004488166 0
0.014899974 -0.058353607 0.0075577693 0
0.014899965 -0.058449805 0.010444648 0
0.014266405 -0.058504634 0.013928092 0
-0.014447932 -0.055459902 -0.01409639 0
-0.014899961 -0.055327158 -0.010537596 0
-0.014899972 -0.05545475 -0.0074193953 0
-0.014899984 -0.055639405 -0.0044032997 0
-0.014899997 -0.055323906 -0.001545526 0
-0.014900007 -0.055438418 0.0015585234 0
-0.014900017 -0.055682827 0.004807509 0
-0.014900026 -0.055571847 0.0074742716 0
-0.014900039 -0.055561714 0.010342065 0
-0.014128986 -0.055358231 0.014376172 0
-0.010467838 -0.055378068 -0.014899837 0
-0.010772561 -0.05564874 0.014900161 0
-0.0073968438 -0.055925727 -0.014899826 0
-0.0075705848 -0.055715125 0.014900176 0
-0.0044342643 -0.055470735 -0.014899814 0
-0.0046226513 -0.055429753 0.014900184 0
-0.0015654728 -0.055723276 -0.014899802 0
-0.0014356194 -0.055572465 0.014900197 0
0.0015862928 -0.055491697 -0.014899795 0
0.001169201 -0.055479947 0.014900207 0
0.0041788588 -0.055539887 -0.014899784 0
0.0043122624 -0.055586513 0.014900217 0
0.0071753729 -0.055489037 -0.014899772 0
0.0078435922 -0.055272128 0.014900228 0
0.010923999 -0.055478975 -0.01489976 0
0.010557996 -0.055312645 0.014900239 0
0.014270405 -0.055475786 -0.014040978 0
0.014900036 -0.055461656 -0.010285228 0
0.014900029 -0.055504892 -0.0078663407 0
0.014900017 -0.055357475 -0.0045120441 0
0.014900004 -0.055453703 -0.0014299423 0
0.014899995 -0.055383112 0.0014488419 0
0.014899983 -0.055695627 0.0043366826 0
0.014899973 -0.055340525 0.0078057246 0
0.014899963 -0.055424176 0.010391303 0
0.01396024 -0.055473879 0.014250762 0
-0.01432146 -0.052585829 -0.014003845 0
-0.014899963 -0.052556593 -0.010350953 0
-0.014899972 -0.052565958 -0.007374208 0
-0.014899984 -0.052703999 -0.0044315625 0
-0.014899993 -0.052271817 -0.0017871459 0
-0.014900006 -0.05255083 0.0016283989 0
-0.014900017 -0.052637242 0.0044961879 0
-0.014900031 -0.052632581 0.0074039777 0
-0.014900038 -0.052343667 0.010202124 0
-0.014001993 -0.052360825 0.014224303 0
-0.010693331 -0.052578136 -0.014899848 0
-0.010398537 -0.052760586 0.014900154 0
-0.007853426 -0.052333508 -0.014899841 0
-0.0074749836 -0.052374065 0.014900164 0
-0.0045376993 -0.052432526 -0.014899827 0
-0.0042619747 -0.052606821 0.014900173 0
-0.0017687341 -0.052343506 -0.014899817 0
-0.0017111299 -0.05228816 0.014900181 0
0.0015076502 -0.052154697 -0.014899805 0
0.0015673797 -0.052553542 0.014900194 0
0.0043144389 -0.052644994 -0.014899793 0
0.0043790308 -0.052693881 0.01490021 0
0.0076633282 -0.052497413 -0.014899786 0
0.007375414 -0.052643538 0.014900219 0
0.010494725 -0.052439112 -0.014899771 0
0.010726677 -0.05242053 0.014900232 0
0.014195307 -0.052377276 -0.014286526 0
0.014900039 -0.052284677 -0.010877513 0
0.014900028 -0.052480925 -0.0076060146 0
0.014900016 -0.052354991 -0.0043294774 0
0.014900007 -0.052557547 -0.0014206034 0
0.014899996 -0.052621204 0.0016318284 0
0.014899984 -0.052573513 0.0044792639 0
0.014899972 -0.052113734 0.0076065552 0
0.014899962 -0.052676205 0.010595123 0
0.014414007 -0.052462593 0.013953946 0
-0.014220783 -0.049539208 -0.014258748 0
-0.014899968 -0.049414229 -0.010367426 0
-0.014899971 -0.049532745 -0.007615421 0
-0.014899984 -0.049427446 -0.0043699774 0
-0.014899993 -0.049411055 -0.0014373768 0
-0.014900004 -0.049648125 0.0012903126 0
-0.014900018 -0.049675476 0.0047373031 0
-0.014900027 -0.049777124 0.0071788225 0
-0.014900038 -0.049193155 0.010539762 0
-0.014095002 -0.049259655 0.014073985 0
-0.010354924 -0.049757112 -0.014899857 0
-0.010252595 -0.04961409 0.014900142 0
-0.0075452072 -0.049490083 -0.014899849 0
-0.0073053418 -0.04946088 0.014900153 0
-0.0043803831 -0.04958608 -0.014899839 0
-0.0047096568 -0.049623583 0.014900167 0
-0.0014578059 -0.049165577 -0.014899827 0
-0.0018067892 -0.049688831 0.014900173 0
0.0014711852 -0.049567301 -0.014899818 0
0.0014818204 -0.049327668 0.014900185 0
0.0044985288 -0.049382493 -0.014899804 0
0.0043545472 -0.049766261 0.014900194 0
0.0076774377 -0.04947621 -0.014899793 0
0.0077818003 -0.049420737 0.014900207 0
0.010639175 -0.049388692 -0.014899783 0
0.010503392 -0.049585294 0.014900219 0
0.014053558 -0.049369626 -0.014200801 0
0.014900037 -0.049298503 -0.010656189 0
0.014900027 -0.049832467 -0.0077112438 0
0.014900018 -0.049707808 -0.0045085335 0
0.014900004 -0.049455248 -0.0015365019 0
0.014899994 -0.049507763 0.0012925612 0
0.014899984 -0.0494636 0.0044859252 0
0.014899974 -0.049564395 0.0074729356 0
0.014899961 -0.049635995 0.010500621 0
0.014333485 -0.049680829 0.01418857 0
-0.01403717 -0.046262816 -0.014188775 0
-0.014899963 -0.046350807 -0.010525602 0
-0.014899972 -0.046478391 -0.0074999928 0
-0.014899982 -0.04638046 -0.0046819812 0
-0.014899997 -0.046527356 -0.0015251568 0
-0.014900005 -0.046617325 0.0013722982 0
-0.014900018 -0.046578612 0.0045956033 0
-0.014900026 -0.046406921 0.0075269355 0
-0.014900037 -0.046478748 0.010485624 0
-0.014256803 -0.046446584 0.014240487 0
-0.010593263 -0.046833463 -0.014899868 0
-0.01038787 -0.046343785 0.014900129 0
-0.0073584747 -0.046575174 -0.014899857 0
-0.0076250946 -0.046368886 0.01490014 0
-0.0045722504 -0.04639481 -0.014899848 0
-0.0045525576 -0.046579469 0.014900151 0
-0.0015454986 -0.046675365 -0.014899838 0
-0.0014241271 -0.046300605 0.014900163 0
0.001294773 -0.046621345 -0.014899827 0
0.0016385347 -0.046213079 0.014900172 0
0.00414332 -0.046327807 -0.014899816 0
0.0045953752 -0.046619579 0.014900184 0
0.007538226 -0.046750169 -0.014899802 0
0.0073834029 -0.046656437 0.014900194 0
0.010497242 -0.046391219 -0.014899798 0
0.010286635 -0.046326388 0.014900204 0
0.014157766 -0.046572603 -0.014087796 0
0.014900039 -0.046769578 -0.010752435 0
0.014900026 -0.046410978 -0.0074946564 0
0.014900016 -0.046647675 -0.0045077549 0
0.014900004 -0.046330888 -0.0014839377 0
0.014899993 -0.046718262 0.0015456247 0
0.014899984 -0.046634626 0.0043501328 0
0.014899973 -0.046674218 0.0074814288 0
0.014899962 -0.046444785 0.010672006 0
0.013960047 -0.046622206 0.014377628 0
-0.014176427 -0.043549627 -0.014241868 0
-0.01489996 -0.043866239 -0.01070426 0
-0.014899974 -0.043505576 -0.0074044098 0
-0.014899985 -0.043429706 -0.0043333205 0
-0.014899995 -0.043710936 -0.0016123622 0
-0.014900004 -0.043354053 0.0013941185 0
-0.01490002 -0.043426327 0.0045885122 0
-0.014900026 -0.043488942 0.0075332965 0
-0.014900038 -0.043545224 0.010388195 0
-0.014190719 -0.04367435 0.014017254 0
-0.010546396 -0.043581255 -0.014899881 0
-0.010363148 -0.043382302 0.014900119 0
-0.0079309037 -0.043750711 -0.014899869 0
-0.0074753505 -0.043728136 0.01490013 0
-0.0044796965 -0.04349947 -0.014899857 0
-0.0046429778 -0.043265831 0.014900142 0
-0.0015095396 -0.043696519 -0.014899847 0
-0.0014845068 -0.043464813 0.014900152 0
0.0014478083 -0.043532383 -0.014899836 0
0.0015155099 -0.04349719 0.014900162 0
0.0046641948 -0.043541096 -0.014899826 0
0.0044594137 -0.043614142 0.014900173 0
0.0075605856 -0.043423593 -0.014899816 0
0.0075187352 -0.04370261 0.014900184 0
0.010362935 -0.043452267 -0.014899806 0
0.010142197 -0.043498106 0.014900193 0
0.01417503 -0.043687444 -0.014141494 0
0.014900039 -0.043554239 -0.010712052 0
0.014900029 -0.043694019 -0.0075504216 0
0.014900015 -0.043671284 -0.0044720792 0
0.014900005 -0.043646306 -0.0012880036 0
0.014899994 -0.043505568 0.0014619299 0
0.014899982 -0.043154985 0.0046683359 0
0.01489997 -0.043094318 0.0078540444 0
0.014899964 -0.043596223 0.010605095 0
0.014319149 -0.043689445 0.01419753 0
-0.014127758 -0.040426653 -0.01421117 0
-0.014899962 -0.040542845 -0.010327015 0
-0.014899972 -0.04049154 -0.0074035092 0
-0.014899984 -0.04027918 -0.0042911498 0
-0.014899996 -0.040332269 -0.0011591936 0
-0.014900004 -0.040694017 0.0014627498 0
-0.01490002 -0.040545594 0.0045099598 0
-0.014900028 -0.040500496 0.007614858 0
-0.014900044 -0.040468533 0.010531479 0
-0.013920522 -0.040632162 0.014198909 0
-0.01049634 -0.040511608 -0.014899892 0
-0.010268861 -0.040738724 0.014900109 0
-0.0075160493 -0.0405185 -0.014899882 0
-0.0074584787 -0.040592328 0.01490012 0
-0.004510493 -0.040655959 -0.014899869 0
-0.0043053012 -0.040719505 0.01490013 0
-0.0017815931 -0.04059295 -0.014899858 0
-0.001531942 -0.040352948 0.014900141 0
0.0016128852 -0.040517826 -0.014899852 0
0.0014009875 -0.040457964 0.01490015 0
0.0046454989 -0.040578481 -0.014899836 0
0.0045002787 -0.040417969 0.014900162 0
0.0075410893 -0.04040065 -0.014899829 0
0.0075797485 -0.040474396 0.014900176 0
0.010420632 -0.040381171 -0.014899815 0
0.010483148 -0.040541727 0.014900189 0
0.014297373 -0.040434759 -0.014075254 0
0.014900043 -0.04056992 -0.010331455 0
0.014900026 -0.040395752 -0.0073782117 0
0.014900017 -0.040458772 -0.0048102061 0
0.014900005 -0.040597312 -0.0013102008 0
0.014899997 -0.040569734 0.0013135356 0
0.014899984 -0.040374156 0.0044616633 0
0.014899974 -0.040758468 0.007198683 0
0.014899963 -0.040450718 0.010540949 0
0.014181127 -0.040439647 0.014094968 0
-0.014092572 -0.037516225 -0.014310988 0
-0.014899964 -0.037693311 -0.010158486 0
-0.014899973 -0.037204757 -0.0073648449 0
-0.014899984 -0.037570488 -0.0044497685 0
-0.014899995 -0.037349358 -0.0013104437 0
-0.014900008 -0.03750781 0.0017204836 0
-0.014900018 -0.037377194 0.0045401356 0
-0.014900027 -0.037364759 0.0073243943 0
-0.014900037 -0.037335951 0.010288796 0
-0.014009459 -0.037426997 0.01423478 0
-0.010590748 -0.037363563 -0.014899903 0
-0.010401648 -0.037784897 0.014900099 0
-0.0071211238 -0.037476961 -0.014899891 0
-0.0073255054 -0.037800521 0.014900113 0
-0.0045443173 -0.037560906 -0.01489988 0
-0.004222123 -0.037179343 0.01490012 0
-0.001436954 -0.037112169 -0.01489987 0
-0.0014724414 -0.037705604 0.01490013 0
0.001533984 -0.037215617 -0.014899859 0
0.0013508998 -0.037496395 0.014900142 0
0.0043915524 -0.037514642 -0.014899847 0
0.004481703 -0.037270453 0.01490015 0
0.0075472724 -0.037422895 -0.014899839 0
0.0074931188 -0.037457969 0.014900162 0
0.010428135 -0.037200868 -0.014899826 0
0.010310904 -0.037575487 0.014900172 0
0.014249868 -0.037615191 -0.014168814 0
0.014900038 -0.03739712 -0.010502228 0
0.014900029 -0.037327886 -0.0076590311 0
0.014900017 -0.037725739 -0.0043527279 0
0.014900009 -0.037474167 -0.0016657962 0
0.014899997 -0.037457284 0.0013797915 0
0.014899982 -0.037621688 0.0045967265 0
0.014899971 -0.037635982 0.007642536 0
0.014899964 -0.037381899 0.010314875 0
0.014103427 -0.037580229 0.014230873 0
-0.013948373 -0.03453121 -0.014361388 0
-0.014899962 -0.034703892 -0.01028899 0
-0.014899975 -0.034415115 -0.0075204116 0
-0.014899983 -0.034545083 -0.0044685663 0
-0.014899996 -0.034715641 -0.0014699816 0
-0.014900006 -0.034761403 0.0015332768 0
-0.014900018 -0.034631655 0.0048148609 0
-0.014900028 -0.034252916 0.0074314047 0
-0.014900038 -0.034536701 0.010641207 0
-0.014139903 -0.034390528 0.014243226 0
-0.010207711 -0.034268543 -0.014899914 0
