# .PCD v0.7 - Point Cloud Data file format
VERSION 0.7
FIELDS x y z rgb
SIZE 4 4 4 4
TYPE F F F F
COUNT 1 1 1 1
WIDTH 1179
HEIGHT 1
VIEWPOINT 0 0 0 1 0 0 0
POINTS 1179
DATA ascii
0.0099999839 -0.16064891 0.0046512894 0
0.0099999728 -0.16032797 0.0078680562 0
0.0098188305 -0.16086483 0.0095600262 0
-0.0096962852 -0.15751286 -0.0097531304 0
-0.0099999728 -0.15742822 -0.0076084123 0
-0.0099999849 -0.15749186 -0.0043669981 0
-0.0099999942 -0.15790991 -0.0015352265 0
-0.010000006 -0.15751906 0.0015803673 0
-0.010000016 -0.15749143 0.0045969794 0
-0.010000027 -0.15753354 0.0073155514 0
-0.0097957589 -0.1571523 0.0096782874 0
-0.0075343088 -0.15735583 -0.0099994577 0
-0.0075998316 -0.15726876 0.010000542 0
-0.0044086277 -0.15731865 -0.0099994484 0
-0.0044089542 -0.15740518 0.010000553 0
-0.0013567101 -0.15773533 -0.0099994354 0
-0.0013246203 -0.15751904 0.010000566 0
0.0014523556 -0.15735818 -0.0099994252 0
0.0014992878 -0.15750037 0.010000576 0
0.0044610398 -0.15719779 -0.0099994168 0
0.004406827 -0.15721841 0.010000586 0
0.0077058612 -0.15752696 -0.0099994028 0
0.0074437452 -0.15740237 0.010000596 0
0.0097168973 -0.15746507 -0.0097705228 0
0.010000028 -0.15739378 -0.0076176431 0
0.010000015 -0.15747778 -0.004412191 0
0.010000005 -0.15735205 -0.0013753265 0
0.0099999951 -0.15769632 0.001657437 0
0.009999983 -0.15739687 0.004438262 0
0.0099999737 -0.15752105 0.0075198556 0
0.0098130433 -0.15734948 0.0097582871 0
-0.0097125499 -0.15441298 -0.0095872246 0
-0.0099999737 -0.15464433 -0.007524298 0
-0.0099999849 -0.15479763 -0.004183637 0
-0.0099999933 -0.15461014 -0.0020246059 0
-0.010000006 -0.15439546 0.0013082712 0
-0.010000016 -0.15436473 0.0046763876 0
-0.010000029 -0.15463321 0.0076397019 0
-0.0098525444 -0.15457335 0.0097472202 0
-0.0074613336 -0.15458801 -0.0099994689 0
-0.0075221425 -0.15449876 0.010000533 0
-0.0042861374 -0.15461387 -0.0099994577 0
-0.0043709297 -0.15458459 0.010000545 0
-0.0013036875 -0.15457271 -0.0099994438 0
-0.0018124887 -0.1547213 0.010000554 0
0.0015186338 -0.15423019 -0.0099994363 0
0.0015082136 -0.15453954 0.010000566 0
0.0046473946 -0.15439698 -0.0099994242 0
0.0043168301 -0.15458558 0.010000576 0
0.0076041147 -0.15458907 -0.009999413 0
0.0072702249 -0.1543539 0.010000587 0
0.0098118074 -0.15439004 -0.0097200973 0
0.010000028 -0.15485735 -0.0072377753 0
0.010000015 -0.15468417 -0.0046300516 0
0.010000004 -0.15422854 -0.0013531533 0
0.0099999951 -0.1542315 0.0015467412 0
0.0099999849 -0.15477636 0.0044371118 0
0.0099999728 -0.15483509 0.0076104417 0
0.0096889855 -0.15449552 0.0097345412 0
-0.0098397564 -0.15149052 -0.0097849173 0
-0.0099999737 -0.15154035 -0.0074153682 0
-0.0099999858 -0.15132932 -0.0044948421 0
-0.009999997 -0.15129589 -0.0014039212 0
-0.010000004 -0.15160814 0.001639044 0
-0.010000015 -0.15152179 0.0044970131 0
-0.010000028 -0.15155189 0.0074292058 0
-0.0097048096 -0.15156507 0.0097962506 0
-0.0075287218 -0.15138672 -0.0099994801 0
-0.007509111 -0.15121676 0.010000521 0
-0.0043087825 -0.15136608 -0.0099994671 0
-0.0046860809 -0.15129727 0.010000532 0
-0.0012574666 -0.15148121 -0.0099994568 0
-0.0015372343 -0.15145808 0.010000545 0
0.0014834873 -0.15160783 -0.0099994466 0
0.0014868629 -0.15152349 0.010000555 0
0.0044227075 -0.15141568 -0.0099994345 0
0.0044064615 -0.15151809 0.010000566 0
0.0076663308 -0.1513052 -0.0099994252 0
0.0074512679 -0.15151109 0.010000577 0
0.0095504755 -0.1510713 -0.0098678051 0
0.010000026 -0.15121515 -0.0073834704 0
0.010000017 -0.15163574 -0.004508629 0
0.010000007 -0.1514641 -0.0016723004 0
0.0099999951 -0.15138833 0.0015470518 0
0.0099999858 -0.15172708 0.0043865386 0
0.0099999737 -0.15137354 0.0075360113 0
0.0097949142 -0.15170301 0.0097757448 0
-0.0097174905 -0.14818181 -0.0096309464 0
-0.0099999737 -0.14860728 -0.0074933465 0
-0.0099999839 -0.14826843 -0.0046893363 0
-0.0099999951 -0.14847444 -0.0014132634 0
-0.010000004 -0.14856985 0.0013318367 0
-0.010000019 -0.14839375 0.0048289243 0
-0.010000029 -0.14846975 0.007690269 0
-0.0097477678 -0.1486882 0.0097952867 0
-0.0074443175 -0.14863931 -0.0099994894 0
-0.0075132772 -0.14835665 0.010000511 0
-0.0043858676 -0.14860743 -0.0099994782 0
-0.0043552732 -0.14850946 0.010000522 0
-0.0015999116 -0.14852901 -0.0099994689 0
-0.0014863221 -0.14847666 0.010000532 0
0.0015136006 -0.14892133 -0.0099994559 0
0.0017391406 -0.14836974 0.010000544 0
0.0044020098 -0.14849144 -0.0099994475 0
0.0047324821 -0.14869054 0.010000556 0
0.0073548099 -0.14836381 -0.0099994326 0
0.0072344663 -0.1484102 0.010000564 0
0.0096788546 -0.1485443 -0.0098070214 0
0.010000028 -0.14801376 -0.0072923168 0
0.010000017 -0.14842728 -0.0049209869 0
0.010000004 -0.14818835 -0.0016264399 0
0.0099999951 -0.14848039 0.0016057137 0
0.0099999839 -0.14837134 0.0046278914 0
0.0099999746 -0.14840014 0.0073450399 0
0.0098479288 -0.14863974 0.0097320452 0
-0.0097225141 -0.14517385 -0.0098811956 0
-0.0099999718 -0.1454359 -0.0073619559 0
-0.009999983 -0.1453229 -0.0043716878 0
-0.0099999951 -0.14566946 -0.0016415463 0
-0.010000006 -0.14576702 0.0016367506 0
-0.010000017 -0.14579965 0.0045179422 0
-0.010000028 -0.14529304 0.0073882816 0
-0.0095931422 -0.14513323 0.009891727 0
-0.0074936529 -0.1453163 -0.0099995025 0
-0.0070299888 -0.14543112 0.010000502 0
-0.0047641625 -0.14589687 -0.0099994913 0
-0.004192974 -0.14545141 0.010000508 0
-0.0015802454 -0.14502922 -0.009999481 0
-0.0016088918 -0.14565574 0.010000523 0
0.0015650237 -0.14561887 -0.009999468 0
0.0012713574 -0.14551486 0.010000531 0
0.0049497425 -0.14542516 -0.0099994568 0
0.0042378083 -0.14548707 0.010000542 0
0.0074736965 -0.14577745 -0.0099994456 0
0.0076488205 -0.14514759 0.010000555 0
0.0096627129 -0.14548384 -0.0098922569 0
0.010000027 -0.14544806 -0.0073114908 0
0.010000018 -0.14558458 -0.0045509646 0
0.010000006 -0.14533652 -0.0014453008 0
0.009999997 -0.14516246 0.0012416282 0
0.0099999849 -0.14542586 0.0045998911 0
0.0099999746 -0.14535648 0.0073723202 0
0.009798984 -0.14581594 0.0096446024 0
-0.0097469063 -0.14226495 -0.0097584035 0
-0.0099999728 -0.1424415 -0.0076187071 0
-0.0099999858 -0.14236172 -0.0044874647 0
-0.0099999951 -0.14222562 -0.0015196088 0
-0.010000005 -0.14242311 0.0013723538 0
-0.010000016 -0.1425381 0.0042107222 0
-0.010000027 -0.14249404 0.0076828557 0
-0.0098033976 -0.14249554 0.0096546849 0
-0.007559062 -0.14268366 -0.009999509 0
-0.0073262085 -0.14254059 0.010000489 0
-0.0046212147 -0.14240366 -0.0099995015 0
-0.004820596 -0.14260668 0.010000499 0
-0.0015543669 -0.14238094 -0.0099994913 0
-0.0014683511 -0.14250314 0.010000512 0
0.0015637054 -0.14233088 -0.0099994773 0
0.0014868994 -0.14263089 0.01000052 0
0.0042917607 -0.14233153 -0.0099994708 0
0.0045730863 -0.14266197 0.010000534 0
0.0076700272 -0.14261758 -0.0099994568 0
0.0074953386 -0.1423495 0.010000543 0
0.0097744148 -0.14271021 -0.0096783713 0
0.010000025 -0.14233564 -0.0075814207 0
0.010000017 -0.14287746 -0.004394732 0
0.010000005 -0.14284773 -0.001218353 0
0.0099999933 -0.1423912 0.0015724188 0
0.009999983 -0.14233521 0.0048959199 0
0.0099999728 -0.14284995 0.0077018742 0
0.0098034656 -0.14251702 0.0096555091 0
-0.0097118616 -0.13980982 -0.0097167557 0
-0.0099999728 -0.13966666 -0.0072197383 0
-0.0099999839 -0.13947845 -0.004449029 0
-0.0099999961 -0.13956898 -0.0012352774 0
-0.010000006 -0.13972098 0.0014751274 0
-0.010000018 -0.13977455 0.0048366776 0
-0.010000028 -0.13925064 0.0075734942 0
-0.0096662007 -0.13965885 0.0097638825 0
-0.0074245525 -0.13957432 -0.0099995229 0
-0.0072196787 -0.13948289 0.01000048 0
-0.0041487385 -0.13948043 -0.0099995108 0
-0.0045226645 -0.13935465 0.010000489 0
-0.0014762188 -0.13962504 -0.0099994987 0
-0.0018982808 -0.13955814 0.010000497 0
0.0017849233 -0.13963197 -0.0099994875 0
0.0013908118 -0.13973692 0.010000511 0
0.0040681148 -0.14012466 -0.0099994773 0
0.0048140166 -0.13952053 0.010000523 0
0.0074315728 -0.13960814 -0.0099994689 0
0.0075135082 -0.13971633 0.010000534 0
0.0097297858 -0.13962519 -0.0097171851 0
0.010000028 -0.13970278 -0.0077634677 0
0.010000017 -0.13937853 -0.0044310526 0
0.010000007 -0.13954614 -0.0015981595 0
0.0099999961 -0.13958021 0.0015186736 0
0.0099999839 -0.13939002 0.004510833 0
0.0099999737 -0.13945243 0.0075270771 0
0.0097186826 -0.13962184 0.0097456882 0
-0.0097220587 -0.13656886 -0.009745202 0
-0.0099999737 -0.13640931 -0.0077010659 0
-0.0099999821 -0.13662221 -0.0046193651 0
-0.0099999961 -0.13636568 -0.0014383458 0
-0.010000005 -0.13610218 0.0013789525 0
-0.010000018 -0.13632908 0.0048288507 0
-0.010000029 -0.13647306 0.0076419511 0
-0.0098406728 -0.13657886 0.0096844947 0
-0.0076393285 -0.13636024 -0.009999535 0
-0.0072887596 -0.13648345 0.010000469 0
-0.0046917368 -0.13660087 -0.0099995229 0
-0.0046289042 -0.13637389 0.010000478 0
-0.0017449596 -0.13637024 -0.0099995146 0
-0.0018239819 -0.13648885 0.010000489 0
0.001222574 -0.1361521 -0.0099995034 0
0.0012159523 -0.13653676 0.0100005 0
0.0045849211 -0.13675328 -0.0099994894 0
0.0047478047 -0.13637845 0.010000511 0
0.0074394606 -0.13635127 -0.0099994801 0
0.0077521713 -0.13635248 0.010000522 0
0.0098937703 -0.1367953 -0.0096519459 0
0.010000029 -0.13666664 -0.0076288553 0
0.010000018 -0.13648702 -0.0047226069 0
0.010000006 -0.13662374 -0.0015267457 0
0.0099999942 -0.13645852 0.0014962844 0
0.0099999839 -0.13643563 0.0043913135 0
0.0099999718 -0.13662916 0.0074849548 0
0.0097524449 -0.13664839 0.0096430304 0
-0.0098054083 -0.13351378 -0.0097238319 0
-0.0099999746 -0.13347425 -0.0072949938 0
-0.0099999849 -0.13332221 -0.0043558045 0
-0.0099999914 -0.13331586 -0.0017689564 0
-0.010000004 -0.13354069 0.0016372516 0
-0.010000018 -0.13377944 0.0047837463 0
-0.010000028 -0.13343422 0.0074560232 0
-0.0097160805 -0.13337097 0.0096961055 0
-0.0077217175 -0.1333914 -0.0099995453 0
-0.0073736897 -0.1335241 0.010000456 0
-0.0046750605 -0.13374208 -0.0099995323 0
-0.0045669628 -0.13367079 0.010000469 0
-0.001736188 -0.1334046 -0.009999522 0
-0.0014698815 -0.13358635 0.010000477 0
0.0012841148 -0.13345435 -0.0099995118 0
0.0017695144 -0.13360986 0.010000488 0
0.0046540848 -0.13340957 -0.0099995006 0
0.0043343944 -0.13325498 0.010000499 0
0.0076596467 -0.13375428 -0.0099994875 0
0.0072524287 -0.13374802 0.010000512 0
0.0097698364 -0.13386592 -0.0097550619 0
0.010000029 -0.13376048 -0.0074879648 0
0.010000017 -0.13352972 -0.0042576562 0
0.010000004 -0.1333053 -0.0010536269 0
0.0099999961 -0.13374509 0.0013912352 0
0.0099999858 -0.13384847 0.0044265771 0
0.0099999718 -0.13376331 0.0073613366 0
0.0097359279 -0.13339797 0.0098019019 0
-0.0097830342 -0.13117489 -0.0098577961 0
-0.0099999718 -0.13049442 -0.0073971045 0
-0.0099999839 -0.13069817 -0.0045130672 0
-0.0099999951 -0.13044141 -0.0014025397 0
-0.010000008 -0.13038401 0.0019406165 0
-0.010000015 -0.13033593 0.0044158683 0
-0.010000028 -0.13056695 0.0076853111 0
-0.0098255584 -0.13032277 0.0097489934 0
-0.0075291335 -0.13021317 -0.0099995555 0
-0.0072989156 -0.13047382 0.010000445 0
-0.0041953656 -0.13045543 -0.0099995444 0
-0.0044761598 -0.13058811 0.010000458 0
-0.0013029145 -0.13070302 -0.0099995323 0
-0.0015550453 -0.13077432 0.010000467 0
0.0016472001 -0.1304085 -0.0099995211 0
0.0014434172 -0.13069052 0.010000479 0
0.0043837465 -0.13030607 -0.0099995155 0
0.004143998 -0.13041158 0.010000488 0
0.0076151304 -0.13066617 -0.0099994997 0
0.0072739357 -0.13059926 0.0100005 0
0.0096561424 -0.13031867 -0.009825062 0
0.010000027 -0.13072836 -0.0073846318 0
0.010000018 -0.13055794 -0.004687381 0
0.010000007 -0.13048223 -0.0015506875 0
0.0099999933 -0.13044778 0.0015516725 0
0.009999983 -0.13063498 0.0048249783 0
0.0099999728 -0.13064013 0.0074534104 0
0.0096331602 -0.1298551 0.009848251 0
-0.009628647 -0.12767996 -0.009717009 0
-0.0099999737 -0.12763225 -0.0073413379 0
-0.0099999839 -0.12761652 -0.0047050808 0
-0.0099999951 -0.12766016 -0.0014268325 0
-0.010000004 -0.12742199 0.0012816413 0
-0.010000017 -0.12775972 0.0046540028 0
-0.010000028 -0.12764031 0.0075341589 0
-0.0098265326 -0.12737234 0.0097512193 0
-0.007323734 -0.12728059 -0.0099995648 0
-0.0075039067 -0.12747906 0.010000435 0
-0.0044426173 -0.12758754 -0.0099995537 0
-0.0043445826 -0.12774901 0.010000448 0
-0.001494467 -0.12768063 -0.0099995453 0
-0.0013419058 -0.12776372 0.010000459 0
0.0015562697 -0.1272945 -0.009999535 0
0.0012827413 -0.12756981 0.010000467 0
0.004757538 -0.12721169 -0.0099995239 0
0.0043913368 -0.12718411 0.010000477 0
0.00742959 -0.12752764 -0.0099995127 0
0.0078249183 -0.12732652 0.010000489 0
0.0097267451 -0.12738644 -0.0096909227 0
0.010000025 -0.12770313 -0.0072679999 0
0.010000018 -0.12741236 -0.0046725934 0
0.010000005 -0.12738325 -0.0016330396 0
0.0099999933 -0.12721948 0.0013968379 0
0.0099999858 -0.12757611 0.0043406794 0
0.0099999756 -0.12742434 0.0072376244 0
0.009845024 -0.12758127 0.0096967006 0
-0.0097006541 -0.12482167 -0.0097376453 0
-0.0099999728 -0.12435971 -0.0075294203 0
-0.0099999858 -0.12436465 -0.0044332431 0
-0.0099999942 -0.12433591 -0.001847888 0
-0.010000006 -0.12472593 0.0014976725 0
-0.010000016 -0.12444794 0.0044261995 0
-0.010000028 -0.12432034 0.0075036134 0
-0.0097214226 -0.12481936 0.0097619193 0
-0.0070935199 -0.12467322 -0.0099995742 0
-0.0075519369 -0.1243973 0.010000424 0
-0.0043520043 -0.12465541 -0.0099995648 0
-0.0048668236 -0.12498666 0.010000436 0
-0.0011791016 -0.12454882 -0.0099995546 0
-0.0014606585 -0.12456125 0.010000444 0
0.0013864469 -0.12416948 -0.0099995462 0
0.001651265 -0.1246943 0.010000456 0
0.0046179993 -0.12449151 -0.0099995341 0
0.0046238531 -0.12442552 0.010000468 0
0.007659175 -0.12427611 -0.0099995239 0
0.0075556878 -0.12430067 0.010000478 0
0.0098582907 -0.12482636 -0.0097364336 0
0.010000029 -0.12475541 -0.0074736308 0
0.010000018 -0.12484177 -0.0047061858 0
0.010000006 -0.12457456 -0.0014905647 0
0.0099999942 -0.12415466 0.0013343585 0
0.009999983 -0.12451863 0.004754384 0
0.0099999746 -0.12441617 0.0073952773 0
0.0099014333 -0.12432582 0.0097271698 0
-0.0097266035 -0.12106854 -0.0096123787 0
-0.0099999765 -0.12167874 -0.0070221266 0
-0.0099999858 -0.12139793 -0.0043783882 0
-0.0099999951 -0.12133645 -0.0015256949 0
-0.010000007 -0.121195 0.001480746 0
-0.010000017 -0.12166771 0.0046973638 0
-0.010000027 -0.12178211 0.0073514162 0
-0.0098247901 -0.12189434 0.0096700266 0
-0.0071858293 -0.12168409 -0.0099995863 0
-0.0072630947 -0.12145163 0.010000414 0
-0.0045197224 -0.12185813 -0.0099995751 0
-0.0043870606 -0.12160641 0.010000424 0
-0.0015362707 -0.12138918 -0.0099995658 0
-0.0016311419 -0.12193178 0.010000437 0
0.00132704 -0.12138258 -0.0099995565 0
0.0013709442 -0.12150721 0.010000446 0
0.0046646604 -0.12124286 -0.0099995453 0
0.0047675888 -0.1213324 0.010000459 0
0.0073135933 -0.12166718 -0.009999535 0
0.0071993391 -0.12159047 0.010000467 0
0.0097642317 -0.12157444 -0.0095102601 0
0.01000003 -0.12139683 -0.0076937815 0
0.010000017 -0.12119821 -0.0043897396 0
0.010000006 -0.12169281 -0.0014888461 0
0.0099999951 -0.12134133 0.0014170849 0
0.009999983 -0.12141822 0.0045994613 0
0.0099999728 -0.12143394 0.0077942288 0
0.0097592296 -0.12169322 0.0097057931 0
-0.0096770534 -0.11873414 -0.0097634215 0
-0.0099999718 -0.11851486 -0.0076996526 0
-0.0099999821 -0.11827254 -0.004637857 0
-0.0099999961 -0.11863865 -0.0016201354 0
-0.010000006 -0.11859411 0.0016369204 0
-0.010000017 -0.11866725 0.004495535 0
-0.01000003 -0.11846954 0.0078324815 0
-0.0096982829 -0.11831156 0.0097303959 0
-0.0073721698 -0.11868957 -0.0099995984 0
-0.0075787962 -0.11863695 0.010000402 0
-0.004665982 -0.11844286 -0.0099995891 0
-0.0045197783 -0.1182517 0.010000412 0
-0.0014444169 -0.11819094 -0.0099995779 0
-0.0013987034 -0.11827173 0.010000425 0
0.0014854349 -0.11821545 -0.0099995676 0
0.0013929128 -0.11863669 0.010000435 0
0.0045916676 -0.1187977 -0.0099995546 0
0.0045649707 -0.11840497 0.010000446 0
0.0074763452 -0.11844017 -0.0099995453 0
0.007387972 -0.1186567 0.010000458 0
0.0097723538 -0.11839201 -0.009557832 0
0.010000029 -0.1183006 -0.0077534113 0
0.010000014 -0.11847267 -0.0046714619 0
0.010000007 -0.11861189 -0.0015541911 0
0.0099999942 -0.11851342 0.0014797021 0
0.0099999839 -0.11878186 0.0047484925 0
0.0099999728 -0.11867912 0.0076622786 0
0.0097796042 -0.11842639 0.0095960591 0
-0.0096926335 -0.1153122 -0.0097139096 0
-0.00999997 -0.11547394 -0.0077267168 0
-0.0099999858 -0.11584079 -0.0043104189 0
-0.0099999961 -0.11567504 -0.0013287988 0
-0.010000006 -0.11563397 0.001529451 0
-0.010000015 -0.11540092 0.0046227574 0
-0.010000028 -0.11536461 0.0075223809 0
-0.009715776 -0.11539599 0.0098415865 0
-0.0073619429 -0.11563826 -0.0099996105 0
-0.0074813045 -0.11563456 0.010000391 0
-0.004692019 -0.11547074 -0.0099995993 0
-0.0044563012 -0.11529746 0.010000401 0
-0.0016138749 -0.11542651 -0.0099995891 0
-0.0011410669 -0.11567368 0.010000416 0
0.0014176659 -0.1154468 -0.0099995742 0
0.0013994576 -0.11549528 0.010000424 0
0.0046035079 -0.11550712 -0.0099995667 0
0.0047109127 -0.11558576 0.010000434 0
0.0071970914 -0.11517794 -0.0099995583 0
0.0073383702 -0.11543262 0.010000447 0
0.0096465806 -0.11562435 -0.0098499535 0
0.010000028 -0.11518905 -0.0075586895 0
0.010000016 -0.11559288 -0.0042629973 0
0.010000005 -0.11581391 -0.0013345355 0
0.0099999961 -0.11520915 0.0013912246 0
0.0099999821 -0.1155972 0.004539853 0
0.0099999728 -0.11526592 0.0073967483 0
0.0097217625 -0.11544104 0.0097480407 0
-0.0097448705 -0.11274414 -0.0098309284 0
-0.0099999737 -0.11244543 -0.007684892 0
-0.0099999849 -0.11263979 -0.0046831723 0
-0.009999997 -0.11259346 -0.0013158525 0
-0.010000005 -0.11237183 0.0014014981 0
-0.010000017 -0.11242861 0.0045538489 0
-0.010000028 -0.11245616 0.0076767122 0
-0.0097116698 -0.11268071 0.0097833825 0
-0.0073742513 -0.11229939 -0.0099996207 0
-0.0076928344 -0.11234319 0.01000038 0
-0.0047114501 -0.11244853 -0.0099996105 0
-0.0046130018 -0.11272445 0.01000039 0
-0.0014333385 -0.11212948 -0.0099996012 0
-0.0015575836 -0.11250813 0.010000401 0
0.0013449689 -0.11233972 -0.0099995872 0
0.0013775525 -0.11294544 0.010000415 0
0.0046422356 -0.11262675 -0.009999576 0
0.0044470415 -0.11260198 0.010000424 0
0.0075693284 -0.11259507 -0.0099995658 0
0.0077682282 -0.11257976 0.010000435 0
0.0097251609 -0.11265159 -0.0096797589 0
0.010000028 -0.11249243 -0.0074267108 0
0.010000016 -0.11289834 -0.0044039688 0
0.010000007 -0.11265039 -0.0015796988 0
0.0099999961 -0.11234586 0.0011509928 0
0.0099999839 -0.11258414 0.004611745 0
0.0099999718 -0.11243384 0.0075198133 0
0.0098414682 -0.11221895 0.0097788787 0
-0.0097940881 -0.10931313 -0.0097909821 0
-0.0099999728 -0.10953306 -0.0075092572 0
-0.0099999849 -0.10965714 -0.0045218552 0
-0.0099999961 -0.10955644 -0.001412557 0
-0.010000006 -0.10955773 0.0014507099 0
-0.010000017 -0.10961854 0.0040616738 0
-0.010000027 -0.10919687 0.0074386792 0
-0.0097543085 -0.10962474 0.0097350096 0
-0.0074584587 -0.10907803 -0.0099996338 0
-0.0077057509 -0.10949335 0.01000037 0
-0.0047877473 -0.10941642 -0.0099996226 0
-0.0045940378 -0.10961071 0.01000038 0
-0.0017613826 -0.10955323 -0.0099996114 0
-0.0014405429 -0.10942587 0.010000391 0
0.0017126888 -0.10957238 -0.0099995965 0
0.0016773907 -0.10944577 0.010000402 0
0.0044595571 -0.10953864 -0.00999959 0
0.0046273097 -0.10980618 0.010000415 0
0.0076969196 -0.10944296 -0.0099995779 0
0.0077694361 -0.10942309 0.010000422 0
0.0098121939 -0.10921837 -0.0097012836 0
0.01000003 -0.10970396 -0.0077404394 0
0.010000017 -0.10924832 -0.004642914 0
0.010000006 -0.10931522 -0.0014223011 0
0.0099999961 -0.10952396 0.0013885559 0
0.0099999849 -0.10925139 0.0045627486 0
0.0099999737 -0.10943042 0.0078138262 0
0.0097693773 -0.10982914 0.0097768866 0
-0.0095092449 -0.10664529 -0.0098810578 0
-0.0099999737 -0.10665892 -0.0074211312 0
-0.0099999858 -0.1063692 -0.0042541428 0
-0.0099999951 -0.10652927 -0.0016446018 0
-0.010000007 -0.10654734 0.0014526321 0
-0.010000017 -0.10640951 0.0044624642 0
-0.010000028 -0.10634729 0.0073787812 0
-0.0097335903 -0.10667645 0.0097270375 0
-0.0079255421 -0.10635044 -0.0099996431 0
-0.0077159479 -0.10646879 0.010000357 0
-0.0043700691 -0.10636836 -0.009999631 0
-0.0046697729 -0.10655049 0.01000037 0
-0.0016186758 -0.10659739 -0.0099996207 0
-0.001821729 -0.10610652 0.010000375 0
0.0015439698 -0.1065835 -0.0099996105 0
0.0018194094 -0.10638459 0.010000392 0
0.0043486636 -0.10627881 -0.0099995974 0
0.0045529441 -0.10648635 0.010000401 0
0.0077469395 -0.10668274 -0.0099995853 0
0.0074345381 -0.10672884 0.010000411 0
0.0097356569 -0.1064329 -0.0096917348 0
0.010000029 -0.10644891 -0.007667759 0
0.010000017 -0.10632184 -0.0044216872 0
0.010000006 -0.10697462 -0.0015364952 0
0.009999997 -0.10666324 0.0013307522 0
0.0099999839 -0.106648 0.0046700519 0
0.0099999737 -0.10633826 0.0074068164 0
0.0097546102 -0.10675627 0.0096325455 0
-0.0096906424 -0.10367869 -0.0097815515 0
-0.0099999728 -0.10335917 -0.0076800142 0
-0.0099999858 -0.10333379 -0.0044777938 0
-0.0099999933 -0.10353294 -0.0015488 0
-0.010000007 -0.10340501 0.0015850518 0
-0.010000016 -0.10352804 0.0047245598 0
-0.010000029 -0.10345842 0.0074287765 0
-0.0097736195 -0.10318904 0.009843708 0
-0.0073539144 -0.1035306 -0.0099996533 0
-0.007690296 -0.10340371 0.010000348 0
-0.0044696145 -0.10337631 -0.0099996384 0
-0.0043898136 -0.10343634 0.010000358 0
-0.0016324427 -0.10331906 -0.00999963 0
-0.0017895412 -0.10322128 0.010000369 0
0.0014458217 -0.10346307 -0.0099996189 0
0.0016707741 -0.10338237 0.010000381 0
0.0042525022 -0.10336669 -0.0099996096 0
0.004265551 -0.10366029 0.010000391 0
0.0074235718 -0.10339056 -0.0099995993 0
0.0075185443 -0.10374602 0.010000403 0
0.0097747445 -0.1035428 -0.0096670985 0
0.010000028 -0.10344238 -0.0077604814 0
0.010000017 -0.10321113 -0.0042370525 0
0.010000007 -0.10367418 -0.0015086759 0
0.0099999961 -0.10371087 0.0015526291 0
0.009999983 -0.10362189 0.0045673237 0
0.0099999718 -0.1034474 0.0073348493 0
0.009673846 -0.10370569 0.0096491007 0
-0.0095473416 -0.10056335 -0.0098175155 0
-0.0099999737 -0.10054866 -0.0075616417 0
-0.0099999849 -0.10032541 -0.0043202871 0
-0.0099999951 -0.1002315 -0.0014512417 0
-0.010000006 -0.10019924 0.0015890284 0
-0.010000016 -0.10080683 0.0043210625 0
-0.010000027 -0.10055575 0.0077280612 0
-0.0098753246 -0.1005698 0.0096734082 0
-0.0076941606 -0.10057107 -0.0099996626 0
-0.0075571695 -0.10040157 0.010000336 0
-0.0042452388 -0.10026529 -0.0099996543 0
-0.0046957508 -0.10096195 0.01000035 0
-0.0016218945 -0.10039505 -0.0099996431 0
-0.0015327102 -0.10044723 0.010000358 0
0.0011446803 -0.10048798 -0.009999631 0
0.001748318 -0.10037253 0.01000037 0
0.0046411077 -0.10044333 -0.0099996217 0
0.0048198388 -0.1004834 0.010000383 0
0.0074859164 -0.10048772 -0.0099996096 0
0.0075015319 -0.10091202 0.010000393 0
0.009830161 -0.10092477 -0.0096474914 0
0.01000003 -0.10010654 -0.0077982689 0
0.010000018 -0.10054419 -0.004561231 0
0.010000004 -0.1005018 -0.0013525389 0
0.0099999933 -0.10030627 0.0013674486 0
0.0099999858 -0.10064626 0.0044608726 0
0.0099999718 -0.10004499 0.0077245235 0
0.0097531723 -0.10038924 0.0096856626 0
-0.0098153679 -0.097169466 -0.0098276865 0
-0.0099999746 -0.09742745 -0.0073618484 0
-0.0099999858 -0.097425319 -0.0043701921 0
-0.0099999961 -0.097264528 -0.0015471047 0
-0.010000007 -0.097455911 0.0015811238 0
-0.010000017 -0.097265325 0.0046629668 0
-0.010000028 -0.097168714 0.0074646082 0
-0.0096883979 -0.097320162 0.0096818293 0
-0.0075414628 -0.097375475 -0.0099996766 0
-0.0071881795 -0.097537003 0.010000327 0
-0.0045569814 -0.097734727 -0.0099996617 0
-0.004569008 -0.097533524 0.010000338 0
-0.0017464136 -0.097701684 -0.0099996543 0
-0.0014656815 -0.097387902 0.010000349 0
0.0016829033 -0.096967191 -0.0099996412 0
0.0015995468 -0.097286791 0.010000359 0
0.0045015225 -0.09745381 -0.0099996338 0
0.0044181175 -0.097531565 0.010000369 0
0.008052961 -0.097478956 -0.0099996189 0
0.0075004855 -0.097588956 0.010000381 0
0.0097372886 -0.097748429 -0.0097967675 0
0.010000027 -0.09757378 -0.0072541516 0
0.010000017 -0.097159207 -0.0044571357 0
0.010000003 -0.097582743 -0.0015034297 0
0.0099999961 -0.097231127 0.0013167586 0
0.0099999858 -0.097445183 0.0043283831 0
0.0099999746 -0.097118765 0.0072874431 0
0.0097635211 -0.097331971 0.0096724583 0
-0.009722461 -0.094510101 -0.0097160488 0
-0.0099999737 -0.094535857 -0.0077105677 0
-0.0099999839 -0.09445525 -0.0047382633 0
-0.0099999951 -0.094593272 -0.0013927583 0
-0.010000004 -0.094116583 0.0013117124 0
-0.010000017 -0.094480179 0.0047617382 0
-0.010000027 -0.094703332 0.0074601639 0
-0.0098505151 -0.094420522 0.0096462714 0
-0.0075719021 -0.094814397 -0.009999685 0
-0.0072088158 -0.094256617 0.010000316 0
-0.0044364836 -0.09453886 -0.0099996747 0
-0.0045973454 -0.094184414 0.010000326 0
-0.0016752422 -0.094815411 -0.0099996636 0
-0.001418404 -0.094750687 0.010000339 0
0.0014395793 -0.094169714 -0.0099996552 0
0.0015274954 -0.094411805 0.010000349 0
0.0048358049 -0.094115153 -0.0099996421 0
0.0045917849 -0.094337262 0.010000359 0
0.0076915133 -0.09476728 -0.009999631 0
0.0074310983 -0.09424974 0.010000369 0
0.0098811761 -0.094712645 -0.0097356467 0
0.01000003 -0.094450578 -0.007600138 0
0.010000017 -0.094369747 -0.0045287539 0
0.010000004 -0.094445683 -0.0012209597 0
0.0099999951 -0.093962483 0.0016711843 0
0.0099999839 -0.094431952 0.0045702066 0
0.0099999737 -0.09447106 0.0077660615 0
0.0097637698 -0.094324544 0.0097759664 0
-0.0098529635 -0.091526315 -0.0097197732 0
-0.0099999746 -0.091424845 -0.0073125772 0
-0.0099999849 -0.091492973 -0.0044333101 0
-0.0099999951 -0.091375746 -0.0015699815 0
-0.010000006 -0.091288805 0.0014560976 0
-0.010000017 -0.091368601 0.0046225907 0
-0.010000028 -0.091479637 0.0074330079 0
-0.0096908072 -0.091689147 0.0098242229 0
-0.0074664108 -0.091598712 -0.0099996952 0
-0.0071767857 -0.091787882 0.010000306 0
-0.0045750509 -0.091276206 -0.0099996869 0
-0.0049507692 -0.091231726 0.010000313 0
-0.0013886925 -0.091588318 -0.0099996738 0
-0.0015586201 -0.091425344 0.010000327 0
0.0017172584 -0.091355547 -0.0099996645 0
0.0014661816 -0.09151613 0.010000338 0
0.0046001947 -0.091387488 -0.0099996533 0
0.0046053533 -0.091454856 0.010000348 0
0.0072852061 -0.091496728 -0.0099996431 0
0.0074907192 -0.091543198 0.010000356 0
0.0098050209 -0.091467142 -0.0096654864 0
0.010000027 -0.091678374 -0.0076888478 0
0.010000017 -0.09131515 -0.0045350241 0
0.010000007 -0.091731332 -0.0015937007 0
0.0099999942 -0.091580003 0.0016790564 0
0.0099999839 -0.09129484 0.0046973326 0
0.0099999718 -0.091396697 0.0079743937 0
0.0099056009 -0.091463469 0.0095677106 0
-0.0097387778 -0.088956758 -0.0098111639 0
-0.0099999718 -0.088426761 -0.0074887252 0
-0.0099999858 -0.088538565 -0.0042194016 0
-0.0099999923 -0.088597536 -0.0015149266 0
-0.010000008 -0.088779747 0.0016898696 0
-0.010000018 -0.088814221 0.0046435222 0
-0.010000027 -0.088576324 0.0074448916 0
-0.0096573317 -0.088782445 0.0096829953 0
-0.0074027427 -0.088441007 -0.0099997083 0
-0.007531933 -0.088555105 0.010000292 0
-0.004307583 -0.088296846 -0.0099996971 0
-0.0042547495 -0.088456802 0.010000304 0
-0.0015711284 -0.088461414 -0.009999685 0
-0.001495017 -0.088314727 0.010000315 0
0.0013824134 -0.088505708 -0.0099996766 0
0.0014668149 -0.08871913 0.010000328 0
0.0045575858 -0.088789582 -0.0099996626 0
0.0045449459 -0.08862032 0.010000337 0
0.0072434084 -0.088391386 -0.0099996543 0
0.0074063973 -0.088442579 0.010000349 0
0.0098500038 -0.088033944 -0.0096581858 0
0.010000028 -0.0888955 -0.0074488572 0
0.010000017 -0.088683262 -0.004564547 0
0.010000005 -0.088642217 -0.0013245489 0
0.0099999923 -0.088375866 0.0020680593 0
0.0099999849 -0.088408902 0.0046004513 0
0.0099999746 -0.088426225 0.0075143273 0
0.0096703889 -0.088137247 0.0098944847 0
-0.0097638732 -0.085248284 -0.0097850775 0
-0.0099999737 -0.085654467 -0.0077200676 0
-0.0099999858 -0.085384659 -0.004230883 0
-0.0099999961 -0.085516363 -0.0011644496 0
-0.010000004 -0.085638523 0.0013150291 0
-0.010000017 -0.085625187 0.0045302347 0
-0.010000027 -0.08565028 0.0073435437 0
-0.0098350598 -0.085267834 0.0097652664 0
-0.0077747814 -0.085511506 -0.0099997204 0
-0.0072851949 -0.085550793 0.010000286 0
-0.0045836796 -0.085574202 -0.0099997083 0
-0.0042201751 -0.085265584 0.010000294 0
-0.001272607 -0.085692048 -0.0099996952 0
-0.001704402 -0.085448854 0.010000304 0
0.0017863065 -0.08538755 -0.009999685 0
0.0013954425 -0.085786171 0.010000315 0
0.0043292167 -0.085350998 -0.0099996747 0
0.0045364592 -0.085962199 0.01000033 0
0.0077971038 -0.08549349 -0.0099996626 0
0.0074382792 -0.085558079 0.010000338 0
0.0097609526 -0.08559034 -0.0097424472 0
0.010000029 -0.08558815 -0.0074594594 0
0.010000014 -0.085488141 -0.0043879952 0
0.010000007 -0.085149437 -0.0016889757 0
0.0099999923 -0.085263096 0.0016197 0
0.009999983 -0.085374877 0.0044109514 0
0.0099999737 -0.085509963 0.0073740399 0
0.0097436095 -0.085593589 0.0098078232 0
-0.0098622954 -0.082298286 -0.0097515546 0
-0.0099999737 -0.082873657 -0.0074278573 0
-0.0099999849 -0.082705677 -0.004193807 0
-0.0099999961 -0.082530893 -0.0015373224 0
-0.010000005 -0.082332164 0.001619984 0
-0.010000017 -0.082630701 0.0043080905 0
-0.010000029 -0.082485028 0.0074736751 0
-0.0097665936 -0.082437545 0.009755116 0
-0.0077995728 -0.082589366 -0.0099997297 0
-0.0072107054 -0.082477525 0.010000274 0
-0.0048872805 -0.082348704 -0.0099997213 0
-0.0043617897 -0.08244779 0.010000283 0
-0.0012459627 -0.08244314 -0.0099997073 0
-0.0015952782 -0.082779288 0.010000295 0
0.0012204153 -0.08245299 -0.0099996962 0
0.001479623 -0.082791455 0.010000306 0
0.0046922169 -0.082439184 -0.0099996859 0
0.0046631368 -0.082528748 0.010000317 0
0.0077578849 -0.082278185 -0.0099996747 0
0.0073413933 -0.082462184 0.010000326 0
0.0096578039 -0.08237458 -0.0098561421 0
0.01000003 -0.082594343 -0.00785744 0
0.010000017 -0.08262898 -0.004710664 0
0.010000006 -0.082385585 -0.0016243533 0
0.009999997 -0.08213906 0.0013008526 0
0.0099999849 -0.082458057 0.0044334522 0
0.0099999728 -0.082622886 0.007372749 0
0.009698038 -0.082388468 0.0098338304 0
-0.0098951077 -0.079648204 -0.0095735434 0
-0.0099999728 -0.079507016 -0.0077530248 0
-0.0099999849 -0.079600088 -0.0045096236 0
-0.0099999951 -0.079505563 -0.0016960663 0
-0.010000005 -0.07939256 0.0015804883 0
-0.010000017 -0.079606138 0.004701307 0
-0.010000027 -0.079324633 0.0072895447 0
-0.0097154314 -0.079486378 0.009768703 0
-0.0075070672 -0.079622306 -0.0099997409 0
-0.007520847 -0.079607144 0.010000261 0
-0.0044952813 -0.079278775 -0.0099997306 0
-0.0045617409 -0.079889789 0.010000274 0
-0.0012451985 -0.079532169 -0.0099997176 0
-0.0015568752 -0.079532884 0.010000283 0
0.0010904869 -0.07951393 -0.0099997092 0
0.0015515722 -0.079530552 0.010000294 0
0.0044368752 -0.079398088 -0.0099996962 0
0.0045351423 -0.079535834 0.010000306 0
0.0074910843 -0.079725064 -0.0099996841 0
0.0074645756 -0.079522565 0.010000315 0
0.0097423103 -0.079497047 -0.0096994303 0
0.010000028 -0.079643928 -0.0077998587 0
0.010000019 -0.079572856 -0.0050681015 0
0.010000008 -0.079701588 -0.0018253045 0
0.0099999951 -0.079757057 0.0015593641 0
0.0099999839 -0.079485208 0.004084873 0
0.0099999718 -0.079543941 0.0073614274 0
0.0097982362 -0.079163954 0.0097295446 0
-0.0095844101 -0.076723926 -0.0098226946 0
-0.0099999709 -0.076396108 -0.0076319389 0
-0.009999983 -0.076285161 -0.0048305211 0
-0.0099999961 -0.076432161 -0.0015900893 0
-0.010000006 -0.076594003 0.0014743079 0
-0.010000017 -0.076273687 0.004733202 0
-0.010000028 -0.076321326 0.0075708544 0
-0.0098485677 -0.076754779 0.009719057 0
-0.0073249945 -0.076847248 -0.0099997493 0
-0.0076273098 -0.076432906 0.010000247 0
-0.0045547653 -0.076221377 -0.0099997418 0
-0.0043909252 -0.076190688 0.010000261 0
-0.0011099257 -0.076303855 -0.009999726 0
-0.0016803667 -0.077006817 0.010000273 0
0.0015014263 -0.0766671 -0.0099997167 0
0.0012720344 -0.076538496 0.010000282 0
0.0045072758 -0.076740377 -0.0099997064 0
0.0047885333 -0.076364659 0.010000296 0
0.0073575871 -0.07624805 -0.009999698 0
0.0076732384 -0.076186508 0.010000303 0
0.0099014584 -0.077113122 -0.0097251143 0
0.010000028 -0.076310374 -0.0077626454 0
0.010000015 -0.076095574 -0.0043495446 0
0.010000007 -0.076409087 -0.0016787226 0
0.0099999961 -0.07649643 0.0015745923 0
0.0099999849 -0.07645905 0.0045875488 0
0.0099999737 -0.076472722 0.0075259791 0
0.0097784232 -0.076706089 0.0097719999 0
-0.0098395683 -0.073581867 -0.0096084559 0
-0.0099999746 -0.073568337 -0.0072564431 0
-0.0099999839 -0.073619291 -0.0046329517 0
-0.0099999961 -0.073506884 -0.0014710153 0
-0.010000005 -0.073065236 0.0013416564 0
-0.010000017 -0.073324695 0.0045442763 0
-0.010000029 -0.073659301 0.0077509633 0
-0.0095606754 -0.07324937 0.0098731034 0
-0.0074916384 -0.073197164 -0.0099997614 0
-0.0075778179 -0.073316649 0.010000239 0
-0.0046207802 -0.073302329 -0.009999753 0
-0.0045394339 -0.07347358 0.010000251 0
-0.0014315133 -0.073580071 -0.0099997371 0
-0.001602112 -0.073848054 0.010000262 0
0.0013571121 -0.07349892 -0.0099997297 0
0.0015511997 -0.073597826 0.010000273 0
0.0044685435 -0.073563166 -0.0099997167 0
0.0041311178 -0.073536754 0.010000281 0
0.0078390297 -0.073352553 -0.0099997073 0
0.0074336906 -0.073044814 0.010000294 0
0.0098203719 -0.073939703 -0.0096628051 0
0.01000003 -0.073405318 -0.007840367 0
0.010000017 -0.073438771 -0.00427642 0
0.010000005 -0.073404029 -0.0014144693 0
0.0099999933 -0.073509537 0.0013917472 0
0.0099999858 -0.073619418 0.004355344 0
0.0099999737 -0.073935136 0.0074656019 0
0.0098216459 -0.073664911 0.0097502852 0
-0.012057397 -0.069558069 -0.012199792 0
-0.012199962 -0.069424339 -0.010542952 0
-0.012180064 -0.069632061 -0.0079392269 0
-0.012188036 -0.069565803 -0.004364721 0
-0.012199994 -0.069439359 -0.0016519135 0
-0.012197294 -0.06960097 0.001640847 0
-0.012196698 -0.069505021 0.0046612332 0
-0.012176882 -0.069548972 0.0078353602 0
-0.012181436 -0.069597937 0.010358148 0
-0.012142876 -0.069730774 0.012200208 0
-0.010491634 -0.069565013 -0.012194863 0
-0.010236286 -0.070330352 -0.010541585 0
-0.010570527 -0.070431784 -0.0076252576 0
-0.010600481 -0.070455201 -0.0046474808 0
-0.010553723 -0.070433855 -0.0012266348 0
-0.010475128 -0.070592806 0.0013042961 0
-0.010525699 -0.070457362 0.0045925961 0
-0.010722165 -0.070397176 0.0075209262 0
-0.010272831 -0.070279233 0.010480301 0
-0.0097286496 -0.069632418 0.012198039 0
-0.0074086897 -0.06958653 -0.012181735 0
-0.0074914661 -0.070458412 -0.010301642 0
-0.0077410555 -0.070556022 0.010390598 0
-0.0077364105 -0.069634251 0.012187355 0
-0.0048902812 -0.069556132 -0.012174089 0
-0.0044090776 -0.070600875 -0.010426708 0
-0.0046980823 -0.070554093 0.010440826 0
-0.0046665636 -0.069490746 0.012195281 0
-0.001329659 -0.069408201 -0.012176452 0
-0.0015418071 -0.070265658 -0.010679417 0
-0.0013736058 -0.070446052 0.010547461 0
-0.0013698086 -0.069605015 0.012184479 0
0.0014647719 -0.069621295 -0.012199415 0
0.0017543902 -0.07030528 -0.010490702 0
0.0017107315 -0.070636794 0.010505918 0
0.001801098 -0.069526821 0.012181344 0
0.0043020411 -0.06957829 -0.012178561 0
0.0044948775 -0.070454836 -0.010445286 0
0.0046229507 -0.07049422 0.010634539 0
0.0042618718 -0.069683842 0.012159947 0
0.0073888488 -0.069612242 -0.012199146 0
0.0074745719 -0.070544891 -0.010417376 0
0.007528238 -0.070413224 0.01050729 0
0.007932202 -0.069363035 0.01220028 0
0.010664525 -0.069659419 -0.012173978 0
0.010175383 -0.070365414 -0.010412676 0
0.010607789 -0.070483044 -0.0076696081 0
0.010623244 -0.070577934 -0.004238571 0
0.010382996 -0.070399627 -0.0019082985 0
0.010361562 -0.070547998 0.0017050549 0
0.010347759 -0.070558436 0.0043630344 0
0.010706807 -0.070245311 0.0074347025 0
0.010338015 -0.070301913 0.010471418 0
0.010715627 -0.069700509 0.012154892 0
0.012200044 -0.069641918 -0.012104346 0
0.01218408 -0.069657698 -0.01050437 0
0.01218761 -0.069616847 -0.0075669913 0
0.012200014 -0.069650725 -0.0040801545 0
0.012151862 -0.069720052 -0.0016882652 0
0.012188117 -0.069677241 0.0019116683 0
0.012181432 -0.069567345 0.0046970355 0
0.012187345 -0.069647275 0.0077171484 0
0.012159228 -0.069641836 0.010868556 0
0.012199956 -0.069426976 0.012013408 0
-0.01219996 -0.06734506 -0.010694103 0
-0.012199972 -0.067280412 -0.0074039288 0
-0.012199983 -0.067335851 -0.0043364954 0
-0.012199993 -0.067589827 -0.0016483872 0
-0.012200004 -0.067471936 0.0013736873 0
-0.012200015 -0.067582451 0.0041847317 0
-0.012200028 -0.067222491 0.0076011419 0
-0.012200038 -0.067352891 0.010659116 0
-0.010299996 -0.06731075 -0.012199792 0
-0.010457048 -0.067312896 0.012200206 0
-0.0073857149 -0.067427687 -0.012199782 0
-0.0075503611 -0.067209415 0.012200215 0
-0.0045933546 -0.067501463 -0.012199773 0
-0.0044915085 -0.067393437 0.012200227 0
-0.0017574261 -0.067370959 -0.012199761 0
-0.001510734 -0.067690328 0.012200238 0
0.0017368101 -0.067535162 -0.012199747 0
0.0019114055 -0.067504615 0.01220025 0
0.00434238 -0.067770645 -0.012199738 0
0.0047309366 -0.067231029 0.012200259 0
0.0074534942 -0.067697167 -0.012199727 0
0.0075256811 -0.067691565 0.012200272 0
0.010595053 -0.067406826 -0.012199717 0
0.010399956 -0.067587554 0.012200281 0
0.012097001 -0.067436397 -0.012199712 0
0.012200038 -0.067870431 -0.010700225 0
0.012200026 -0.067444131 -0.0071747685 0
0.012200017 -0.067540385 -0.0045296447 0
0.012200004 -0.06771192 -0.0015165035 0
0.012199995 -0.067343935 0.0013704048 0
0.012199984 -0.067296177 0.0044950647 0
0.012199971 -0.06752637 0.0076116351 0
0.012199963 -0.067298435 0.010385321 0
0.012199956 -0.06773749 0.012120402 0
-0.012199961 -0.064369783 -0.010528453 0
-0.012199971 -0.064568117 -0.0076300469 0
-0.012199983 -0.064503752 -0.004557936 0
-0.012199993 -0.064764477 -0.0015421899 0
-0.012200005 -0.064446382 0.0015262763 0
-0.012200015 -0.064444162 0.004174917 0
-0.012200025 -0.064227499 0.0072406689 0
-0.012200037 -0.06457109 0.010175291 0
-0.012192817 -0.064748324 0.012145185 0
-0.010413866 -0.06470827 -0.012199801 0
-0.010500881 -0.064133264 0.012200193 0
-0.0075451187 -0.0642156 -0.012199794 0
-0.0074929935 -0.064191118 0.012200206 0
-0.0044471011 -0.064369395 -0.012199783 0
-0.0046671615 -0.064763173 0.012200217 0
-0.0015510882 -0.064495705 -0.012199771 0
-0.0015693122 -0.064435489 0.012200226 0
0.0014733188 -0.064423203 -0.012199761 0
0.0018021718 -0.064375833 0.012200238 0
0.0042410986 -0.064241044 -0.012199751 0
0.0042649051 -0.064580575 0.012200248 0
0.0076621841 -0.064552158 -0.012199738 0
0.0077164168 -0.064741202 0.012200262 0
0.01024556 -0.064468391 -0.012199728 0
0.010422594 -0.064921618 0.012200272 0
0.012200039 -0.064041734 -0.010776373 0
0.012200028 -0.064403199 -0.0076467912 0
0.012200016 -0.064590722 -0.0042735492 0
0.012200004 -0.064873084 -0.0015594849 0
0.012199993 -0.064530402 0.0015077004 0
0.012199982 -0.064328857 0.0047648763 0
0.012199974 -0.064494446 0.0070274491 0
0.012199961 -0.06408149 0.01063646 0
0.012170129 -0.064636141 0.012103756 0
-0.012159175 -0.060355362 -0.012175976 0
-0.012199962 -0.061649572 -0.010561694 0
-0.012199971 -0.061577536 -0.0075950581 0
-0.012199983 -0.061200436 -0.0044881417 0
-0.012199994 -0.061547913 -0.0015385853 0
-0.012200005 -0.061286282 0.0015038804 0
-0.012200017 -0.061608229 0.0046167769 0
-0.012200026 -0.061425049 0.0074244621 0
-0.012200037 -0.061598215 0.010553255 0
-0.012148265 -0.061461888 0.012122991 0
-0.010751308 -0.061499424 -0.012199815 0
-0.010400787 -0.0615458 0.012200185 0
-0.0073486413 -0.061403133 -0.012199804 0
-0.0076260846 -0.061802965 0.012200194 0
-0.0043137386 -0.061855927 -0.012199792 0
-0.0046861749 -0.06154174 0.012200205 0
-0.0013601219 -0.06137652 -0.012199782 0
-0.0016169763 -0.061566617 0.012200216 0
0.0016013702 -0.06164632 -0.012199771 0
0.0016016706 -0.061490312 0.012200228 0
0.0044822106 -0.061400156 -0.01219976 0
0.004394012 -0.06134389 0.012200236 0
0.0075675757 -0.061418764 -0.01219975 0
0.0072349831 -0.061352372 0.012200247 0
0.010588692 -0.060900852 -0.01219974 0
0.010574866 -0.061614253 0.01220026 0
0.012200044 -0.061572626 -0.012095092 0
0.012200037 -0.061362159 -0.010493216 0
0.012200027 -0.061369482 -0.007794877 0
0.012200016 -0.061619196 -0.0045420583 0
0.012200005 -0.061250422 -0.0014234022 0
0.012199995 -0.061654259 0.0013357279 0
0.012199983 -0.061775371 0.0044821962 0
0.012199972 -0.061641939 0.0074254163 0
0.012199962 -0.061260168 0.010420064 0
0.012133677 -0.06133122 0.012098651 0
-0.012045463 -0.058679171 -0.012199831 0
-0.012199963 -0.058338646 -0.010334833 0
-0.012199973 -0.058449786 -0.0074551515 0
-0.012199982 -0.058675822 -0.0045267921 0
-0.012199992 -0.058364317 -0.0016944789 0
-0.012200004 -0.058532249 0.0012401398 0
-0.012200017 -0.058719035 0.0048071514 0
-0.012200026 -0.058640204 0.0074913297 0
-0.012200038 -0.05854933 0.010442929 0
-0.010429529 -0.058842372 -0.012199825 0
-0.010321608 -0.058617279 0.012200174 0
-0.007888549 -0.058484122 -0.012199816 0
-0.0075141732 -0.058352858 0.012200183 0
-0.00472074 -0.058198091 -0.012199805 0
-0.0045306426 -0.05873375 0.012200195 0
-0.0014595885 -0.058592469 -0.012199793 0
-0.0013285129 -0.058538415 0.012200207 0
0.0015779232 -0.058277734 -0.012199782 0
0.0016150628 -0.058273673 0.012200217 0
0.0046656672 -0.05838313 -0.012199771 0
0.0044774693 -0.05853175 0.012200228 0
0.0077331848 -0.058300268 -0.012199759 0
0.0073973183 -0.058381479 0.012200238 0
0.010302893 -0.058781017 -0.01219975 0
0.010549869 -0.058179688 0.012200247 0
0.012169482 -0.058355905 -0.012138149 0
0.012200038 -0.058376778 -0.01079463 0
0.012200027 -0.058391146 -0.0076100058 0
0.012200016 -0.058664311 -0.0043190112 0
0.012200004 -0.058567133 -0.0013846238 0
0.012199994 -0.058706965 0.0014418642 0
0.012199984 -0.058438025 0.0045014452 0
0.012199973 -0.058362771 0.0075749895 0
0.012199961 -0.058498733 0.010456138 0
0.012121778 -0.057834413 0.012168022 0
-0.012162037 -0.055925995 -0.012166886 0
-0.012199963 -0.055322126 -0.010404197 0
-0.012199972 -0.055576853 -0.0075868871 0
-0.012199984 -0.055524029 -0.0044143759 0
-0.012199995 -0.055635992 -0.0013783714 0
-0.012200003 -0.05534124 0.0013211153 0
-0.012200016 -0.055563215 0.0046240212 0
-0.012200027 -0.055467587 0.0074506714 0
-0.012200038 -0.05520571 0.010748769 0
-0.012200044 -0.056833427 0.012002025 0
-0.010533675 -0.055628959 -0.012199837 0
-0.010427548 -0.055691693 0.012200162 0
-0.0074671251 -0.055521604 -0.012199826 0
-0.0075684357 -0.055396147 0.012200173 0
-0.0044914973 -0.055216778 -0.012199814 0
-0.0044794469 -0.055369657 0.012200184 0
-0.0017380217 -0.055392954 -0.012199805 0
-0.0015857873 -0.056031179 0.012200197 0
0.0016648712 -0.055571917 -0.012199793 0
0.0018690237 -0.055414926 0.012200206 0
0.004293866 -0.055621404 -0.012199783 0
0.0050586751 -0.055642657 0.01220022 0
0.0079141874 -0.055087946 -0.012199771 0
0.0076103639 -0.055552021 0.012200228 0
0.010656075 -0.055455413 -0.01219976 0
0.010400996 -0.055447549 0.012200237 0
0.012200038 -0.0556092 -0.010446004 0
0.012200028 -0.055341519 -0.0078089754 0
0.012200016 -0.055568438 -0.0045943526 0
0.012200003 -0.05522497 -0.0011484493 0
0.012199995 -0.055352028 0.0013568917 0
0.012199983 -0.05537229 0.0044547371 0
0.012199972 -0.055848505 0.0077202809 0
0.012199961 -0.055492856 0.010556519 0
0.012141786 -0.055421319 0.012177874 0
-0.012168625 -0.052101888 -0.012142949 0
-0.012199961 -0.052370984 -0.010429248 0
-0.012199972 -0.052328687 -0.0075370292 0
-0.012199984 -0.052446287 -0.0042277812 0
-0.012199995 -0.052435488 -0.0013447524 0
-0.012200004 -0.052642688 0.0013062103 0
-0.012200016 -0.052203376 0.0045947647 0
-0.012200026 -0.052409805 0.0075793257 0
-0.012200037 -0.05271795 0.010472672 0
-0.012160977 -0.051779028 0.01211079 0
-0.010586658 -0.052417487 -0.012199847 0
-0.010447611 -0.05230527 0.01220015 0
-0.0075719915 -0.052413009 -0.012199836 0
-0.0073693465 -0.05261318 0.012200164 0
-0.0045968359 -0.052435774 -0.012199826 0
-0.0042876401 -0.05211325 0.012200173 0
-0.0013313775 -0.052545238 -0.012199814 0
-0.0013061379 -0.052106898 0.012200184 0
0.0017548137 -0.052219521 -0.012199804 0
0.0011463393 -0.052434765 0.012200193 0
0.0046864976 -0.052458741 -0.012199793 0
0.0042572324 -0.052518729 0.012200206 0
0.0074867699 -0.052384228 -0.012199783 0
0.007379022 -0.052411519 0.012200216 0
0.010445528 -0.052491345 -0.012199772 0
0.010684708 -0.052197769 0.012200228 0
0.012172694 -0.052892037 -0.012150392 0
0.012200037 -0.052706446 -0.010464913 0
0.012200027 -0.052408006 -0.0075189038 0
0.012200016 -0.052475695 -0.0044966261 0
0.012200005 -0.0522548 -0.0018324157 0
0.012199995 -0.05242727 0.0012518442 0
0.012199983 -0.052468959 0.0047326647 0
0.012199973 -0.052322492 0.00741133 0
0.012199962 -0.052707728 0.010388232 0
0.012126924 -0.05233543 0.012200233 0
-0.012148481 -0.049919359 -0.012195563 0
-0.012199962 -0.049185529 -0.010567106 0
-0.012199973 -0.049798593 -0.0075888657 0
-0.012199982 -0.049347762 -0.0045226379 0
-0.012199994 -0.049020573 -0.0012933395 0
-0.012200004 -0.050039496 0.0014735238 0
-0.012200017 -0.049225353 0.004507524 0
-0.012200027 -0.049701352 0.0075515849 0
-0.012200038 -0.049377546 0.010725307 0
-0.012125231 -0.04908368 0.012200134 0
-0.010438664 -0.049361926 -0.012199859 0
-0.010726401 -0.049779553 0.01220014 0
-0.0071245171 -0.049652062 -0.012199845 0
-0.0072241016 -0.049447253 0.012200153 0
-0.0046944777 -0.049559627 -0.012199836 0
-0.004436905 -0.049387153 0.012200163 0
-0.0013205628 -0.049373366 -0.012199825 0
-0.0013363239 -0.049206555 0.012200173 0
0.0014843064 -0.049364388 -0.012199815 0
0.0017152444 -0.049830135 0.012200187 0
0.0045294785 -0.049798463 -0.012199801 0
0.0043220092 -0.049242381 0.012200193 0
0.0075525916 -0.049705815 -0.012199793 0
0.0074835769 -0.049560577 0.012200206 0
0.010554913 -0.049796157 -0.01219978 0
0.010409873 -0.049669594 0.012200217 0
0.012200044 -0.050246082 -0.012098362 0
0.012200037 -0.049410827 -0.010476206 0
0.012200026 -0.049658164 -0.0074068466 0
0.012200017 -0.049743224 -0.0046084365 0
0.012200005 -0.049410027 -0.0017202919 0
0.012199993 -0.049587782 0.0015875666 0
0.012199985 -0.049384039 0.004175907 0
0.012199972 -0.049861502 0.0077703525 0
0.012199962 -0.049519125 0.01046532 0
0.012153044 -0.050011847 0.012154076 0
-0.012122257 -0.047747772 -0.012159388 0
-0.012199962 -0.046528261 -0.010436992 0
-0.012199971 -0.04646514 -0.0080784718 0
-0.012199984 -0.046519112 -0.0043344214 0
-0.012199994 -0.046372913 -0.0014778299 0
-0.012200004 -0.046446856 0.0016593637 0
-0.012200016 -0.046394035 0.0047589857 0
-0.012200026 -0.046580251 0.0074337833 0
-0.012200037 -0.046375804 0.010363946 0
-0.012145813 -0.046920281 0.012143324 0
-0.010281976 -0.046431888 -0.012199868 0
-0.010388587 -0.046318889 0.01220013 0
-0.0074226698 -0.046475146 -0.012199858 0
-0.0073946277 -0.046266131 0.01220014 0
-0.0044317041 -0.046343658 -0.012199848 0
-0.0045577972 -0.046147067 0.012200149 0
-0.0014903883 -0.046566471 -0.012199837 0
-0.0013663857 -0.046236329 0.012200162 0
0.0010034515 -0.046453524 -0.012199827 0
0.0013348707 -0.046362646 0.012200172 0
0.0044379737 -0.046479192 -0.012199815 0
0.0045829052 -0.046881758 0.012200185 0
0.0075136656 -0.046594124 -0.012199804 0
0.00727204 -0.046447992 0.012200193 0
0.010501091 -0.046442419 -0.012199792 0
0.01041851 -0.046313975 0.012200204 0
0.012200044 -0.04592488 -0.012084586 0
0.012200037 -0.046504226 -0.010257277 0
0.012200029 -0.046404306 -0.0078730835 0
0.012200016 -0.04636763 -0.0045092497 0
0.012200005 -0.04631646 -0.0014231849 0
0.012199993 -0.046489827 0.0016219849 0
0.012199984 -0.04654507 0.0044551077 0
0.012199971 -0.046482667 0.0078091738 0
0.012199962 -0.046688043 0.010409479 0
0.012100534 -0.047260601 0.012200215 0
-0.012196036 -0.043447237 -0.01213712 0
-0.012199962 -0.043762401 -0.010404634 0
-0.012199971 -0.043613292 -0.0076684691 0
-0.012199983 -0.043232732 -0.0045099515 0
-0.012199994 -0.043266539 -0.0014877314 0
-0.012200004 -0.043351375 0.0014604315 0
-0.012200016 -0.043677632 0.0043837642 0
-0.012200028 -0.043586161 0.0076085157 0
-0.012200036 -0.043584462 0.010411945 0
-0.012125177 -0.043195371 0.01215991 0
-0.010330366 -0.043555543 -0.01219988 0
-0.010521772 -0.043429859 0.012200119 0
-0.0075416188 -0.043600354 -0.012199868 0
-0.0074958839 -0.043437466 0.012200129 0
-0.0045332089 -0.043355867 -0.012199858 0
-0.0046199081 -0.0437297 0.01220014 0
-0.0015408763 -0.043519974 -0.012199847 0
-0.0012619983 -0.043160882 0.012200152 0
