# .PCD v0.7 - Point Cloud Data file format
VERSION 0.7
FIELDS x y z rgb
SIZE 4 4 4 4
TYPE F F F F
COUNT 1 1 1 1
WIDTH 1168
HEIGHT 1
VIEWPOINT 0 0 0 1 0 0 0
POINTS 1168
DATA ascii
-3.4298004e-08 -0.10942877 0.0094750086 0
-0.0098095499 -0.10643446 -0.0097575234 0
-0.0099999737 -0.10644928 -0.0074690967 0
-0.0099999821 -0.10634006 -0.0046195653 0
-0.0099999942 -0.10675462 -0.00117316 0
-0.010000004 -0.10648711 0.0015621021 0
-0.010000013 -0.10670227 0.0043618404 0
-0.010000026 -0.10646434 0.0074456716 0
-0.0097189993 -0.106638 0.0096789151 0
-0.007634338 -0.10632839 -0.009999644 0
-0.0076987646 -0.10674781 0.010000356 0
-0.0043689371 -0.10670307 -0.0099996272 0
-0.00496099 -0.10654933 0.010000368 0
-0.0015669323 -0.10635116 -0.0099996198 0
-0.0013025879 -0.10650228 0.01000038 0
3.4132096e-08 -0.10656947 -0.0094283959 0
2.6300825e-08 -0.10659501 -0.0072650551 0
1.6651738e-08 -0.10665835 -0.004599554 0
4.3957797e-09 -0.10653656 -0.0012139215 0
-4.651973e-09 -0.10636547 0.0012854639 0
-1.6244165e-08 -0.10658047 0.0044877366 0
-2.7539935e-08 -0.10649402 0.0076081231 0
-3.4312713e-08 -0.10608746 0.0094790598 0
-0.0096871573 -0.10346158 -0.0098031675 0
-0.009999969 -0.10343079 -0.0076431986 0
-0.0099999812 -0.10371982 -0.0045543411 0
-0.0099999923 -0.10358528 -0.0017464068 0
-0.010000004 -0.10381642 0.0016522381 0
-0.010000017 -0.10342503 0.0045760097 0
-0.010000024 -0.10355526 0.0075381165 0
-0.0097956089 -0.10348374 0.009757367 0
-0.007297887 -0.10361706 -0.0099996505 0
-0.0074209683 -0.10368017 0.010000348 0
-0.0047010672 -0.10340773 -0.0099996403 0
-0.0045808121 -0.10372397 0.010000355 0
-0.001617776 -0.1035679 -0.00999963 0
-0.0014946318 -0.10340143 0.010000368 0
3.414408e-08 -0.10340796 -0.0094317179 0
2.7349138e-08 -0.10347581 -0.0075546568 0
1.5912233e-08 -0.10347573 -0.0043952824 0
5.3136473e-09 -0.103626 -0.0014674873 0
-5.6877059e-09 -0.10356956 0.0015715687 0
-1.5628714e-08 -0.10333084 0.0043177102 0
-2.7037645e-08 -0.10355384 0.0074693579 0
-3.4518202e-08 -0.10297076 0.0095358137 0
-0.0097800652 -0.10043053 -0.0097668553 0
-0.0099999709 -0.10033774 -0.0075316424 0
-0.009999983 -0.1002868 -0.0043162922 0
-0.0099999933 -0.10064585 -0.0013766275 0
-0.010000004 -0.10026655 0.0017360873 0
-0.010000017 -0.10039032 0.0049029002 0
-0.010000027 -0.1004449 0.0071339956 0
-0.009808274 -0.10048095 0.0097873658 0
-0.0073676305 -0.10053746 -0.0099996645 0
-0.0076597445 -0.1005131 0.010000334 0
-0.0043001724 -0.10039037 -0.0099996515 0
-0.0044717863 -0.10070492 0.010000349 0
-0.0016591056 -0.10057354 -0.0099996412 0
-0.001358951 -0.10076685 0.010000357 0
3.4414505e-08 -0.10010972 -0.0095064333 0
2.688193e-08 -0.10032869 -0.0074256044 0
1.6590997e-08 -0.10072636 -0.0045827962 0
6.0039507e-09 -0.10015236 -0.0016581919 0
-5.8034821e-09 -0.10031691 0.0016035393 0
-1.5256534e-08 -0.10025574 0.0042148861 0
-2.7082812e-08 -0.10050818 0.0074818241 0
-3.3921086e-08 -0.10072527 0.009370856 0
-0.0096563185 -0.097413272 -0.0098164855 0
-0.0099999728 -0.097308196 -0.0077218143 0
-0.0099999821 -0.097376041 -0.0045043132 0
-0.0099999923 -0.097370088 -0.0014388792 0
-0.010000006 -0.097608984 0.0015343835 0
-0.010000015 -0.097610444 0.0044516562 0
-0.010000028 -0.097822651 0.0077487878 0
-0.0096322093 -0.097507849 0.0098505979 0
-0.0077120769 -0.097357936 -0.0099996766 0
-0.0072920555 -0.097538173 0.010000325 0
-0.0045708208 -0.097488955 -0.0099996626 0
-0.0043820515 -0.097524457 0.010000335 0
-0.0014647846 -0.097734571 -0.0099996487 0
-0.0012586185 -0.097574934 0.010000346 0
3.387019e-08 -0.097391866 -0.0093560787 0
2.7069154e-08 -0.097510085 -0.0074773342 0
1.6798202e-08 -0.097573474 -0.0046400465 0
4.8565134e-09 -0.097519241 -0.001341229 0
-5.9202585e-09 -0.097512089 0.001635788 0
-1.5916916e-08 -0.097732589 0.0043973038 0
-2.7859777e-08 -0.097330689 0.0076964442 0
-3.4141369e-08 -0.097725287 0.0094316965 0
-0.0098673506 -0.094736055 -0.0095533365 0
-0.00999997 -0.094427928 -0.0076114316 0
-0.0099999812 -0.094670564 -0.0044823606 0
-0.0099999923 -0.094619334 -0.0015160915 0
-0.010000004 -0.094339319 0.0015418283 0
-0.010000018 -0.094739422 0.0046462566 0
-0.010000027 -0.094153412 0.0077028829 0
-0.0097858151 -0.094649978 0.00974371 0
-0.0073753032 -0.094476826 -0.0099996822 0
-0.0073075006 -0.094629653 0.010000315 0
-0.0045751333 -0.094434462 -0.0099996738 0
-0.0046971641 -0.094629779 0.010000323 0
-0.0014708561 -0.094556257 -0.0099996636 0
-0.0012167931 -0.094575331 0.010000337 0
3.4080934e-08 -0.094597585 -0.009414305 0
2.7308285e-08 -0.094418287 -0.0075434041 0
1.6643478e-08 -0.094676808 -0.0045973156 0
6.1503456e-09 -0.094432727 -0.0016986533 0
-5.7709202e-09 -0.094493948 0.0015945232 0
-1.7109258e-08 -0.094491415 0.0047266693 0
-2.5674783e-08 -0.09427201 0.0070928424 0
-3.4658921e-08 -0.094981551 0.0095746573 0
-0.0096827801 -0.09177155 -0.0098203626 0
-0.0099999718 -0.091612741 -0.0075092716 0
-0.0099999821 -0.091823675 -0.0046436414 0
-0.0099999942 -0.091410004 -0.0014766032 0
-0.010000007 -0.091370054 0.0016046815 0
-0.010000016 -0.091546871 0.0046421085 0
-0.010000025 -0.091368705 0.0075213336 0
-0.0098112356 -0.091720864 0.0098236436 0
-0.0076636309 -0.091638058 -0.0099996952 0
-0.0075954739 -0.091359235 0.010000302 0
-0.0043760086 -0.091377944 -0.0099996831 0
-0.0043624905 -0.091588557 0.010000313 0
-0.0017012457 -0.091292724 -0.0099996757 0
-0.0013386743 -0.09128724 0.010000324 0
3.4589277e-08 -0.091701329 -0.0095547438 0
2.7382884e-08 -0.091400579 -0.0075640222 0
1.6275315e-08 -0.091229163 -0.0044956254 0
5.469921e-09 -0.091593534 -0.0015107004 0
-5.6718421e-09 -0.091641068 0.0015671432 0
-1.509318e-08 -0.091492526 0.0041697291 0
-2.6609451e-08 -0.091671377 0.0073510292 0
-3.4490306e-08 -0.091155201 0.0095280642 0
-0.0097347423 -0.088339701 -0.009723017 0
-0.0099999737 -0.088581651 -0.0074619087 0
-0.0099999802 -0.088481307 -0.0046740482 0
-0.0099999933 -0.088441245 -0.001396699 0
-0.010000006 -0.088955604 0.00157034 0
-0.010000015 -0.088596232 0.0045303423 0
-0.010000024 -0.088454075 0.0074448255 0
-0.009769531 -0.088420384 0.0097647095 0
-0.0075564273 -0.088317029 -0.0099997045 0
-0.0073110075 -0.088323645 0.01000029 0
-0.0042790757 -0.088163488 -0.0099996962 0
-0.0046835607 -0.088532239 0.010000302 0
-0.0017271399 -0.088364802 -0.009999685 0
-0.0015615021 -0.088456929 0.010000313 0
3.4412512e-08 -0.088373557 -0.0095059248 0
2.7903651e-08 -0.088448688 -0.0077078915 0
1.6244835e-08 -0.088502042 -0.0044872151 0
5.6399072e-09 -0.088843144 -0.001557668 0
-5.555862e-09 -0.088832572 0.0015350942 0
-1.7356026e-08 -0.088768385 0.0047948165 0
-2.6709843e-08 -0.088766955 0.0073787509 0
-3.4428901e-08 -0.088684812 0.0095110936 0
-0.0097430507 -0.08558131 -0.0097981328 0
-0.009999969 -0.085681453 -0.0077692997 0
-0.0099999812 -0.08551953 -0.00441508 0
-0.0099999905 -0.085432075 -0.001708734 0
-0.010000004 -0.085124977 0.0013861536 0
-0.010000015 -0.085379578 0.0046916814 0
-0.010000026 -0.085363396 0.0074721179 0
-0.0096286405 -0.085726865 0.0098425746 0
-0.0074016661 -0.085454978 -0.0099997148 0
-0.0074581085 -0.08555714 0.01000028 0
-0.0046296092 -0.085472882 -0.0099997064 0
-0.0045163278 -0.085446373 0.01000029 0
-0.0015154572 -0.085701324 -0.0099996952 0
-0.0015706845 -0.085361592 0.010000302 0
3.3736189e-08 -0.085859805 -0.0093191033 0
2.7830389e-08 -0.085620008 -0.0076876637 0
1.6922968e-08 -0.085810691 -0.0046745553 0
6.0919505e-09 -0.085589513 -0.001682554 0
-4.6130628e-09 -0.085644037 0.0012746402 0
-1.5732944e-08 -0.08547125 0.0043464382 0
-2.7731041e-08 -0.085409112 0.0076608383 0
-3.4064566e-08 -0.085476145 0.0094104363 0
-0.0098103788 -0.082669578 -0.0097291535 0
-0.0099999728 -0.082553081 -0.0074551688 0
-0.0099999821 -0.082492582 -0.0042538936 0
-0.0099999914 -0.082514085 -0.0014553169 0
-0.010000005 -0.082617939 0.0014039387 0
-0.010000015 -0.082675442 0.0045703761 0
-0.010000028 -0.082422376 0.0075742076 0
-0.009787594 -0.082402967 0.0097169885 0
-0.0075467508 -0.082826287 -0.0099997278 0
-0.0075127478 -0.082508266 0.010000269 0
-0.0046442752 -0.082399629 -0.0099997167 0
-0.0044309585 -0.082473814 0.010000283 0
-0.0013528534 -0.082369253 -0.0099997045 0
-0.00148611 -0.082409821 0.010000291 0
3.4591334e-08 -0.082329035 -0.0095553454 0
2.7383829e-08 -0.082221813 -0.0075643165 0
1.613496e-08 -0.082591288 -0.0044568847 0
4.5955533e-09 -0.082447007 -0.0012691948 0
-5.254071e-09 -0.08238861 0.001451703 0
-1.6012441e-08 -0.082307272 0.0044236365 0
-2.7459613e-08 -0.082601808 0.0075858482 0
-3.4964888e-08 -0.082502052 0.0096591339 0
-0.0097154789 -0.079332948 -0.0097876722 0
-0.0099999718 -0.079534009 -0.0072406372 0
-0.0099999839 -0.079402708 -0.0044159382 0
-0.0099999923 -0.079461768 -0.0013331507 0
-0.010000003 -0.079286061 0.001548045 0
-0.010000014 -0.079629838 0.0043399404 0
-0.010000028 -0.079360798 0.0074978392 0
-0.0097952075 -0.079413921 0.0096902298 0
-0.0075419126 -0.079326205 -0.009999739 0
-0.0072611445 -0.079624601 0.01000026 0
-0.0045091286 -0.079667568 -0.009999726 0
-0.004657953 -0.079386353 0.010000269 0
-0.0016917945 -0.079336606 -0.0099997167 0
-0.0016734002 -0.079468593 0.010000279 0
3.4025835e-08 -0.079377964 -0.0093991393 0
2.7003964e-08 -0.079280309 -0.0074593918 0
1.7308004e-08 -0.079428189 -0.0047809421 0
5.0984106e-09 -0.079403274 -0.0014081171 0
-5.5522875e-09 -0.079513691 0.0015340731 0
-1.7646823e-08 -0.07952933 0.0048751142 0
-2.7113352e-08 -0.079766206 0.0074901851 0
-3.4380815e-08 -0.079456523 0.0094977766 0
-0.0097646555 -0.076451465 -0.0096662445 0
-0.00999997 -0.076479547 -0.0077450429 0
-0.0099999849 -0.076406077 -0.0044394112 0
-0.0099999942 -0.076576076 -0.0015616331 0
-0.010000003 -0.076304868 0.001483899 0
-0.010000017 -0.076736301 0.0045877537 0
-0.010000026 -0.07656803 0.0075469376 0
-0.0097850887 -0.076798782 0.0097316867 0
-0.0073733493 -0.076482885 -0.0099997493 0
-0.0075594541 -0.076412633 0.01000025 0
-0.0044973497 -0.076639995 -0.0099997371 0
-0.0047728023 -0.076407082 0.010000258 0
-0.0014796596 -0.076514266 -0.0099997297 0
-0.0014329173 -0.076584689 0.010000271 0
3.4349014e-08 -0.076469377 -0.0094884271 0
2.6738068e-08 -0.076526769 -0.0073859496 0
1.5008032e-08 -0.076510854 -0.0041455994 0
5.7030607e-09 -0.07697615 -0.0015751567 0
-5.223737e-09 -0.076423794 0.0014433018 0
-1.6148608e-08 -0.076481916 0.0044612307 0
-2.7331268e-08 -0.076471888 0.0075503713 0
-3.4268425e-08 -0.076504886 0.009466718 0
-0.0096208286 -0.073356569 -0.0097592678 0
-0.0099999709 -0.07335794 -0.0074126669 0
-0.0099999821 -0.073265165 -0.0046097036 0
-0.0099999933 -0.073659085 -0.0013059352 0
-0.010000003 -0.073318355 0.0014686488 0
-0.010000017 -0.073703967 0.0044442299 0
-0.010000026 -0.073699273 0.007414659 0
-0.0097191203 -0.073756032 0.0098450547 0
-0.0075053843 -0.073304549 -0.0099997632 0
-0.0073636142 -0.073554322 0.010000235 0
-0.004313298 -0.073521346 -0.0099997483 0
-0.0046970467 -0.073805548 0.010000249 0
-0.0016524489 -0.073618084 -0.0099997362 0
-0.0015975144 -0.073611572 0.010000258 0
3.439602e-08 -0.073511332 -0.0095014228 0
2.8143178e-08 -0.073652849 -0.0077741132 0
1.6572219e-08 -0.073453717 -0.0045777075 0
5.5158269e-09 -0.073349409 -0.0015234477 0
-5.8053362e-09 -0.073509984 0.0016039545 0
-1.5672628e-08 -0.073644489 0.0043297336 0
-2.7577626e-08 -0.073601522 0.0076184156 0
-3.4586236e-08 -0.073537812 0.0095545016 0
-0.0097168395 -0.070464075 -0.0097927162 0
-0.00999997 -0.070678048 -0.0078055975 0
-0.0099999812 -0.070598528 -0.0046377946 0
-0.0099999914 -0.070650958 -0.0016783915 0
-0.010000004 -0.070314705 0.0016955439 0
-0.010000016 -0.070312388 0.0046222247 0
-0.010000026 -0.070373751 0.0074083386 0
-0.0097725075 -0.070728138 0.0097622862 0
-0.0074696364 -0.070140712 -0.0099997707 0
-0.0075424565 -0.07045234 0.010000226 0
-0.0045484412 -0.070689082 -0.0099997576 0
-0.0042302925 -0.070242837 0.010000241 0
-0.0014158576 -0.070509717 -0.0099997474 0
-0.001115781 -0.070575044 0.010000252 0
3.4160589e-08 -0.070437327 -0.0094363969 0
2.6511261e-08 -0.070619293 -0.0073233172 0
1.6521561e-08 -0.070628591 -0.0045637237 0
5.1429785e-09 -0.070643924 -0.0014204604 0
-5.9974554e-09 -0.070494369 0.0016570153 0
-1.5116866e-08 -0.070664823 0.0041761966 0
-2.7624749e-08 -0.070517346 0.007631422 0
-3.3916137e-08 -0.070305042 0.0093693789 0
-0.0097911097 -0.067719296 -0.0096798576 0
-0.0099999728 -0.067516237 -0.0075787725 0
-0.0099999839 -0.067776158 -0.0045858789 0
-0.0099999933 -0.067340851 -0.0014129679 0
-0.010000004 -0.067583166 0.0014031733 0
-0.010000014 -0.067363888 0.0046439772 0
-0.010000024 -0.067448184 0.0074902084 0
-0.0097080981 -0.067467518 0.0098347822 0
-0.0074776653 -0.067629531 -0.00999978 0
-0.0075307391 -0.067658313 0.010000216 0
-0.0043611573 -0.0676376 -0.0099997679 0
-0.0045154304 -0.067522228 0.010000224 0
-0.001274061 -0.067571364 -0.0099997576 0
-0.0012518576 -0.067604437 0.010000238 0
3.4189835e-08 -0.067722201 -0.0094444863 0
2.717214e-08 -0.067140475 -0.0075058932 0
1.6248007e-08 -0.067422293 -0.0044881683 0
4.0769752e-09 -0.067355715 -0.0011259955 0
-5.5169749e-09 -0.067542948 0.0015242748 0
-1.6987148e-08 -0.067590788 0.0046928395 0
-2.7187168e-08 -0.067584738 0.0075105322 0
-3.4466893e-08 -0.06790217 0.0095215132 0
-0.013687074 -0.063432023 -0.013710066 0
-0.013531648 -0.063479595 -0.010455113 0
-0.013855661 -0.063459463 -0.0073742298 0
-0.013365365 -0.063457288 -0.0046862587 0
-0.013765489 -0.063440315 -0.0017910056 0
-0.013681225 -0.063443281 0.0015872536 0
-0.013702136 -0.063441955 0.004213803 0
-0.013757614 -0.063460991 0.0075635789 0
-0.0137883 -0.063453555 0.010426029 0
-0.01366648 -0.063391954 0.013927129 0
-0.010495228 -0.063478626 -0.013481511 0
-0.010188261 -0.063899167 -0.010403145 0
-0.01034421 -0.064396404 -0.0074859583 0
-0.010460413 -0.064256646 -0.0045219068 0
-0.01029543 -0.06436307 -0.0014134074 0
-0.010325678 -0.064354464 0.0014329826 0
-0.010527439 -0.064116754 0.0044259764 0
-0.010511903 -0.064093046 0.0075130383 0
-0.010299424 -0.063782319 0.010402431 0
-0.01047144 -0.063464753 0.013548668 0
-0.0071811038 -0.063448831 -0.013667527 0
-0.007538483 -0.06411662 -0.010418499 0
-0.0073761982 -0.064048551 0.010435827 0
-0.0074917143 -0.063455552 0.013563368 0
-0.0046968609 -0.063493729 -0.013704944 0
-0.0041849134 -0.064023361 -0.010598113 0
-0.0043891859 -0.064283468 0.01046505 0
-0.004516134 -0.063485727 0.013623504 0
-0.0014967726 -0.063473031 -0.013644833 0
-0.0016032145 -0.064215817 -0.010445898 0
-0.0013612787 -0.064187512 0.010596461 0
-0.0015270073 -0.063485071 0.013423229 0
0.0017851746 -0.063463755 -0.013569933 0
0.0012906641 -0.063670158 -0.010388031 0
0.00084306794 -0.063952565 -0.0074053584 0
0.00084777019 -0.064059906 -0.0045106187 0
0.00084873126 -0.064090244 -0.0014761272 0
0.00084851705 -0.064062506 0.001697217 0
0.00065648521 -0.064141177 0.0045243222 0
0.00085417629 -0.064071581 0.0077398904 0
0.0012728724 -0.063710056 0.010480084 0
0.0014532794 -0.063474953 0.013522178 0
0.0043591727 -0.0634657 -0.013615177 0
0.0046566073 -0.063500047 -0.010259803 0
0.0044703325 -0.063500039 -0.0073961932 0
0.0045723822 -0.063500009 -0.0044503571 0
0.0043583252 -0.063500009 -0.0013416854 0
0.004243264 -0.063499995 0.0012767832 0
0.0045736125 -0.063500002 0.004168652 0
0.0044941311 -0.063499965 0.0074149459 0
0.004363942 -0.063499972 0.010483189 0
0.0044777221 -0.063440137 0.01365338 0
0.007633952 -0.063450448 -0.013547646 0
0.0072096363 -0.063500039 -0.010586704 0
0.0076699951 -0.063500024 -0.0076120403 0
0.0078149466 -0.063500009 -0.004468353 0
0.0074552139 -0.063500017 -0.0017374847 0
0.0074900496 -0.063500009 0.0014050176 0
0.0075302101 -0.063499995 0.0044585462 0
0.0074559459 -0.063499972 0.0075717904 0
0.0074312459 -0.063499972 0.010549765 0
0.0077353045 -0.063478865 0.013421528 0
0.010576036 -0.063478433 -0.013929439 0
0.010707739 -0.063500047 -0.010478602 0
0.010501587 -0.063500039 -0.0076401113 0
0.010493627 -0.063500009 -0.0046430961 0
0.010207917 -0.063500002 -0.0014331198 0
0.010527841 -0.063500017 0.0016397252 0
0.010421078 -0.06349998 0.0044631083 0
0.010344022 -0.063499972 0.0074908235 0
0.010582512 -0.063499972 0.010537749 0
0.010443473 -0.063489266 0.013662742 0
0.013490807 -0.063450404 -0.013557529 0
0.013787238 -0.063462153 -0.010468403 0
0.013818193 -0.063466482 -0.0074615497 0
0.013748317 -0.063459292 -0.0046290909 0
0.013595738 -0.063483931 -0.0014461402 0
0.01367965 -0.063477829 0.0014906732 0
0.013905327 -0.063428946 0.0045444616 0
0.013754795 -0.063450046 0.0073602987 0
0.013661203 -0.063478209 0.010239937 0
0.013439254 -0.063453816 0.013505164 0
-0.014205189 -0.061684806 -0.014170462 0
-0.014899963 -0.061505284 -0.010667101 0
-0.014899976 -0.061499249 -0.0073205302 0
-0.014899983 -0.061413065 -0.0044277129 0
-0.014900002 -0.061446398 -0.0014589023 0
-0.014900004 -0.061488476 0.0016157442 0
-0.01490002 -0.06171266 0.0046359547 0
-0.014900028 -0.061135706 0.0076948004 0
-0.014900036 -0.061362829 0.010329764 0
-0.014090965 -0.061486915 0.014048503 0
-0.010500365 -0.061408222 -0.014899815 0
-0.010463226 -0.061153557 0.014900183 0
-0.0076671988 -0.061392479 -0.014899806 0
-0.0074024154 -0.061497644 0.014900199 0
-0.0043658009 -0.061336324 -0.014899795 0
-0.0046093371 -0.061315197 0.014900205 0
-0.0014743084 -0.061335582 -0.014899784 0
-0.0015413919 -0.061543878 0.014900221 0
0.0013116705 -0.061727252 -0.014899772 0
0.0014655925 -0.061619841 0.014900228 0
0.0044295932 -0.061525024 -0.01489977 0
0.0044425819 -0.061658759 0.01490024 0
0.0074374834 -0.06177232 -0.014899752 0
0.0075095254 -0.06151313 0.014900249 0
0.010647001 -0.061398283 -0.014899747 0
0.010264473 -0.061246864 0.01490026 0
0.014168995 -0.061486121 -0.014087646 0
0.014900038 -0.061414134 -0.010665989 0
0.014900029 -0.06145712 -0.0078167403 0
0.014900022 -0.061504561 -0.004504011 0
0.014900005 -0.061334368 -0.001427877 0
0.014899996 -0.061592698 0.0014128755 0
0.014899987 -0.061599053 0.0043809898 0
0.014899977 -0.061552357 0.0074234507 0
0.014899967 -0.061400957 0.010430855 0
0.014102876 -0.061395206 0.014177657 0
-0.014095257 -0.058529273 -0.014115585 0
-0.014899962 -0.058270715 -0.010497729 0
-0.014899974 -0.058483891 -0.0076789488 0
-0.014899983 -0.058527991 -0.0044346433 0
-0.014899995 -0.058522012 -0.0013551931 0
-0.014900004 -0.058591384 0.0014333937 0
-0.014900015 -0.058272317 0.0044058855 0
-0.014900027 -0.058556594 0.0075295297 0
-0.01490004 -0.058236364 0.010504548 0
-0.01407396 -0.058389451 0.014237422 0
-0.01068636 -0.058851391 -0.014899825 0
-0.010540813 -0.058581203 0.014900178 0
-0.0072918604 -0.058788836 -0.014899814 0
-0.0075613246 -0.058706895 0.014900186 0
-0.0045697927 -0.058472358 -0.014899805 0
-0.0045182765 -0.058324952 0.014900198 0
-0.0015637296 -0.058588877 -0.014899793 0
-0.0013934118 -0.058665048 0.014900209 0
0.0015963678 -0.058604855 -0.014899782 0
0.0013889727 -0.058473878 0.014900216 0
0.0045304652 -0.058201525 -0.014899778 0
0.0046441727 -0.058316544 0.014900232 0
0.0075575588 -0.058353685 -0.014899762 0
0.0073550344 -0.058508299 0.014900239 0
0.010461369 -0.058471359 -0.014899754 0
0.010202205 -0.058466706 0.014900248 0
0.014157625 -0.058508076 -0.014096267 0
0.01490004 -0.058464009 -0.010357471 0
0.01490003 -0.058480948 -0.0076032155 0
0.014900018 -0.05847859 -0.0044613946 0
0.014900008 -0.058315162 -0.0013811828 0
0.014899996 -0.058699459 0.0014981459 0
0.014899984 -0.058784004 0.0042871605 0
0.014899973 -0.058522079 0.0074687051 0
0.01489996 -0.058579687 0.010917971 0
0.014315125 -0.058441717 0.01421187 0
-0.014027721 -0.055551857 -0.01440894 0
-0.014899964 -0.055687569 -0.010574074 0
-0.014899977 -0.055604685 -0.0076965312 0
-0.014899983 -0.055542175 -0.0044242782 0
-0.014899997 -0.055413574 -0.0016241425 0
-0.014900004 -0.055689532 0.0016400055 0
-0.014900018 -0.055470169 0.004513348 0
-0.014900028 -0.055449579 0.0075864349 0
-0.014900038 -0.055359323 0.010487741 0
-0.014356757 -0.055400822 0.014097489 0
-0.010289627 -0.055547219 -0.014899836 0
-0.010611296 -0.055683415 0.014900162 0
-0.0077723339 -0.055438746 -0.014899828 0
-0.0075239041 -0.055364355 0.014900172 0
-0.0045093014 -0.055413257 -0.014899815 0
-0.0044676592 -0.055697449 0.014900185 0
-0.0013896384 -0.055509709 -0.014899803 0
-0.0016235384 -0.055268593 0.014900196 0
0.0014195443 -0.055405427 -0.014899793 0
0.0014914331 -0.055422671 0.014900209 0
0.0043734098 -0.055602476 -0.014899784 0
0.0043874136 -0.055336472 0.014900218 0
0.0077718263 -0.055371255 -0.014899772 0
0.0074986033 -0.055591177 0.014900228 0
0.010290323 -0.055422183 -0.014899763 0
0.010715146 -0.055450957 0.014900242 0
0.014201763 -0.05556206 -0.014073665 0
0.014900038 -0.055263624 -0.010541525 0
0.014900029 -0.055576894 -0.007517857 0
0.014900018 -0.055451188 -0.0044766036 0
0.014900004 -0.055455092 -0.0015364649 0
0.014899994 -0.055396248 0.0014546309 0
0.014899984 -0.055365968 0.0044590333 0
0.014899971 -0.055583086 0.0077587743 0
0.014899971 -0.055724677 0.010591193 0
0.01410745 -0.055575982 0.014145968 0
-0.014331362 -0.052590106 -0.014086352 0
-0.014899961 -0.052558936 -0.010646128 0
-0.014899977 -0.052782647 -0.0072964379 0
-0.014899985 -0.052715942 -0.00467605 0
-0.014899996 -0.052607466 -0.0014987605 0
-0.014900004 -0.052327316 0.0014749375 0
-0.014900015 -0.052625857 0.0044201058 0
-0.014900028 -0.052398387 0.0073920847 0
-0.014900038 -0.05257912 0.010381354 0
-0.014057245 -0.052704506 0.014062251 0
-0.010919084 -0.052291095 -0.01489985 0
-0.010697174 -0.052471709 0.014900153 0
-0.0076011242 -0.052491043 -0.014899842 0
-0.007624364 -0.052520126 0.014900165 0
-0.0044016931 -0.05241951 -0.014899825 0
-0.0044871788 -0.052660935 0.014900179 0
-0.0014196039 -0.052527681 -0.014899819 0
-0.0016364484 -0.052454796 0.014900183 0
0.0015896666 -0.052626099 -0.014899807 0
0.001546975 -0.052288245 0.014900196 0
0.0043709544 -0.052488953 -0.014899793 0
0.0045927851 -0.052373845 0.014900208 0
0.0075568664 -0.052151259 -0.014899785 0
0.0075299758 -0.05236857 0.014900219 0
0.010584881 -0.052645713 -0.014899771 0
0.010587217 -0.052716643 0.014900228 0
0.014164058 -0.052522536 -0.013947699 0
0.014900038 -0.052700698 -0.010444138 0
0.014900032 -0.052690737 -0.0074287788 0
0.014900017 -0.052770246 -0.0041946392 0
0.014900006 -0.052415002 -0.0015802305 0
0.014899993 -0.052635379 0.0015758337 0
0.01489999 -0.052656204 0.004645566 0
0.014899973 -0.052589044 0.0073423441 0
0.014899964 -0.052621715 0.010528827 0
0.013958002 -0.052689515 0.014372702 0
-0.014258402 -0.049391307 -0.01409576 0
-0.014899963 -0.049413003 -0.01059093 0
-0.014899977 -0.049658883 -0.0076909391 0
-0.014899984 -0.049627811 -0.0045470623 0
-0.014899994 -0.04941874 -0.0015285014 0
-0.014900008 -0.049279347 0.0015156111 0
-0.014900015 -0.049718473 0.0044876649 0
-0.014900033 -0.049290776 0.0075562675 0
-0.014900039 -0.04958275 0.010463296 0
-0.014037378 -0.049551077 0.014291849 0
-0.010601755 -0.049255259 -0.014899863 0
-0.010467559 -0.049521986 0.014900144 0
-0.0075632408 -0.049826697 -0.014899848 0
-0.0073004649 -0.049615152 0.014900153 0
-0.004459348 -0.049689475 -0.014899836 0
-0.0044108084 -0.049641427 0.014900163 0
-0.0015569495 -0.049459632 -0.014899827 0
-0.0014823758 -0.049681183 0.014900178 0
0.0013081051 -0.049469903 -0.014899815 0
0.0013914191 -0.049781881 0.014900184 0
0.0044870013 -0.049486734 -0.014899809 0
0.0045049614 -0.049473185 0.014900195 0
0.0074271583 -0.049465992 -0.014899795 0
0.007652218 -0.049355716 0.014900208 0
0.010473758 -0.049674697 -0.014899784 0
0.010090221 -0.049324371 0.014900215 0
0.014140316 -0.049618661 -0.014282175 0
0.014900041 -0.049516529 -0.010768556 0
0.014900029 -0.049865577 -0.0074827829 0
0.014900018 -0.049337573 -0.0044962754 0
0.014900004 -0.04937553 -0.0014524108 0
0.014899996 -0.049699161 0.0016387677 0
0.014899985 -0.049565002 0.0047139022 0
0.014899977 -0.049464259 0.0076601729 0
0.014899965 -0.049641732 0.010575532 0
0.014160881 -0.049314179 0.014295924 0
-0.014155237 -0.046584755 -0.013999002 0
-0.014899964 -0.046633229 -0.010351888 0
-0.014899972 -0.046422504 -0.0076159486 0
-0.014899984 -0.046269305 -0.0042930385 0
-0.014899993 -0.046525903 -0.0014437346 0
-0.014900004 -0.046689406 0.0012464268 0
-0.014900017 -0.046383459 0.0043553188 0
-0.014900026 -0.046589643 0.0072004357 0
-0.014900039 -0.046431642 0.010437994 0
-0.014263682 -0.046528492 0.014261083 0
-0.010767124 -0.046708684 -0.014899869 0
-0.010402901 -0.04651187 0.014900131 0
-0.0075408607 -0.046454508 -0.014899858 0
-0.0075738798 -0.046573412 0.014900145 0
-0.0044172183 -0.046617329 -0.014899848 0
-0.0044550137 -0.046430029 0.014900154 0
-0.0014607228 -0.046444725 -0.014899838 0
-0.0014477189 -0.046907682 0.014900166 0
0.0015722051 -0.046621952 -0.014899826 0
0.0014054378 -0.046328541 0.014900173 0
0.0042813881 -0.046615336 -0.014899815 0
0.0043351441 -0.046429966 0.014900187 0
0.0074464031 -0.046591114 -0.014899804 0
0.0072499453 -0.046285298 0.014900194 0
0.010636744 -0.046478048 -0.014899792 0
0.010544215 -0.046415828 0.014900209 0
0.0142988 -0.046647586 -0.013941141 0
0.014900041 -0.046376739 -0.010369292 0
0.014900025 -0.046744857 -0.0071963924 0
0.014900017 -0.046758398 -0.004561739 0
0.014900007 -0.046417456 -0.001417694 0
0.014899995 -0.046316408 0.0013940035 0
0.014899985 -0.046658542 0.0044581797 0
0.014899973 -0.046315249 0.0073022381 0
0.014899962 -0.046420451 0.010225006 0
0.014134442 -0.046499405 0.014076707 0
-0.014229632 -0.043601874 -0.014150479 0
-0.014899961 -0.043750256 -0.010564014 0
-0.014899974 -0.043488637 -0.0072823195 0
-0.014899991 -0.04323069 -0.0045897374 0
-0.014899994 -0.043526825 -0.0013450081 0
-0.014900004 -0.043681961 0.0013508904 0
-0.014900018 -0.043561317 0.0045917197 0
-0.014900027 -0.043504767 0.0075203334 0
-0.014900037 -0.043520462 0.010511443 0
-0.014128395 -0.043506566 0.014204284 0
-0.010690452 -0.043592397 -0.014899881 0
-0.01054945 -0.043448932 0.01490012 0
-0.0075530112 -0.04371966 -0.014899869 0
-0.0078673204 -0.0434319 0.014900128 0
-0.0045241257 -0.043631878 -0.01489986 0
-0.0047045802 -0.043558605 0.014900141 0
-0.0012956818 -0.04366342 -0.014899845 0
-0.0014965483 -0.043297503 0.014900152 0
0.0014617722 -0.043505624 -0.014899837 0
0.0014794571 -0.043449637 0.014900164 0
0.0046351412 -0.043169867 -0.014899829 0
0.0046827639 -0.043458529 0.014900174 0
0.0078421673 -0.043080635 -0.014899816 0
0.0072820424 -0.043523367 0.014900184 0
0.010663852 -0.04352475 -0.014899806 0
0.010776606 -0.043720275 0.014900197 0
0.014220504 -0.04355932 -0.013998703 0
0.014900038 -0.043586578 -0.010431478 0
0.014900027 -0.043715894 -0.0073068249 0
0.01490002 -0.04370429 -0.0045787496 0
0.014900009 -0.043463025 -0.0015503215 0
0.014899997 -0.04338624 0.0015633003 0
0.014899983 -0.043547999 0.0044663795 0
0.014899975 -0.043446474 0.0073566544 0
0.014899961 -0.043734901 0.010463878 0
0.014058103 -0.043564327 0.014307827 0
-0.014018021 -0.04048172 -0.014340257 0
-0.014899964 -0.040187616 -0.010462327 0
-0.014899974 -0.040582485 -0.0075350041 0
-0.014899982 -0.040483162 -0.0046234434 0
-0.014899995 -0.040321067 -0.0015778457 0
-0.014900012 -0.040534593 0.0015336112 0
-0.014900016 -0.040264804 0.0046285586 0
-0.01490003 -0.040382598 0.0075289579 0
-0.014900038 -0.040415205 0.010285535 0
-0.014267453 -0.040536784 0.014125735 0
-0.010384256 -0.040536989 -0.014899896 0
-0.010610291 -0.040717017 0.014900108 0
-0.0073819947 -0.040376689 -0.014899882 0
-0.0073927254 -0.040623836 0.014900119 0
-0.0048540188 -0.040486824 -0.014899871 0
-0.004782435 -0.040578876 0.014900128 0
-0.0013621197 -0.040584013 -0.014899861 0
-0.0015866444 -0.040645931 0.014900141 0
0.0012657637 -0.040556956 -0.01489985 0
0.0016301085 -0.040773962 0.014900154 0
0.0044127149 -0.040320192 -0.014899837 0
0.0045064511 -0.040342364 0.014900162 0
0.007216671 -0.040786739 -0.014899826 0
0.0074321227 -0.040436406 0.014900172 0
0.01050761 -0.040462617 -0.014899815 0
0.010526956 -0.040730532 0.014900184 0
0.013988062 -0.040361386 -0.014178502 0
0.014900044 -0.040413365 -0.01043304 0
0.014900026 -0.0403178 -0.0072273696 0
0.014900017 -0.04025415 -0.0045663822 0
0.014900005 -0.040403191 -0.0017277028 0
0.014899996 -0.040301073 0.0014026281 0
0.014899983 -0.040734928 0.0043206941 0
0.014899975 -0.040489733 0.0077192774 0
0.014899964 -0.040348429 0.010446305 0
0.014094151 -0.040217653 0.014320442 0
-0.014249309 -0.037812497 -0.014161647 0
-0.014899965 -0.037529923 -0.010462214 0
-0.014899972 -0.037540283 -0.0076348032 0
-0.014899983 -0.037203681 -0.0046045091 0
-0.014899998 -0.037358236 -0.0014370778 0
-0.014900007 -0.037597183 0.0014235444 0
-0.014900016 -0.037539106 0.0045460262 0
-0.014900028 -0.037647732 0.0074144052 0
-0.014900042 -0.037381098 0.010463554 0
-0.014053961 -0.037321277 0.014132297 0
-0.010502363 -0.037397135 -0.014899902 0
-0.010556324 -0.037132207 0.014900095 0
-0.0077236323 -0.037374426 -0.014899894 0
-0.0075350739 -0.037583608 0.014900108 0
-0.0043791919 -0.037753303 -0.014899882 0
-0.0042172675 -0.037311066 0.014900119 0
-0.0016486185 -0.037465356 -0.014899871 0
-0.0014999573 -0.037527882 0.014900129 0
0.0013967372 -0.037437491 -0.014899858 0
0.0014927691 -0.037654676 0.014900145 0
0.0045462069 -0.037581131 -0.014899846 0
0.0044529564 -0.037649021 0.014900155 0
0.0076882504 -0.037665885 -0.014899836 0
0.0074952394 -0.037958026 0.014900165 0
0.010408666 -0.037350189 -0.014899828 0
0.010445264 -0.03724597 0.014900172 0
0.014221998 -0.037471142 -0.014044682 0
0.014900039 -0.037590671 -0.010645059 0
0.014900026 -0.037386648 -0.0073816692 0
0.014900015 -0.037528954 -0.0041913129 0
0.014900007 -0.037412308 -0.0014347627 0
0.014899994 -0.037406296 0.0015301473 0
0.014899983 -0.037475388 0.0046416949 0
0.014899977 -0.037385613 0.0073755411 0
0.014899962 -0.03741039 0.010335216 0
0.014271989 -0.037569322 0.014084399 0
-0.014029854 -0.0346248 -0.014239429 0
-0.014899965 -0.034466609 -0.01062674 0
-0.014899974 -0.034503199 -0.0074215992 0
-0.014899986 -0.034564078 -0.0044013206 0
-0.014899993 -0.034467004 -0.0016036595 0
-0.014900004 -0.034792133 0.0013843473 0
-0.014900016 -0.034498315 0.0042717159 0
-0.014900026 -0.034424849 0.0075261178 0
-0.014900037 -0.034317315 0.01063026 0
-0.014298342 -0.034559865 0.013982237 0
-0.010559201 -0.034459867 -0.014899913 0
-0.010499171 -0.034559615 0.014900088 0
-0.0073829587 -0.034394875 -0.014899903 0
-0.0073157037 -0.034744721 0.014900099 0
-0.0043119383 -0.034518089 -0.014899894 0
-0.0047417288 -0.034313478 0.014900109 0
-0.0013425548 -0.034383271 -0.014899881 0
-0.0013074818 -0.03454889 0.014900121 0
0.0015692967 -0.034285456 -0.01489987 0
0.0014937548 -0.034456827 0.014900132 0
0.0046210885 -0.034588549 -0.014899857 0
0.0046732416 -0.034536716 0.014900142 0
0.0074709216 -0.034611121 -0.014899846 0
0.0075240852 -0.034470741 0.014900155 0
0.010493428 -0.034541074 -0.014899836 0
0.010583821 -0.034291197 0.014900165 0
0.014203048 -0.034611255 -0.014189916 0
0.014900038 -0.034311499 -0.010562365 0
0.014900031 -0.034592748 -0.0075483816 0
0.014900016 -0.034286961 -0.0044038673 0
0.014900004 -0.03447694 -0.0016551138 0
0.014899997 -0.034399059 0.0017030032 0
0.014899987 -0.034588102 0.0043457854 0
0.014899974 -0.034592263 0.0075339749 0
0.014899963 -0.034549046 0.010105438 0
0.014231108 -0.034653895 0.014176529 0
-0.014206097 -0.031559628 -0.014361802 0
-0.014899962 -0.031486709 -0.010504125 0
-0.014899974 -0.031407826 -0.0077435146 0
-0.014899983 -0.03149746 -0.0044995961 0
-0.014899995 -0.031294584 -0.0016268037 0
-0.014900004 -0.031480912 0.0015878767 0
-0.014900016 -0.031430468 0.0044839513 0
-0.014900029 -0.031456299 0.0073977928 0
-0.014900041 -0.031393733 0.010436165 0
-0.014088134 -0.031561695 0.014212155 0
-0.010202902 -0.031436414 -0.014899923 0
-0.010341555 -0.031242974 0.014900077 0
-0.0075838743 -0.031591523 -0.014899912 0
-0.0073823184 -0.031274058 0.014900088 0
-0.0047376612 -0.031603705 -0.014899903 0
-0.0042193593 -0.031637557 0.014900099 0
-0.001629148 -0.03144924 -0.014899892 0
-0.0016908967 -0.031264946 0.014900106 0
0.0016064203 -0.031517863 -0.014899879 0
0.001593023 -0.031567208 0.014900119 0
0.0045167063 -0.031632099 -0.014899869 0
0.0043921121 -0.03166559 0.014900129 0
0.0076099457 -0.031679269 -0.014899861 0
0.007535527 -0.03150849 0.01490014 0
0.010494063 -0.031358909 -0.014899847 0
0.010393051 -0.031389061 0.014900153 0
0.014041571 -0.031559348 -0.014297796 0
0.014900039 -0.031525206 -0.010436235 0
0.014900026 -0.031581245 -0.0074741365 0
0.014900014 -0.031209921 -0.004152582 0
0.014900005 -0.031633075 -0.0015512852 0
0.014899995 -0.03115282 0.001263453 0
0.014899987 -0.031353228 0.0044203564 0
0.014899973 -0.031409465 0.0072990721 0
0.014899962 -0.031562608 0.010714049 0
0.013977346 -0.03151134 0.014452239 0
-0.014305508 -0.028530402 -0.013974026 0
-0.014899963 -0.028477382 -0.010137493 0
-0.014899973 -0.028701255 -0.0074864253 0
-0.014899984 -0.028396098 -0.0045226361 0
-0.014899997 -0.028379038 -0.0015299128 0
-0.014900006 -0.0282425 0.001569732 0
-0.014900015 -0.028105615 0.004275464 0
-0.014900027 -0.028245306 0.0073895655 0
-0.01490004 -0.028526329 0.010498432 0
-0.014164526 -0.028527906 0.0142349 0
-0.010689989 -0.02847519 -0.014899935 0
-0.010430345 -0.028507357 0.014900069 0
-0.0075962259 -0.028501222 -0.014899928 0
-0.0074054319 -0.028396297 0.014900076 0
-0.0043597706 -0.028467782 -0.014899911 0
-0.0048085004 -0.028623329 0.014900083 0
-0.0016110723 -0.028311053 -0.014899907 0
-0.0014400964 -0.028523736 0.014900099 0
0.001578432 -0.028485615 -0.014899896 0
0.0015349822 -0.028591264 0.014900114 0
0.0042384947 -0.028534601 -0.014899882 0
0.0047113984 -0.028378168 0.014900121 0
0.007707451 -0.028344605 -0.014899871 0
0.0074828644 -0.028423503 0.014900131 0
0.010283382 -0.028545985 -0.014899858 0
0.010608343 -0.028644716 0.014900142 0
0.014125433 -0.028386539 -0.014139153 0
0.014900039 -0.028445797 -0.010265196 0
0.014900029 -0.028624117 -0.0074212858 0
0.014900017 -0.02861448 -0.0045913886 0
0.014900005 -0.028715344 -0.0013000886 0
0.014899999 -0.028477343 0.0013886406 0
0.014899986 -0.028387489 0.0044509466 0
0.014899972 -0.028428743 0.0073497337 0
0.014899963 -0.028519925 0.010701329 0
0.014332673 -0.028538022 0.01414617 0
-0.014341033 -0.025528211 -0.01415778 0
-0.014899961 -0.025509404 -0.010475649 0
-0.014899974 -0.025308071 -0.0072692381 0
-0.014899983 -0.02543626 -0.004575415 0
-0.014899993 -0.025618527 -0.0015972495 0
-0.014900008 -0.025544539 0.0015475493 0
-0.014900015 -0.025253963 0.0044078589 0
-0.014900026 -0.025470212 0.0074139927 0
-0.014900038 -0.025662122 0.010562217 0
-0.014314021 -0.025466062 0.014254261 0
-0.01060931 -0.025264325 -0.01489995 0
-0.010236149 -0.025418762 0.014900058 0
-0.0075680274 -0.025658842 -0.014899933 0
-0.0074503394 -0.025578577 0.014900071 0
-0.0044572568 -0.025443688 -0.014899923 0
-0.0044926098 -0.025263781 0.014900077 0
-0.0014326883 -0.025263615 -0.014899913 0
-0.0013487103 -0.025380436 0.014900087 0
0.0018125762 -0.025527146 -0.014899904 0
0.0012689955 -0.025424341 0.0149001 0
0.0044998769 -0.025535809 -0.014899891 0
0.0045567458 -0.025147667 0.014900108 0
0.0075208871 -0.025487904 -0.014899884 0
0.0075135175 -0.025315829 0.014900119 0
0.010388529 -0.025432849 -0.014899869 0
0.010517152 -0.025671246 0.014900134 0
0.014037223 -0.025620621 -0.014254201 0
0.014900037 -0.025575316 -0.01057299 0
0.014900031 -0.025418855 -0.0075567854 0
0.014900015 -0.025527125 -0.0044754092 0
0.014900005 -0.025369797 -0.001763897 0
0.014899994 -0.025340911 0.0015739432 0
0.014899982 -0.025117872 0.004600151 0
0.014899975 -0.025751075 0.0075115296 0
0.014899962 -0.025486488 0.010347012 0
0.014355751 -0.025720036 0.013942997 0
-0.0142184 -0.02268569 -0.014188291 0
-0.014899961 -0.022778304 -0.010573829 0
-0.014899973 -0.022504417 -0.0074770264 0
-0.01489999 -0.022447942 -0.00464303 0
-0.014899993 -0.022671821 -0.0017508557 0
-0.014900007 -0.022664886 0.0015572784 0
-0.01490002 -0.022384137 0.0046956488 0
-0.014900028 -0.022568975 0.0075349621 0
-0.014900037 -0.022714468 0.010426715 0
-0.014278213 -0.022408813 0.014171212 0
-0.01034606 -0.022728439 -0.014899959 0
-0.010640639 -0.022392761 0.014900046 0
-0.007624507 -0.022397652 -0.014899948 0
-0.0074349018 -0.022606863 0.014900059 0
-0.0043355171 -0.022421706 -0.014899935 0
-0.0045875758 -0.022492241 0.014900065 0
-0.0014622369 -0.022559434 -0.014899923 0
-0.0013661968 -0.022460941 0.014900076 0
0.0014362525 -0.02221714 -0.014899914 0
0.001713325 -0.02257321 0.014900088 0
0.0045208833 -0.02255518 -0.014899902 0
0.0045436095 -0.022399265 0.014900097 0
0.0072931834 -0.022599488 -0.014899896 0
0.007283269 -0.022658102 0.01490011 0
0.010209464 -0.022324372 -0.014899882 0
0.010449653 -0.02265444 0.01490012 0
0.01412048 -0.022446033 -0.014194789 0
0.014900037 -0.022560671 -0.010316956 0
0.014900028 -0.022117946 -0.007635023 0
0.014900015 -0.02290687 -0.0044581611 0
0.014900005 -0.022426978 -0.0017875644 0
0.014899993 -0.022849966 0.0016648659 0
0.014899987 -0.022360306 0.0046156491 0
0.014899972 -0.022641614 0.0078048604 0
0.014899965 -0.022559049 0.01047304 0
0.014221587 -0.022462461 0.014197357 0
-0.014179882 -0.019616919 -0.014155073 0
-0.014899961 -0.019632278 -0.010590731 0
-0.014899971 -0.019295737 -0.0077155456 0
-0.014899982 -0.019485828 -0.0046754242 0
-0.014899995 -0.01957518 -0.0015252569 0
-0.014900009 -0.01944831 0.0015190514 0
-0.014900016 -0.019154174 0.0045105922 0
-0.014900027 -0.019681554 0.0073503777 0
-0.01490004 -0.019430099 0.010486234 0
-0.014058032 -0.0195168 0.014272895 0
-0.010670853 -0.019687159 -0.014899967 0
-0.01041694 -0.019445999 0.014900032 0
-0.0076651406 -0.019551724 -0.014899958 0
-0.0075356606 -0.019389806 0.014900044 0
-0.0044565825 -0.019326923 -0.01489995 0
-0.0044591962 -0.019853983 0.014900057 0
-0.0015883294 -0.019421957 -0.014899939 0
-0.0015469965 -0.019698996 0.014900065 0
0.0014345425 -0.01940392 -0.014899926 0
0.0018163219 -0.019438094 0.014900077 0
0.0043594902 -0.019402817 -0.014899916 0
0.0047275913 -0.019739993 0.014900088 0
0.0074948026 -0.019386737 -0.014899904 0
0.007572508 -0.019537132 0.014900101 0
0.010727861 -0.019525087 -0.014899891 0
0.010384555 -0.019436328 0.014900107 0
0.014244039 -0.019419156 -0.014258467 0
0.014900039 -0.019546216 -0.010213934 0
0.014900026 -0.019557018 -0.0074161277 0
0.014900018 -0.019358698 -0.0045379587 0
0.014900005 -0.019393174 -0.0017932249 0
0.014899996 -0.019480083 0.0016132721 0
0.014899987 -0.019616485 0.0047323396 0
0.014899977 -0.019508692 0.0078217806 0
0.014899962 -0.019326242 0.010546753 0
0.01402617 -0.019466763 0.014312196 0
-0.014253372 -0.016541123 -0.01425985 0
-0.014899963 -0.01637264 -0.010429776 0
-0.014899974 -0.016213996 -0.0075722127 0
-0.014899982 -0.016433436 -0.0045331642 0
-0.014899998 -0.016476605 -0.0014341206 0
-0.014900004 -0.016223345 0.0014078344 0
-0.014900016 -0.016298104 0.0044350675 0
-0.014900027 -0.016612416 0.007414348 0
-0.014900044 -0.016526477 0.010562903 0
-0.013963503 -0.016373802 0.014301812 0
-0.010567839 -0.016435564 -0.014899977 0
-0.010553818 -0.016112126 0.01490002 0
-0.0073517323 -0.016121743 -0.014899967 0
-0.007704949 -0.016552759 0.014900032 0
-0.0045766644 -0.016662361 -0.014899958 0
-0.0043172538 -0.016553115 0.014900045 0
-0.0015093259 -0.016461072 -0.014899946 0
-0.0016522071 -0.016604053 0.014900062 0
0.0012676743 -0.016729379 -0.014899936 0
0.0013726495 -0.016725922 0.014900065 0
0.0047097183 -0.01647076 -0.014899923 0
0.0042987131 -0.016723011 0.014900077 0
0.0074698781 -0.016621871 -0.014899911 0
0.0075397682 -0.016425107 0.014900088 0
0.010294837 -0.016515557 -0.014899902 0
0.010581847 -0.016264139 0.014900096 0
0.014339441 -0.016468536 -0.014063772 0
0.014900037 -0.016689556 -0.010307009 0
0.014900034 -0.016642263 -0.0074271709 0
0.014900017 -0.016453845 -0.0044337758 0
0.014900008 -0.016614707 -0.0014397762 0
0.014899997 -0.01661651 0.0014915734 0
0.014899983 -0.016465321 0.0042702765 0
0.014899973 -0.016492298 0.0074253241 0
0.014899961 -0.016642334 0.010646819 0
0.014171104 -0.016591698 0.014105046 0
-0.01430981 -0.013560178 -0.014194977 0
-0.014899962 -0.013437808 -0.010368325 0
-0.014899974 -0.01322155 -0.0073533184 0
-0.014899985 -0.013587245 -0.0043712389 0
-0.014899999 -0.013527788 -0.0013537261 0
-0.014900011 -0.013302577 0.0015139907 0
-0.014900016 -0.013720637 0.0045944504 0
-0.014900028 -0.013427505 0.0077102277 0
-0.014900036 -0.013500522 0.010390231 0
-0.013924325 -0.013492389 0.014169669 0
-0.010307919 -0.013695253 -0.014899989 0
-0.01055388 -0.013473584 0.01490001 0
-0.0074909208 -0.01328159 -0.01489998 0
-0.0076516103 -0.013171824 0.014900018 0
-0.0043458417 -0.013345499 -0.014899969 0
-0.0045193625 -0.013705711 0.014900034 0
-0.0015424239 -0.013421063 -0.014899961 0
-0.0014487351 -0.013531641 0.014900044 0
0.0014904171 -0.013647637 -0.014899944 0
0.0015311459 -0.013539664 0.014900054 0
0.0046511758 -0.013568694 -0.014899934 0
0.0045511192 -0.013488431 0.014900067 0
0.0073235999 -0.013626532 -0.014899925 0
0.0072684344 -0.013412866 0.014900078 0
0.010469198 -0.013095886 -0.014899915 0
0.010632333 -0.013426051 0.014900092 0
0.014247235 -0.01355608 -0.014055499 0
0.014900045 -0.013569779 -0.010613893 0
0.014900027 -0.013651493 -0.0075954809 0
0.014900024 -0.013536329 -0.0047807675 0
0.014900005 -0.013375361 -0.0013203459 0
0.014899995 -0.013334745 0.0012336482 0
0.014899983 -0.013383261 0.0046524201 0
0.014899977 -0.013436856 0.0075806519 0
0.014899962 -0.013564247 0.010653536 0
0.01422162 -0.013431037 0.014179638 0
-0.014065544 -0.010440812 -0.014297279 0
-0.014899964 -0.010394145 -0.010482899 0
-0.014899975 -0.010655148 -0.0075930944 0
-0.014899985 -0.010687595 -0.004442709 0
-0.014899992 -0.010462154 -0.0018157576 0
-0.014900005 -0.010593408 0.0014868677 0
-0.014900014 -0.010715275 0.004164407 0
-0.014900029 -0.010514356 0.0075058262 0
-0.014900039 -0.010334775 0.010593615 0
-0.014263259 -0.010525935 0.014192091 0
-0.010440229 -0.010691247 -0.014900002 0
-0.010580678 -0.010316116 0.014899999 0
-0.0074123745 -0.010501976 -0.01489999 0
-0.0074227359 -0.010181909 0.01490001 0
-0.0045924317 -0.010555907 -0.014899978 0
-0.0045131641 -0.010532361 0.014900021 0
-0.0014551827 -0.01072802 -0.014899968 0
-0.0015634847 -0.010606895 0.014900035 0
0.0016817829 -0.01044788 -0.014899955 0
0.0015489798 -0.010470191 0.014900043 0
0.0046940357 -0.010735559 -0.014899943 0
0.0044159945 -0.010677913 0.014900054 0
0.0073569808 -0.010640337 -0.014899937 0
0.0075205159 -0.010623449 0.014900066 0
0.010651806 -0.010467458 -0.014899927 0
0.010386689 -0.010455529 0.014900079 0
0.014371756 -0.010486919 -0.013995516 0
0.014900039 -0.01040013 -0.01085691 0
0.014900031 -0.010381503 -0.0075787548 0
0.014900017 -0.010399551 -0.0045955586 0
0.014900005 -0.010417475 -0.0014339046 0
0.014899996 -0.010559967 0.0013340567 0
0.014899982 -0.010817973 0.0045773024 0
0.014899972 -0.010523185 0.0074643455 0
0.014899964 -0.010397383 0.010490748 0
0.014351473 -0.010540435 0.014237851 0
-0.014183224 -0.0074422867 -0.014457611 0
-0.014899967 -0.0075035603 -0.010536761 0
-0.014899976 -0.0072756181 -0.0073961555 0
-0.014899982 -0.007405581 -0.0045565115 0
-0.014899997 -0.0074403984 -0.0014861247 0
-0.01490001 -0.0075996062 0.0017440822 0
-0.014900015 -0.0073768911 0.0044404636 0
-0.014900026 -0.0073939501 0.007291845 0
-0.014900042 -0.0075465189 0.010575401 0
-0.014201762 -0.0077051241 0.014195571 0
-0.010303974 -0.0077073537 -0.014900015 0
-0.010789453 -0.0076903692 0.014899988 0
-0.0075988467 -0.0076563121 -0.014899999 0
-0.0076375175 -0.007713215 0.014900002 0
-0.0045148921 -0.0078192316 -0.014899989 0
-0.004381015 -0.0077740294 0.014900012 0
-0.0014606747 -0.0074326349 -0.01489998 0
-0.0014811261 -0.0075820698 0.014900025 0
0.0012042691 -0.0074716625 -0.014899967 0
0.0016338502 -0.0074699726 0.014900031 0
0.0046724109 -0.007571701 -0.014899955 0
0.004453328 -0.007591811 0.014900045 0
0.0073089544 -0.0075832037 -0.014899947 0
0.0072746808 -0.007600762 0.014900056 0
0.010457655 -0.0074145701 -0.014899936 0
0.010738084 -0.0074097505 0.014900066 0
0.01410482 -0.0073881662 -0.014202627 0
0.014900038 -0.0073007597 -0.010439481 0
0.014900027 -0.0073875599 -0.0076810885 0
0.014900019 -0.0076198508 -0.0045015751 0
0.014900004 -0.0077742748 -0.0015507957 0
0.014899993 -0.0077258125 0.0015934602 0
0.014899983 -0.0077867541 0.0044792369 0
0.014899971 -0.0072377091 0.0076131397 0
0.014899968 -0.007493447 0.010471346 0
0.014399559 -0.0075483411 0.01406627 0
-0.014199353 -0.0045851371 -0.014057129 0
-0.014899962 -0.0044810073 -0.010407516 0
-0.014899972 -0.0044820192 -0.007723371 0
-0.014899987 -0.0044454401 -0.0045263036 0
-0.014899994 -0.0046975892 -0.0013586961 0
-0.014900013 -0.0043250546 0.0017024898 0
-0.014900017 -0.0042610085 0.0045387531 0
-0.014900027 -0.0046431259 0.0074231704 0
-0.01490004 -0.004754873 0.010473454 0
-0.0140765 -0.0046537002 0.014334477 0
-0.010574783 -0.0044502141 -0.014900023 0
-0.010555136 -0.0044294479 0.014899981 0
-0.0074790525 -0.004609643 -0.014900009 0
-0.007473838 -0.0046482361 0.014899991 0
-0.004432085 -0.0044396091 -0.014900001 0
-0.0044006729 -0.0045043998 0.014900008 0
-0.0014022547 -0.004548416 -0.014899987 0
-0.0017834642 -0.004496471 0.014900011 0
0.0013924473 -0.0046434891 -0.014899978 0
0.0016137344 -0.0046034479 0.014900021 0
0.0044166674 -0.0045042355 -0.014899969 0
0.0043587605 -0.0044719391 0.014900031 0
0.0075196433 -0.0045169443 -0.014899958 0
0.0074562961 -0.0045024762 0.01490005 0
0.010541633 -0.0042043687 -0.014899946 0
0.010424871 -0.0042952904 0.014900059 0
0.014260508 -0.0045438698 -0.014182826 0
0.014900042 -0.0045121182 -0.010631484 0
0.014900028 -0.0047504632 -0.0074611171 0
0.014900016 -0.0045510926 -0.0043903021 0
0.014900004 -0.0045346757 -0.001415713 0
0.014900002 -0.0044260905 0.0015377998 0
0.014899983 -0.0048059323 0.004510364 0
0.014899974 -0.0044931588 0.0075069354 0
0.014899963 -0.0046180189 0.010502036 0
0.014149479 -0.0043287892 0.014210343 0
-0.014266046 -0.001452459 -0.014081435 0
-0.014899961 -0.0014622778 -0.010554163 0
-0.014899978 -0.0015458275 -0.0074867457 0
-0.014899983 -0.0015333474 -0.0045281271 0
-0.014899994 -0.0015734027 -0.0015041362 0
-0.014900004 -0.0018068021 0.0014177881 0
-0.01490002 -0.0017820643 0.0046174559 0
-0.01490003 -0.0016805478 0.0077568898 0
-0.014900038 -0.0014102752 0.010900675 0
-0.014155376 -0.0015052182 0.014274851 0
-0.010612125 -0.001234327 -0.014900033 0
-0.01067041 -0.0014360539 0.01489997 0
-0.0073548798 -0.0013541705 -0.014900021 0
-0.0075772284 -0.0016353016 0.014899977 0
-0.0046588541 -0.0016177498 -0.014900011 0
-0.004731385 -0.0014553416 0.014899988 0
-0.0015670431 -0.0015621244 -0.014899999 0
-0.0015402113 -0.0013864287 0.0149 0
0.0016757416 -0.0014439722 -0.014899988 0
0.0014663097 -0.0013758357 0.01490001 0
0.0045305691 -0.0015867627 -0.014899979 0
0.0046579852 -0.0016562107 0.014900026 0
0.0075524049 -0.0015152439 -0.01489997 0
0.0077567538 -0.0013699346 0.014900036 0
0.010560006 -0.0012939908 -0.014899957 0
0.010701934 -0.0014261507 0.014900047 0
0.014297749 -0.0014268862 -0.014028991 0
0.014900036 -0.0014596906 -0.010105805 0
0.014900026 -0.0013668933 -0.0074491906 0
0.014900018 -0.0018224099 -0.0043084975 0
0.014900005 -0.0017188614 -0.0015421244 0
0.014900002 -0.0016859829 0.0014332387 0
0.014899983 -0.0014168164 0.0043299906 0
0.014899976 -0.0014465131 0.0072181369 0
0.014899967 -0.0016460246 0.010653926 0
0.014430241 -0.0014975208 0.013933358 0
-0.013659801 -4.8813689e-08 -0.013484482 0
-0.01355455 -3.8985569e-08 -0.010769524 0
-0.013610695 -2.7002574e-08 -0.0074592954 0
-0.013349453 -1.5586471e-08 -0.0043056668 0
-0.013422832 -5.1058149e-09 -0.0014104499 0
-0.0131923 5.669897e-09 0.0015662741 0
-0.01336343 1.6005844e-08 0.0044215159 0
-0.01350103 2.8227586e-08 0.0077976971 0
-0.013443563 3.7527837e-08 0.010366835 0
-0.013587878 4.8861473e-08 0.013497681 0
-0.010358556 -4.8341445e-08 -0.013354027 0
-0.010604332 -3.8421543e-08 -0.010613715 0
-0.010469986 -2.6597167e-08 -0.0073473034 0
-0.010279243 -1.5409835e-08 -0.004256872 0
-0.010762038 -6.34201e-09 -0.0017519413 0
-0.010587647 6.8778312e-09 0.0018999585 0
-0.010584233 1.6675871e-08 0.0046066069 0
-0.010311622 2.6715263e-08 0.0073799272 0
-0.010414655 3.8133326e-08 0.010534097 0
-0.010375315 4.9458738e-08 0.013662672 0
-0.0075297984 -4.8908706e-08 -0.013510728 0
