# .PCD v0.7 - Point Cloud Data file format
VERSION 0.7
FIELDS x y z rgb
SIZE 4 4 4 4
TYPE F F F F
COUNT 1 1 1 1
WIDTH 1164
HEIGHT 1
VIEWPOINT 0 0 0 1 0 0 0
POINTS 1164
DATA ascii
-0.010000027 -0.14229177 0.007716571 0
-0.0097248862 -0.1427422 0.0096830325 0
-0.007391118 -0.14285016 -0.0099995118 0
-0.0074367439 -0.14273149 0.010000489 0
-0.0043711378 -0.14261934 -0.0099995006 0
-0.0046024858 -0.14240515 0.010000501 0
-0.001450511 -0.14254119 -0.0099994875 0
-0.00087392679 -0.14240624 0.010000515 0
3.4568057e-08 -0.14265835 -0.0095486958 0
2.8119498e-08 -0.14280729 -0.0077673215 0
1.7029135e-08 -0.14245859 -0.0047036782 0
5.3935962e-09 -0.14260653 -0.0014894316 0
-6.6863457e-09 -0.14261857 0.0018475781 0
-1.6658362e-08 -0.14255071 0.004602286 0
-2.6882535e-08 -0.14224948 0.0074266498 0
-3.3805762e-08 -0.14267416 0.009339151 0
-0.0096822064 -0.13938576 -0.0097502386 0
-0.00999997 -0.1397454 -0.0076625678 0
-0.0099999821 -0.13941626 -0.0046528294 0
-0.0099999942 -0.13934645 -0.0012842016 0
-0.010000004 -0.13931815 0.0013278708 0
-0.010000017 -0.13938878 0.0047341571 0
-0.010000029 -0.13978356 0.0077088373 0
-0.0097219199 -0.139708 0.0097386735 0
-0.0078173755 -0.13942589 -0.0099995248 0
-0.0076455697 -0.13940445 0.010000473 0
-0.0045372224 -0.13920285 -0.0099995146 0
-0.0046142358 -0.13923775 0.010000486 0
-0.0013869804 -0.13938358 -0.0099994978 0
-0.0017224058 -0.13946651 0.010000496 0
3.4609265e-08 -0.13942184 -0.0095600914 0
2.7097851e-08 -0.1393207 -0.0074851103 0
1.5998708e-08 -0.13946974 -0.0044190399 0
4.5750901e-09 -0.13949953 -0.0012633355 0
-4.8129394e-09 -0.13959417 0.0013300503 0
-1.5846869e-08 -0.13964811 0.0043781055 0
-2.6852282e-08 -0.13948579 0.0074182823 0
-3.4815201e-08 -0.1395248 0.0096179899 0
-0.0098233763 -0.13669217 -0.0096734846 0
-0.0099999728 -0.1364512 -0.00757025 0
-0.0099999849 -0.13641624 -0.0044809827 0
-0.0099999951 -0.13635084 -0.0014562067 0
-0.010000004 -0.13657898 0.0014321067 0
-0.010000019 -0.13649596 0.0048069176 0
-0.010000026 -0.13634935 0.0075866501 0
-0.0097547341 -0.13673441 0.0097750202 0
-0.0076565146 -0.13635136 -0.009999535 0
-0.0076497984 -0.13649318 0.010000464 0
-0.0046707811 -0.13645729 -0.0099995239 0
-0.0045642825 -0.13609977 0.010000478 0
-0.0014550487 -0.13666905 -0.0099995108 0
-0.0011875185 -0.13640815 0.010000488 0
3.4201783e-08 -0.13649116 -0.0094475374 0
2.725292e-08 -0.13615376 -0.0075279586 0
1.5734793e-08 -0.13636194 -0.0043461462 0
3.9446792e-09 -0.13659613 -0.0010891989 0
-5.2444773e-09 -0.13654248 0.0014492489 0
-1.6681597e-08 -0.1367175 0.0046086833 0
-2.6449023e-08 -0.1366464 0.0073068743 0
-3.4272993e-08 -0.13663672 0.0094681978 0
-0.0098088235 -0.13388771 -0.0096934233 0
-0.0099999718 -0.13350275 -0.0075681065 0
-0.0099999849 -0.133572 -0.0046340423 0
-0.0099999933 -0.13381861 -0.0014023437 0
-0.010000005 -0.1334337 0.0015473242 0
-0.010000017 -0.13348031 0.0044704415 0
-0.010000026 -0.13357413 0.0074609951 0
-0.0097616548 -0.13316953 0.0098027019 0
-0.0073650219 -0.13340621 -0.0099995425 0
-0.0075022494 -0.13341197 0.010000454 0
-0.0045775613 -0.13350442 -0.0099995295 0
-0.0045355037 -0.13339561 0.010000465 0
-0.0015677182 -0.13363551 -0.0099995211 0
-0.0015567335 -0.13354105 0.010000478 0
3.4143092e-08 -0.13373843 -0.0094313351 0
2.7235828e-08 -0.13349494 -0.0075232466 0
1.5665673e-08 -0.13350141 -0.0043270625 0
5.3635065e-09 -0.13358875 -0.0014811521 0
-5.8619154e-09 -0.13381054 0.0016198024 0
-1.5716951e-08 -0.13360398 0.0043421951 0
-2.7441825e-08 -0.13346131 0.0075811185 0
-3.4528686e-08 -0.13362008 0.00953882 0
-0.0097149722 -0.13021281 -0.0097517008 0
-0.0099999728 -0.1304591 -0.0076682819 0
-0.009999983 -0.13053253 -0.0046415832 0
-0.0099999951 -0.13030642 -0.0014795548 0
-0.010000006 -0.13031195 0.0014842129 0
-0.010000017 -0.13050352 0.0045111394 0
-0.010000026 -0.13058172 0.0072524133 0
-0.0097475238 -0.13033681 0.0097970543 0
-0.0075264517 -0.13063797 -0.0099995527 0
-0.0074851271 -0.13079076 0.010000444 0
-0.0046235612 -0.13024014 -0.0099995444 0
-0.0044921003 -0.13033958 0.010000454 0
-0.0018164681 -0.13015811 -0.009999536 0
-0.0015865946 -0.1304796 0.010000465 0
3.4813798e-08 -0.1311413 -0.0096166227 0
2.709378e-08 -0.13073152 -0.0074840169 0
1.6056454e-08 -0.13045914 -0.0044350242 0
5.7516054e-09 -0.13059643 -0.0015883729 0
-5.1890061e-09 -0.13038175 0.001433903 0
-1.5721344e-08 -0.13020556 0.0043433961 0
-2.8006447e-08 -0.13058481 0.007737081 0
-3.3989174e-08 -0.130531 0.0093897721 0
-0.0098271733 -0.12745368 -0.0096767861 0
-0.00999997 -0.12755443 -0.0077574295 0
-0.009999983 -0.12754481 -0.0047787041 0
-0.0099999933 -0.12750207 -0.0013255413 0
-0.010000004 -0.1275499 0.0015277386 0
-0.010000017 -0.1275423 0.004665894 0
-0.010000025 -0.12766439 0.0072070807 0
-0.0097698411 -0.12766047 0.0096036075 0
-0.007558139 -0.12723169 -0.0099995676 0
-0.007640868 -0.12766975 0.010000433 0
-0.0044904901 -0.12745352 -0.0099995565 0
-0.0045080222 -0.12772249 0.010000445 0
-0.0014038199 -0.12719466 -0.0099995434 0
-0.0013092428 -0.12769783 0.010000458 0
3.4835796e-08 -0.12745865 -0.0096227136 0
2.7610747e-08 -0.12762202 -0.0076268371 0
1.6244805e-08 -0.12738566 -0.0044870661 0
5.4682454e-09 -0.12773153 -0.0015101067 0
-5.7491847e-09 -0.1274623 0.0015886384 0
-1.6162138e-08 -0.12761481 0.004465153 0
-2.7014043e-08 -0.12758397 0.0074629248 0
-3.4452412e-08 -0.12726873 0.0095177284 0
-0.0098016355 -0.12460544 -0.0096904123 0
-0.0099999709 -0.12454802 -0.0074708485 0
-0.0099999858 -0.12462384 -0.0044243867 0
-0.0099999933 -0.12428913 -0.001276013 0
-0.010000006 -0.12453578 0.0014980347 0
-0.010000014 -0.12459722 0.0046340148 0
-0.010000026 -0.12468829 0.0074946419 0
-0.0098460503 -0.12469293 0.009832032 0
-0.0077161216 -0.12459376 -0.0099995751 0
-0.0073254476 -0.12463614 0.010000425 0
-0.0043785782 -0.12450283 -0.0099995639 0
-0.0045557008 -0.12473112 0.010000434 0
-0.0013052571 -0.12422591 -0.0099995546 0
-0.0016123749 -0.1246579 0.010000448 0
3.4322944e-08 -0.12400421 -0.0094810529 0
2.6617045e-08 -0.12443505 -0.0073523447 0
1.6272644e-08 -0.12457258 -0.0044947667 0
4.5800985e-09 -0.12464876 -0.0012647728 0
-5.3814775e-09 -0.12461745 0.0014870511 0
-1.6552313e-08 -0.12433078 0.0045729252 0
-2.7889508e-08 -0.12466736 0.0077047562 0
-3.43531e-08 -0.12442449 0.0094902832 0
-0.0098217912 -0.12161142 -0.009913574 0
-0.009999969 -0.12160505 -0.0077458685 0
-0.0099999858 -0.12151951 -0.004576311 0
-0.0099999961 -0.12119615 -0.0012632058 0
-0.010000004 -0.12142912 0.0016678262 0
-0.010000017 -0.12137605 0.004460338 0
-0.010000028 -0.12140563 0.0077066454 0
-0.0097849676 -0.12145367 0.0096433237 0
-0.0072706044 -0.12157658 -0.0099995863 0
-0.0074733552 -0.12142057 0.01000041 0
-0.0045213243 -0.12157749 -0.0099995751 0
-0.0043179803 -0.1214712 0.010000424 0
-0.0014093487 -0.12152077 -0.0099995639 0
-0.0014651405 -0.12156794 0.010000432 0
3.4185689e-08 -0.12178934 -0.0094431462 0
2.7282896e-08 -0.12136155 -0.007536293 0
1.5735521e-08 -0.12161457 -0.004346401 0
4.6552979e-09 -0.12153929 -0.0012855575 0
-6.1788992e-09 -0.12134514 0.0017073221 0
-1.677431e-08 -0.12136333 0.0046342388 0
-2.6702645e-08 -0.1213061 0.0073768804 0
-3.4880308e-08 -0.12088121 0.0096359085 0
-0.0096913977 -0.11843859 -0.0097082863 0
-0.0099999728 -0.11831719 -0.0074227154 0
-0.009999983 -0.11866233 -0.0044959611 0
-0.0099999951 -0.1182461 -0.0016987643 0
-0.010000004 -0.11874054 0.0015683855 0
-0.010000017 -0.11858554 0.0045932676 0
-0.010000025 -0.11845153 0.0074417829 0
-0.0097940592 -0.1184474 0.009676422 0
-0.0071108178 -0.11845943 -0.0099995993 0
-0.0077369115 -0.1184759 0.010000399 0
-0.004342204 -0.11832996 -0.0099995853 0
-0.0044608614 -0.11848481 0.010000413 0
-0.0013962727 -0.11857103 -0.009999576 0
-0.0014470731 -0.11832945 0.010000423 0
3.4057376e-08 -0.11888165 -0.0094077103 0
2.7152264e-08 -0.11863829 -0.0075002168 0
1.521042e-08 -0.11836483 -0.0042013563 0
4.8420623e-09 -0.11858847 -0.0013371606 0
-4.5678878e-09 -0.11878161 0.001262281 0
-1.4566664e-08 -0.11819708 0.0040243794 0
-2.7402235e-08 -0.11845274 0.007570128 0
-3.4435228e-08 -0.11797325 0.0095129469 0
-0.0099564316 -0.11546364 -0.0094957557 0
-0.0099999728 -0.11547226 -0.0076067992 0
-0.0099999821 -0.11547124 -0.0044800518 0
-0.0099999923 -0.11548205 -0.0012605445 0
-0.010000004 -0.11568679 0.001421034 0
-0.010000019 -0.11580499 0.0048899092 0
-0.010000027 -0.11541387 0.007631531 0
-0.0095186327 -0.11560348 0.0098317433 0
-0.0075650383 -0.11556004 -0.0099996096 0
-0.0074338079 -0.11583098 0.010000393 0
-0.0045876754 -0.11546806 -0.0099995993 0
-0.0047609592 -0.11516231 0.010000401 0
-0.0014377662 -0.11568683 -0.0099995872 0
-0.0014556954 -0.11535013 0.010000411 0
3.4395313e-08 -0.11499953 -0.0095010772 0
2.7246035e-08 -0.11542436 -0.0075261318 0
1.6153384e-08 -0.11520328 -0.0044618556 0
5.5807949e-09 -0.11561166 -0.0015412418 0
-5.4473106e-09 -0.11551975 0.0015052042 0
-1.607957e-08 -0.11535461 0.0044422997 0
-2.7824161e-08 -0.11565299 0.0076866718 0
-3.4304865e-08 -0.11574053 0.0094769271 0
-0.0097382553 -0.11292379 -0.0097869383 0
-0.0099999746 -0.11243069 -0.007520623 0
-0.0099999849 -0.1126371 -0.004966523 0
-0.0099999942 -0.11234124 -0.0013338713 0
-0.010000007 -0.11235967 0.0016170003 0
-0.010000017 -0.11245266 0.0043077972 0
-0.010000025 -0.11248708 0.0074663954 0
-0.0097159827 -0.11262526 0.0096490812 0
-0.0074641542 -0.11276366 -0.0099996198 0
-0.0074649169 -0.11243163 0.010000381 0
-0.0043983879 -0.11270615 -0.0099996058 0
-0.0042750463 -0.11254716 0.010000392 0
-0.001596857 -0.11219381 -0.0099995993 0
-0.0014023157 -0.11237735 0.010000402 0
3.4510773e-08 -0.11252784 -0.0095329816 0
2.6943471e-08 -0.11243868 -0.0074425614 0
1.6372036e-08 -0.11250716 -0.0045222668 0
5.8758318e-09 -0.11279387 -0.0016227541 0
-4.6133541e-09 -0.11280378 0.001274819 0
-1.7197438e-08 -0.11259771 0.0047510937 0
-2.6757469e-08 -0.11209487 0.007391992 0
-3.4661188e-08 -0.11249306 0.0095753465 0
-0.0096465228 -0.1096301 -0.0097602308 0
-0.009999969 -0.10960421 -0.0076534916 0
-0.0099999839 -0.10972162 -0.0046110665 0
-0.0099999914 -0.10940558 -0.0014595706 0
-0.010000002 -0.10949244 0.0013641227 0
-0.010000015 -0.10946003 0.0045769042 0
-0.010000028 -0.10983134 0.0075915866 0
-0.0096867504 -0.10969003 0.0096761314 0
-0.0074680177 -0.1096714 -0.009999631 0
-0.0074167647 -0.10925839 0.010000368 0
-0.0046696356 -0.10953832 -0.0099996189 0
-0.0041819289 -0.10955814 0.010000382 0
-0.0013425747 -0.10956924 -0.0099996086 0
-0.0015355296 -0.10938137 0.010000388 0
3.4458441e-08 -0.1097446 -0.0095185349 0
2.7751156e-08 -0.10920028 -0.0076656905 0
1.6416836e-08 -0.10939478 -0.0045346539 0
5.2552074e-09 -0.10915909 -0.0014513236 0
-5.0545239e-09 -0.1094478 0.0013966773 0
-1.6218085e-08 -0.10969604 0.0044805431 0
-2.8352387e-08 -0.10968006 0.0078325691 0
-3.4298992e-08 -0.10933469 0.0094752815 0
-0.0096902344 -0.10638538 -0.0097685447 0
-0.0099999728 -0.10636545 -0.0076889689 0
-0.0099999839 -0.10638376 -0.0042395429 0
-0.0099999951 -0.10651265 -0.001477757 0
-0.010000004 -0.10648614 0.0015658559 0
-0.010000014 -0.10643152 0.0043802313 0
-0.010000026 -0.10648537 0.0074637774 0
-0.0097211692 -0.10655432 0.0096774092 0
-0.0074958345 -0.10638256 -0.0099996394 0
-0.0077040056 -0.10656352 0.010000358 0
-0.0044036992 -0.10660135 -0.009999631 0
-0.0046493304 -0.10638902 0.01000037 0
-0.0014262736 -0.10646684 -0.0099996179 0
-0.0012846246 -0.10649239 0.010000382 0
3.4342012e-08 -0.10653286 -0.0094863838 0
2.8080422e-08 -0.10638763 -0.0077566584 0
1.6184231e-08 -0.10631598 -0.0044704094 0
6.1868208e-09 -0.10626623 -0.0017086866 0
-4.9362523e-09 -0.10665796 0.0013639955 0
-1.7155701e-08 -0.10625062 0.0047395416 0
-2.7652243e-08 -0.10650486 0.0076391473 0
-3.4172462e-08 -0.10650399 0.0094403177 0
-0.0095754722 -0.10347196 -0.009853472 0
-0.0099999718 -0.10331304 -0.0075312504 0
-0.0099999812 -0.10335168 -0.0044455091 0
-0.0099999923 -0.1034762 -0.0015426317 0
-0.010000004 -0.1033776 0.0014063256 0
-0.010000015 -0.10353286 0.0041194395 0
-0.010000028 -0.10331576 0.007447931 0
-0.0097897453 -0.10365425 0.0096758064 0
-0.0074255876 -0.10354904 -0.0099996496 0
-0.0074356212 -0.1034909 0.010000348 0
-0.0042425315 -0.10346993 -0.0099996394 0
-0.0043447707 -0.10342314 0.010000357 0
-0.0016400927 -0.10323904 -0.0099996319 0
-0.0017661606 -0.10331603 0.010000366 0
3.4110926e-08 -0.10373627 -0.0094225584 0
2.6693252e-08 -0.10357474 -0.0073734717 0
1.5754253e-08 -0.10359111 -0.0043516406 0
5.7757337e-09 -0.10336825 -0.0015951367 0
-5.6214442e-09 -0.1035917 0.0015532643 0
-1.5516898e-08 -0.10336973 0.0042868219 0
-2.6424134e-08 -0.10333781 0.0072998782 0
-3.4351718e-08 -0.10351548 0.009489825 0
-0.0097532384 -0.1005948 -0.0098068137 0
-0.0099999728 -0.10070626 -0.0075509865 0
-0.009999983 -0.10063893 -0.0045143943 0
-0.0099999942 -0.10014547 -0.0013980683 0
-0.010000005 -0.10067245 0.0017035981 0
-0.010000018 -0.1004988 0.0046623792 0
-0.010000028 -0.1004139 0.0075891628 0
-0.0098584481 -0.10041317 0.0097118123 0
-0.0072846455 -0.10038149 -0.0099996645 0
-0.0074291322 -0.10059647 0.010000339 0
-0.004664578 -0.100412 -0.0099996543 0
-0.0042055594 -0.10065392 0.010000349 0
-0.0016720437 -0.10050255 -0.0099996403 0
-0.001452413 -0.10042042 0.010000356 0
3.4720188e-08 -0.099831782 -0.0095908772 0
2.7524134e-08 -0.10012303 -0.0076030106 0
1.5450413e-08 -0.10049702 -0.0042677177 0
5.6586065e-09 -0.10036876 -0.0015627919 0
-4.9167452e-09 -0.10045898 0.0013585843 0
-1.6718042e-08 -0.10052817 0.00461862 0
-2.6722795e-08 -0.10053908 0.0073823719 0
-3.4580363e-08 -0.10046554 0.009552977 0
-0.009779498 -0.097689807 -0.0096847052 0
-0.0099999737 -0.097765349 -0.0072230594 0
-0.009999983 -0.097417779 -0.0047438694 0
-0.0099999979 -0.097426154 -0.0011347198 0
-0.010000003 -0.097677976 0.0015564304 0
-0.010000017 -0.097251847 0.0040288162 0
-0.010000026 -0.09750066 0.0073631569 0
-0.0098806098 -0.09769541 0.0095738173 0
-0.007452602 -0.097577333 -0.009999672 0
-0.0077288141 -0.09762118 0.010000326 0
-0.0045583588 -0.097685531 -0.0099996636 0
-0.0046577333 -0.097688921 0.010000336 0
-0.001689197 -0.097751223 -0.0099996543 0
-0.0015005805 -0.097220212 0.010000347 0
3.4274699e-08 -0.097249202 -0.0094678225 0
2.8266131e-08 -0.097566217 -0.0078079919 0
1.6031025e-08 -0.097309776 -0.0044281199 0
5.7211929e-09 -0.097312838 -0.001580092 0
-4.0121089e-09 -0.097659007 0.001108674 0
-1.6637287e-08 -0.097364224 0.0045963009 0
-2.7182621e-08 -0.09739124 0.0075093843 0
-3.4068588e-08 -0.097524174 0.0094115911 0
-0.0096024601 -0.094659425 -0.0098737953 0
-0.0099999709 -0.094507314 -0.0076120635 0
-0.0099999821 -0.094548829 -0.0046875714 0
-0.0099999923 -0.094505154 -0.0015958914 0
-0.010000003 -0.094450966 0.0012788273 0
-0.010000016 -0.094250761 0.0043752617 0
-0.010000028 -0.094591014 0.0074488232 0
-0.0098432619 -0.094612233 0.0096292067 0
-0.0076337177 -0.094542697 -0.0099996869 0
-0.0075768321 -0.094374381 0.010000315 0
-0.0041755605 -0.094363719 -0.009999671 0
-0.0045467583 -0.094724119 0.010000324 0
-0.0013949561 -0.094705902 -0.0099996598 0
-0.0012285624 -0.094611965 0.010000341 0
3.3962149e-08 -0.09489806 -0.0093814908 0
2.7149257e-08 -0.094610631 -0.0074994727 0
1.5425545e-08 -0.094623297 -0.0042608692 0
5.1995972e-09 -0.094004042 -0.0014360164 0
-5.8862941e-09 -0.09446767 0.0016263946 0
-1.5793493e-08 -0.094330341 0.0043631964 0
-2.7502734e-08 -0.09452831 0.0075978031 0
-3.4406764e-08 -0.0947024 0.009504999 0
-0.0097312229 -0.091404684 -0.0098590404 0
-0.0099999728 -0.091717459 -0.0076205367 0
-0.0099999821 -0.091593914 -0.0047410615 0
-0.0099999914 -0.091471367 -0.0017592938 0
-0.010000005 -0.091519229 0.0012077813 0
-0.010000015 -0.091685161 0.0044990126 0
-0.010000028 -0.091736607 0.007507748 0
-0.009769218 -0.091408066 0.0097335968 0
-0.0074523091 -0.09165898 -0.0099996962 0
-0.0072979252 -0.091750488 0.010000305 0
-0.0044211401 -0.091541678 -0.009999685 0
-0.0047229007 -0.091469638 0.010000315 0
-0.0015640375 -0.091460884 -0.009999672 0
-0.0012815384 -0.091539197 0.010000325 0
3.4043406e-08 -0.09138155 -0.0094039505 0
2.6965768e-08 -0.091781974 -0.0074487953 0
1.6358324e-08 -0.091580063 -0.004518555 0
5.5825717e-09 -0.091513708 -0.0015418198 0
-4.7457669e-09 -0.091364741 0.0013113196 0
-1.6271459e-08 -0.091512598 0.0044952217 0
-2.6616798e-08 -0.091500238 0.0073530576 0
-3.4816232e-08 -0.091921248 0.0096181026 0
-0.0097028408 -0.088265195 -0.0097056143 0
-0.0099999728 -0.088475965 -0.007237751 0
-0.0099999839 -0.088546202 -0.0045156553 0
-0.0099999933 -0.088093176 -0.0015856209 0
-0.010000004 -0.088371329 0.0015003231 0
-0.010000016 -0.088368557 0.0045917723 0
-0.010000028 -0.088629514 0.0075973338 0
-0.0096947001 -0.088259928 0.0097429221 0
-0.0074968222 -0.088753887 -0.0099997064 0
-0.0074042846 -0.088813655 0.010000296 0
-0.004581803 -0.088613071 -0.0099996952 0
-0.0047697076 -0.088486336 0.010000303 0
-0.0015947304 -0.088442758 -0.0099996859 0
-0.0016379697 -0.088278495 0.010000314 0
3.4173798e-08 -0.089019626 -0.0094399787 0
2.6768388e-08 -0.088485561 -0.0073942821 0
1.7222954e-08 -0.088488676 -0.0047574146 0
5.5316778e-09 -0.088234462 -0.0015277725 0
-4.8972613e-09 -0.088470876 0.0013531585 0
-1.5554678e-08 -0.088472374 0.0042972043 0
-2.7637833e-08 -0.088473074 0.0076351017 0
-3.4018907e-08 -0.088282585 0.0093978327 0
-0.0098816464 -0.085695371 -0.0097268932 0
-0.0099999756 -0.085597888 -0.0072988071 0
-0.009999983 -0.085698947 -0.0043957839 0
-0.0099999923 -0.085713372 -0.0015478267 0
-0.010000008 -0.085467547 0.0017405873 0
-0.010000015 -0.08543919 0.0043572411 0
-0.010000027 -0.085622162 0.0073213573 0
-0.0097359512 -0.085424557 0.0098069701 0
-0.0075245271 -0.085540175 -0.0099997167 0
-0.007598578 -0.085657276 0.010000284 0
-0.0046106577 -0.085098088 -0.0099997092 0
-0.0045221825 -0.085327066 0.010000292 0
-0.0017103262 -0.085505679 -0.0099996952 0
-0.0013974342 -0.085407563 0.010000303 0
3.4200877e-08 -0.085659422 -0.0094474712 0
2.7366241e-08 -0.085377961 -0.0075594466 0
1.5656941e-08 -0.085410014 -0.0043248245 0
5.5222964e-09 -0.085712947 -0.0015251902 0
-6.0323626e-09 -0.085725166 0.0016667134 0
-1.6561938e-08 -0.085502349 0.004575443 0
-2.744215e-08 -0.085514791 0.0075810347 0
-3.4431952e-08 -0.085673042 0.0095119253 0
-0.0096519915 -0.082471371 -0.0098510552 0
-0.0099999709 -0.082478181 -0.0074038557 0
-0.0099999867 -0.08243227 -0.0044363192 0
-0.0099999923 -0.082460284 -0.001301798 0
-0.010000007 -0.082127586 0.0016796035 0
-0.010000018 -0.082575865 0.0046914085 0
-0.010000027 -0.082531713 0.0075338925 0
-0.0096861217 -0.082641348 0.0097211273 0
-0.0074647502 -0.082490377 -0.0099997288 0
-0.0075212703 -0.082520783 0.010000268 0
-0.0046205218 -0.082554139 -0.0099997185 0
-0.004745251 -0.082633123 0.010000279 0
-0.0012716117 -0.082429238 -0.0099997055 0
-0.0014383978 -0.082361199 0.010000293 0
3.4134391e-08 -0.082650796 -0.0094291167 0
2.7435288e-08 -0.08239489 -0.0075785308 0
1.6505927e-08 -0.082516961 -0.0045593623 0
5.3816822e-09 -0.082499258 -0.001486358 0
-5.4892721e-09 -0.082710102 0.0015166771 0
-1.5924915e-08 -0.082599998 0.0043994584 0
-2.795648e-08 -0.082507446 0.0077231042 0
-3.4512286e-08 -0.082582474 0.0095341057 0
-0.0097889667 -0.079518288 -0.0096868854 0
-0.0099999718 -0.079743534 -0.0073942598 0
-0.009999983 -0.079299681 -0.0042040069 0
-0.0099999961 -0.079800196 -0.001215686 0
-0.010000006 -0.079666324 0.0016011504 0
-0.010000016 -0.079666421 0.0047005741 0
-0.010000025 -0.079720527 0.0075739729 0
-0.0097167445 -0.079477847 0.009722596 0
-0.0075372192 -0.079647556 -0.0099997362 0
-0.0076452997 -0.079525918 0.010000259 0
-0.0045704902 -0.079066046 -0.0099997316 0
-0.0046668011 -0.079472691 0.01000027 0
-0.0013991324 -0.079412766 -0.0099997157 0
-0.0014167104 -0.079524815 0.010000283 0
3.4391469e-08 -0.079674184 -0.0095001431 0
2.6547383e-08 -0.079468898 -0.0073332633 0
1.637801e-08 -0.079121992 -0.0045240382 0
5.9969825e-09 -0.079375632 -0.0016563422 0
-6.0171681e-09 -0.079474635 0.0016624933 0
-1.5380166e-08 -0.079562165 0.0042489646 0
-2.7484186e-08 -0.079290189 0.0075926241 0
-3.4661287e-08 -0.079663448 0.0095752561 0
-0.0098705608 -0.0765092 -0.0096991118 0
-0.00999997 -0.076486647 -0.0076139034 0
-0.0099999849 -0.076470494 -0.0046224208 0
-0.0099999951 -0.076565325 -0.0015183385 0
-0.010000006 -0.076375626 0.0017550623 0
-0.010000015 -0.076520212 0.0042195725 0
-0.010000025 -0.076584488 0.0075522801 0
-0.0097944951 -0.076238461 0.009720942 0
-0.0074436995 -0.07671269 -0.0099997502 0
-0.0075291283 -0.076434188 0.010000247 0
-0.0046674809 -0.076356396 -0.0099997409 0
-0.0045116297 -0.076614507 0.010000259 0
-0.001255085 -0.076402873 -0.0099997288 0
-0.0015600342 -0.076581657 0.010000273 0
3.4572679e-08 -0.076735631 -0.009550212 0
2.6854014e-08 -0.076882154 -0.0074179778 0
1.6374617e-08 -0.076711111 -0.0045231096 0
5.5338152e-09 -0.076454408 -0.0015284057 0
-6.1638401e-09 -0.076341942 0.0017029992 0
-1.5928151e-08 -0.076441929 0.0044003301 0
-2.6993479e-08 -0.0765379 0.0074570598 0
-3.4276862e-08 -0.076630808 0.00946905 0
-0.0097964704 -0.073350385 -0.0097047873 0
-0.0099999709 -0.073666051 -0.0076348414 0
-0.009999983 -0.073659495 -0.0045295665 0
-0.0099999942 -0.073711783 -0.0015159436 0
-0.010000004 -0.073205873 0.0016329042 0
-0.010000015 -0.073875271 0.0042677247 0
-0.010000027 -0.073495589 0.0076490589 0
-0.0097742658 -0.073738389 0.0097332215 0
-0.0075282245 -0.07333152 -0.0099997614 0
-0.0076989536 -0.073979765 0.010000241 0
-0.0046216897 -0.073446885 -0.0099997493 0
-0.0045174961 -0.073647216 0.010000248 0
-0.0016412098 -0.073420569 -0.0099997381 0
-0.0015674133 -0.07333111 0.010000257 0
3.4119029e-08 -0.07365942 -0.0094249053 0
2.6794048e-08 -0.07343334 -0.0074014249 0
1.6554694e-08 -0.07352066 -0.004572866 0
6.147415e-09 -0.073516645 -0.0016979194 0
-5.8368972e-09 -0.073849082 0.0016126742 0
-1.6068011e-08 -0.073430069 0.0044389549 0
-2.6842129e-08 -0.073530786 0.0074152392 0
-3.3959168e-08 -0.073707707 0.0093812775 0
-0.012422794 -0.069740407 -0.0064110863 0
-0.012942159 -0.069788009 -0.0045949169 0
-0.013307025 -0.069831833 -0.0011637722 0
-0.01348185 -0.069709547 0.0016196012 0
-0.012889495 -0.069831207 0.0044008116 0
-0.012244707 -0.069612041 0.0067232093 0
-0.009938268 -0.070392109 -0.0097639123 0
-0.010597317 -0.070180327 -0.0075974232 0
-0.010356169 -0.070572414 -0.0046199332 0
-0.010548212 -0.070403203 -0.0013111144 0
-0.010524171 -0.070345387 0.0017703385 0
-0.01050448 -0.070471138 0.0042893435 0
-0.010610002 -0.070396982 0.0074970685 0
-0.0099033359 -0.070329331 0.0097616883 0
-0.0066550984 -0.069526851 -0.012384802 0
-0.0074324659 -0.070246309 -0.0106851 0
-0.0074395505 -0.070544273 0.010614865 0
-0.006628708 -0.069757447 0.012345806 0
-0.0041213543 -0.069857635 -0.012843028 0
-0.0043613124 -0.070633225 -0.010325834 0
-0.0044950997 -0.070614636 0.010526187 0
-0.0043076021 -0.069858983 0.012794682 0
-0.0015478276 -0.069859505 -0.013265899 0
-0.0015100457 -0.070335843 -0.010534205 0
-0.0014011965 -0.070490979 0.010601123 0
-0.0015248996 -0.069774449 0.013412392 0
0.0015880816 -0.069868803 -0.013139893 0
0.001347278 -0.070162408 -0.010294144 0
0.0009041726 -0.070355304 -0.0075155222 0
0.00085889472 -0.070496649 -0.0045097042 0
0.00097222021 -0.070375815 -0.0015957851 0
0.0011945595 -0.070296332 0.0013229285 0
0.0010057568 -0.070506863 0.0045829169 0
0.0011054372 -0.070367388 0.0074205818 0
0.0012138922 -0.07014063 0.010536416 0
0.0014854162 -0.069822989 0.013406639 0
0.0043749404 -0.069783904 -0.012968459 0
0.004459606 -0.070000045 -0.010471258 0
0.0043377252 -0.070000045 -0.0071788258 0
0.0044853347 -0.07000003 -0.0044566658 0
0.0046078581 -0.070000023 -0.001347003 0
0.0042847539 -0.070000008 0.0012586445 0
0.0043640714 -0.069999993 0.0044694161 0
0.0047404496 -0.06999997 0.0074213878 0
0.0042807395 -0.069999978 0.010446399 0
0.0044017928 -0.06979236 0.012971968 0
0.006593952 -0.069761999 -0.012236017 0
0.0077200914 -0.069835544 -0.010520498 0
0.0077216527 -0.070000038 -0.0073773731 0
0.0076858387 -0.070000038 -0.0045206621 0
0.0076320036 -0.070000015 -0.0018548432 0
0.0075994632 -0.070000008 0.001654077 0
0.0074326098 -0.07 0.0044605578 0
0.0077376035 -0.069999993 0.0075184209 0
0.0074916864 -0.06987974 0.010575502 0
0.0065651364 -0.06980662 0.012323973 0
0.0097990204 -0.069789894 -0.0094842389 0
0.010627223 -0.069924995 -0.0074857939 0
0.010747068 -0.070000023 -0.0044942219 0
0.010719547 -0.070000023 -0.0015961386 0
0.010537716 -0.07 0.0014838334 0
0.010484822 -0.07 0.0045312708 0
0.010595867 -0.069935016 0.007456176 0
0.0098666297 -0.069611259 0.0097952494 0
0.012316296 -0.069153391 -0.0067812079 0
0.013197739 -0.069712497 -0.0043882509 0
0.013138567 -0.069917127 -0.0013552548 0
0.013140317 -0.069858223 0.0014921002 0
0.012855335 -0.069826409 0.0043562748 0
0.012283836 -0.069769837 0.0064230408 0
-0.012338725 -0.067303576 -0.0067625791 0
-0.013290937 -0.067424454 -0.0045647449 0
-0.013922689 -0.067536525 -0.0016398864 0
-0.013933763 -0.067564398 0.0015379328 0
-0.013332467 -0.067734972 0.0044805319 0
-0.012335557 -0.067697503 0.006777518 0
-0.010029237 -0.067473263 -0.0098631484 0
-0.011355569 -0.067558751 -0.00821287 0
-0.011285715 -0.067622654 0.008305436 0
-0.0098593486 -0.067305021 0.010022583 0
-0.0068277325 -0.06749396 -0.012314734 0
-0.0078816218 -0.067839466 -0.011606799 0
-0.0084033888 -0.067339405 0.011211466 0
-0.0066647287 -0.06771405 0.012384447 0
-0.0045190253 -0.067320526 -0.013317481 0
-0.0043326393 -0.067392573 0.013391039 0
-0.0013107392 -0.067387469 -0.013958056 0
-0.0015231686 -0.067558914 0.013935577 0
0.0016393091 -0.067359693 -0.013922534 0
0.0012187748 -0.067579731 0.013968486 0
0.0048871716 -0.067398608 -0.013168448 0
0.0047023566 -0.067612112 0.013236504 0
0.0065053855 -0.067394063 -0.012462083 0
0.008342742 -0.06753625 -0.011256987 0
0.0082137929 -0.067768559 0.011355297 0
0.0067516342 -0.067564517 0.012338211 0
0.010154012 -0.067554384 -0.0097280201 0
0.011352347 -0.067300051 -0.0082171168 0
0.011257821 -0.067371026 0.0083422093 0
0.0098831113 -0.067551173 0.010001432 0
0.012394032 -0.06701529 -0.0066497913 0
0.013291514 -0.067552954 -0.0045949239 0
0.013911891 -0.067294098 -0.0017398064 0
0.013919342 -0.067498304 0.00167134 0
0.013230826 -0.067428656 0.0047117574 0
0.012390198 -0.067364544 0.0066520814 0
-0.012365297 -0.064351805 -0.006692213 0
-0.013215506 -0.064408809 -0.0047860825 0
-0.013965392 -0.06440524 -0.0012449058 0
-0.013973005 -0.064808846 0.0011749533 0
-0.01325676 -0.064446218 0.0046684407 0
-0.012341908 -0.064617954 0.006757699 0
-0.0097322026 -0.064519048 -0.01013229 0
-0.011184629 -0.064629741 -0.0084382091 0
-0.011328869 -0.064612411 0.0082485406 0
-0.010091985 -0.064499222 0.0097948173 0
-0.0065958221 -0.064440653 -0.012416618 0
-0.0080825742 -0.064738736 -0.011454362 0
-0.0081882756 -0.064150646 0.011374646 0
-0.006770628 -0.064673305 0.012335593 0
-0.0043839552 -0.064516045 -0.013375129 0
-0.0044991551 -0.064561136 0.013314396 0
-0.0016037778 -0.064467102 -0.013926386 0
-0.0014095204 -0.064426526 0.013947855 0
0.001275545 -0.064525865 -0.013961871 0
0.001573301 -0.064505681 0.013930148 0
0.00443496 -0.0644539 -0.013355081 0
0.0044162292 -0.064588845 0.013366759 0
0.0066236155 -0.064657494 -0.01239752 0
0.008191674 -0.064814366 -0.0113716 0
0.0082565965 -0.064714663 0.011322818 0
0.0066491994 -0.064079411 0.012397594 0
0.0099212527 -0.064654708 -0.0099772494 0
0.011286849 -0.064479977 -0.0083034644 0
0.011279044 -0.064499639 0.008314224 0
0.010081652 -0.064418986 0.0097879795 0
0.012371774 -0.064180724 -0.0067082969 0
0.013295672 -0.064174712 -0.004557638 0
0.013942764 -0.064768493 -0.0014541994 0
0.013941743 -0.064509571 0.0014641115 0
0.013296601 -0.064629056 0.0045942944 0
0.01236485 -0.064559482 0.0067129158 0
-0.012312962 -0.061545059 -0.0068268809 0
-0.013202502 -0.061490323 -0.0048024836 0
-0.013934169 -0.061686222 -0.0015336938 0
-0.013896356 -0.061488904 0.0018839194 0
-0.013215845 -0.061322425 0.0047810711 0
-0.012409867 -0.061389256 0.0066061616 0
-0.0098899277 -0.061524086 -0.0099896882 0
-0.011402166 -0.061354257 -0.0081514707 0
-0.01127569 -0.062033039 0.0083186319 0
-0.0099802306 -0.061397076 0.0099118892 0
-0.0067655873 -0.061569203 -0.012337144 0
-0.0082657561 -0.061359935 -0.011315409 0
-0.0082800277 -0.061244782 0.01130503 0
-0.0065577901 -0.061217871 0.012436193 0
-0.0043345131 -0.061424594 -0.013372784 0
-0.0044557191 -0.061652031 0.013339932 0
-0.0016579032 -0.06154447 -0.013920547 0
-0.0016476779 -0.061584964 0.013922097 0
0.0016437323 -0.061374817 -0.013922078 0
0.0014016683 -0.061681654 0.013948692 0
0.0044792518 -0.061279163 -0.013316018 0
0.0047943732 -0.061356504 0.013208808 0
0.006899171 -0.061778396 -0.012277211 0
0.0080521796 -0.061402779 -0.011477436 0
0.0080604441 -0.061564684 0.011471606 0
0.0065906933 -0.061405588 0.012414332 0
0.0097831385 -0.061812278 -0.010105493 0
0.01143443 -0.061505593 -0.0081089372 0
0.011423217 -0.061644197 0.008124168 0
0.010101391 -0.061611615 0.0097816428 0
0.012383966 -0.061802704 -0.0066628195 0
0.013293246 -0.061318364 -0.0045446632 0
0.013955093 -0.061622016 -0.0013401589 0
0.01393554 -0.061750412 0.0015214899 0
0.01328036 -0.061523728 0.0045685852 0
0.012398235 -0.06079746 0.0066267652 0
-0.012406535 -0.058364604 -0.0066065821 0
-0.013318907 -0.05829259 -0.0045211758 0
-0.013946111 -0.058410164 -0.0014232587 0
-0.013933719 -0.058576874 0.0015383229 0
-0.013248637 -0.058648411 0.0046805488 0
-0.012250834 -0.058141407 0.0069551659 0
-0.0099337753 -0.058535274 -0.009951313 0
-0.011372642 -0.058572952 -0.0081904009 0
-0.011249179 -0.058369715 0.0083535658 0
-0.0099167125 -0.05856267 0.0099707879 0
-0.0067111156 -0.05860313 -0.012367287 0
-0.0083151339 -0.058464184 -0.011277963 0
-0.0081922272 -0.058364645 0.011371627 0
-0.0067588361 -0.058633637 0.012342823 0
-0.0045727249 -0.058755033 -0.013301407 0
-0.0046915468 -0.058383096 0.013240711 0
-0.0015265401 -0.058531724 -0.013934758 0
-0.0013858911 -0.058575176 0.013950387 0
0.0015241568 -0.058342729 -0.013935014 0
0.0017672406 -0.058273975 0.013909159 0
0.0046096575 -0.058529604 -0.01328548 0
0.0046157679 -0.058545478 0.013276918 0
0.006606447 -0.058297615 -0.01241632 0
0.0082824426 -0.058420971 -0.011302765 0
0.0080615534 -0.0582776 0.011470756 0
0.0067001381 -0.058769256 0.012372707 0
0.009801914 -0.058304418 -0.010079334 0
0.011430942 -0.058411278 -0.0081135435 0
0.011250095 -0.058767997 0.0083523616 0
0.0098399986 -0.058715966 0.010050573 0
0.012384616 -0.058229636 -0.0066605681 0
0.013239229 -0.058655567 -0.0047207274 0
0.013942642 -0.058466759 -0.0014553419 0
0.013934448 -0.058522217 0.0015315751 0
0.013230354 -0.058448117 0.004712184 0
0.012389326 -0.058632307 0.0066243778 0
-0.012364353 -0.05560502 -0.0067089903 0
-0.013381961 -0.055457044 -0.0043333657 0
-0.013909602 -0.055283535 -0.0017609865 0
-0.01396016 -0.055589385 0.0012937172 0
-0.013325122 -0.055406563 0.0044954387 0
-0.012403373 -0.055365171 0.0066140955 0
-0.01005266 -0.055539187 -0.0098191528 0
-0.0113628 -0.055206954 -0.0082033817 0
-0.011401357 -0.055586468 0.0081529561 0
-0.0097947419 -0.055525314 0.010098589 0
-0.0066994042 -0.055821702 -0.012364857 0
-0.0082099317 -0.055422887 -0.011357781 0
-0.0080985939 -0.055378154 0.011442649 0
-0.0067172498 -0.055468235 0.012354654 0
-0.0044758148 -0.05555414 -0.013329064 0
-0.0046803411 -0.055594873 0.013240711 0
-0.0015208429 -0.05562973 -0.013935385 0
-0.001424156 -0.055547535 0.013946241 0
0.0016476033 -0.055792153 -0.013921681 0
0.0015516096 -0.055373885 0.01393246 0
0.0043468969 -0.055416137 -0.013372873 0
0.0046303091 -0.055641096 0.013280307 0
0.0065803425 -0.055380967 -0.012421238 0
0.0083935875 -0.055447146 -0.011218455 0
0.0081513245 -0.055515148 0.011402641 0
0.0066181184 -0.055200186 0.012409382 0
0.0099302959 -0.055761587 -0.0099642295 0
0.011318342 -0.055413198 -0.0082619842 0
0.011374668 -0.05553183 0.0081881415 0
0.0099248635 -0.055246361 0.0099453507 0
0.012391309 -0.055331197 -0.0066473335 0
0.013252496 -0.055688854 -0.0047035599 0
0.013951363 -0.055254254 -0.0013746811 0
0.013935836 -0.055480521 0.0015187141 0
0.013289374 -0.055659652 0.0045718397 0
0.012453225 -0.055508375 0.0065121595 0
-0.012293845 -0.053023193 -0.0068322662 0
-0.013246531 -0.052575532 -0.0046915798 0
-0.013958449 -0.052590806 -0.0013091677 0
-0.013937956 -0.052435171 0.0014990902 0
-0.013269143 -0.052606404 0.0046560005 0
-0.012367446 -0.052454416 0.0066871629 0
-0.009998221 -0.052281111 -0.0098845419 0
-0.011354666 -0.052403819 -0.0082141161 0
-0.011571923 -0.05247467 0.0079281041 0
-0.0099017164 -0.052481059 0.0099909408 0
-0.0067406115 -0.052322626 -0.012343351 0
-0.0081980098 -0.052356709 -0.011366836 0
-0.0081762495 -0.05236569 0.011383725 0
-0.0066778115 -0.052714214 0.012374722 0
-0.0044537601 -0.052539475 -0.013346777 0
-0.0044108261 -0.052513171 0.013362561 0
-0.0015586539 -0.053021345 -0.013931306 0
-0.0015028204 -0.052871864 0.013937723 0
0.0017209454 -0.052775703 -0.013913758 0
0.0013160044 -0.052695557 0.01395792 0
0.0046425038 -0.052269068 -0.013266116 0
0.0043999394 -0.052543767 0.01335979 0
0.0066400566 -0.052625202 -0.012397744 0
0.0083975894 -0.052736983 -0.01121543 0
0.008228601 -0.052796479 0.011344009 0
0.0066478997 -0.052663989 0.01239287 0
0.010073529 -0.052502725 -0.0098062232 0
0.011354684 -0.052752644 -0.0082140882 0
0.011484632 -0.052060146 0.0080431756 0
0.0099946195 -0.052426163 0.0098907575 0
0.01226005 -0.052854791 -0.0069162063 0
0.01335902 -0.052372102 -0.0044359784 0
0.013935436 -0.052475963 -0.0015220345 0
0.013929327 -0.052628018 0.001578907 0
0.013256693 -0.052579917 0.004652048 0
0.012333413 -0.052860878 0.0067510568 0
-0.012317728 -0.049739223 -0.0068194028 0
-0.013334467 -0.049505468 -0.0044923788 0
-0.013925766 -0.049560379 -0.0016114889 0
-0.013935765 -0.049623907 0.0015193484 0
-0.013427911 -0.049323145 0.0042321286 0
-0.012322762 -0.049845573 0.0068005673 0
-0.010014015 -0.049656603 -0.0098761711 0
-0.011355516 -0.04922666 -0.0082130078 0
-0.011316766 -0.049746003 0.0082644429 0
-0.0099537317 -0.049645998 0.0099263201 0
-0.0066105756 -0.049640261 -0.012409094 0
-0.008195675 -0.049473524 -0.011368617 0
-0.0081421351 -0.049753264 0.011409594 0
-0.0067976173 -0.049707834 0.012318137 0
-0.0042827143 -0.049425885 -0.01340535 0
-0.0046715783 -0.049399994 0.013252579 0
-0.0014418473 -0.049461283 -0.013943947 0
-0.0013592393 -0.049493913 0.013953234 0
0.0014576006 -0.049501073 -0.013942242 0
0.0013442335 -0.049675882 0.013954856 0
0.0047215624 -0.049485724 -0.013228649 0
0.0046169492 -0.049529973 0.013276178 0
0.0066510518 -0.049540482 -0.012394013 0
0.0080188727 -0.049215589 -0.01150275 0
0.0080213798 -0.049765356 0.0115012 0
0.0066611418 -0.049565688 0.012393318 0
0.01007645 -0.049363483 -0.0098016765 0
0.011437234 -0.049678236 -0.0081052827 0
0.011304573 -0.049380261 0.0082805203 0
0.0097581204 -0.049556397 0.010107738 0
0.012375409 -0.049458984 -0.006681615 0
0.013312905 -0.049396958 -0.0045414148 0
0.013934365 -0.049654838 -0.0015319448 0
0.013921353 -0.049434844 0.0016526649 0
0.013360105 -0.049648646 0.004402054 0
0.012363595 -0.049564544 0.006705415 0
-0.012392297 -0.046570111 -0.0066323695 0
-0.013366837 -0.046465877 -0.0043774014 0
-0.013954466 -0.046171382 -0.00134603 0
-0.013930046 -0.046233322 0.0015722434 0
-0.013327185 -0.046735432 0.0045065554 0
-0.012371887 -0.04645066 0.0066965302 0
-0.0099906977 -0.046561897 -0.0098779788 0
-0.011514342 -0.046404574 -0.0080036586 0
-0.011266341 -0.046517503 0.0083308974 0
-0.0098835249 -0.046545792 0.0099903084 0
-0.0067337393 -0.046689488 -0.012359148 0
-0.0080201533 -0.046828732 -0.011501778 0
-0.0082352664 -0.04649315 0.011338933 0
-0.0067379 -0.046522152 0.012350984 0
-0.0044721044 -0.046664927 -0.013334332 0
-0.0045907828 -0.046452239 0.013282984 0
-0.0015256722 -0.046152096 -0.013934896 0
-0.0015289035 -0.046519764 0.013934881 0
0.0014226201 -0.046380907 -0.013946036 0
0.0013147247 -0.046410248 0.013958035 0
0.0044237855 -0.046544716 -0.013359757 0
0.0045043966 -0.046505746 0.013318982 0
0.0067487853 -0.046451587 -0.012352893 0
0.0081151854 -0.046398867 -0.011429694 0
0.0082664518 -0.046578236 0.011315275 0
0.0068720179 -0.046481941 0.012280082 0
0.0099739619 -0.046483733 -0.0099029867 0
0.011449774 -0.046690643 -0.0080887619 0
0.011418813 -0.046745289 0.008129918 0
0.010129372 -0.046728257 0.0097443331 0
0.01234633 -0.046222374 -0.0067521795 0
0.01327595 -0.046389479 -0.0046333256 0
0.013911078 -0.046401348 -0.0017473809 0
0.013954924 -0.046528272 0.0013421217 0
0.013332232 -0.046503671 0.0044669504 0
0.012365374 -0.046659201 0.0066974224 0
-0.012386767 -0.04341523 -0.0066484828 0
-0.013338469 -0.043527726 -0.0044725565 0
-0.013961182 -0.043915194 -0.0012838962 0
-0.013908814 -0.04335209 0.0017686314 0
-0.013256335 -0.043485656 0.0046752277 0
-0.012371737 -0.04342103 0.0066937655 0
-0.010091381 -0.043767247 -0.0097872959 0
-0.011400988 -0.043616135 -0.0081530884 0
-0.011503398 -0.042996831 0.0080184005 0
-0.0099652344 -0.043435603 0.00992148 0
-0.0068265451 -0.043554533 -0.012305019 0
-0.0081660319 -0.043270189 -0.011391129 0
-0.0080475295 -0.043286778 0.011481346 0
-0.0067728302 -0.043235362 0.01233322 0
-0.0045101275 -0.043864053 -0.013309292 0
-0.0047714212 -0.043631215 0.013215987 0
-0.0017989577 -0.043677554 -0.01390536 0
-0.001433233 -0.04326776 0.013945212 0
0.001636285 -0.043441582 -0.013922947 0
0.0013737375 -0.043429594 0.013951646 0
0.0043325196 -0.043599386 -0.013388021 0
0.0043987394 -0.043214552 0.013350677 0
0.0069400631 -0.044220466 -0.012248707 0
0.0081692562 -0.04331639 -0.011388686 0
0.0080832746 -0.04337718 0.01145422 0
0.0064581959 -0.043418806 0.01248044 0
0.0099848155 -0.043589588 -0.0099099167 0
0.011315358 -0.043568391 -0.0082659582 0
0.01138403 -0.043278947 0.0081757568 0
0.0099938931 -0.043622233 0.0098707145 0
0.012387943 -0.043454159 -0.0066692312 0
0.013358816 -0.043255042 -0.0044132378 0
0.013938973 -0.043451265 -0.0014893495 0
0.01393134 -0.043493647 0.0015602612 0
0.01321828 -0.043319143 0.0047637038 0
0.012380516 -0.043245539 0.0066699297 0
-0.012417118 -0.040343735 -0.0065892609 0
-0.013346505 -0.040546104 -0.0044508437 0
-0.013905295 -0.040236805 -0.0018008674 0
-0.01393478 -0.040376991 0.0015284412 0
-0.01332767 -0.040403109 0.0044988939 0
-0.012400095 -0.04027896 0.0066352626 0
-0.0099072363 -0.040585794 -0.0099995211 0
-0.011328369 -0.040259212 -0.0082488246 0
-0.011548599 -0.040462635 0.007958808 0
-0.0097076446 -0.040822685 0.010172273 0
-0.0068195662 -0.039981157 -0.012299892 0
-0.0082769087 -0.040507182 -0.011307025 0
-0.0082590953 -0.040482167 0.011320835 0
-0.0066557787 -0.040345397 0.012386916 0
-0.0045406972 -0.040540516 -0.013300324 0
-0.0047346079 -0.040514659 0.013228189 0
-0.0014819301 -0.041004576 -0.013939644 0
-0.0013577039 -0.040427722 0.013953367 0
0.001518177 -0.040725399 -0.013935725 0
0.001425767 -0.040220037 0.013946009 0
0.0045129913 -0.040664155 -0.013321403 0
0.0047403653 -0.040713191 0.013231431 0
0.006759732 -0.040376775 -0.01234011 0
0.0081588943 -0.040558141 -0.011396554 0
0.0081805242 -0.040631033 0.011380439 0
0.0069499942 -0.040904984 0.012244257 0
0.0099310968 -0.040419333 -0.0099574607 0
0.011342116 -0.040069621 -0.0082307011 0
0.011363283 -0.041008726 0.0082030948 0
0.0099860979 -0.040546872 0.0098977908 0
0.012337995 -0.040484708 -0.0067584049 0
0.013322442 -0.040423516 -0.0044939173 0
0.013942637 -0.04081301 -0.0014554777 0
0.013912432 -0.0400603 0.0017351566 0
0.013292082 -0.040420577 0.0045772903 0
0.012321345 -0.040222231 0.0068064686 0
-0.012337464 -0.037625808 -0.0067766919 0
-0.01328424 -0.037550617 -0.0045736236 0
-0.013924814 -0.037383437 -0.0016203317 0
-0.013911364 -0.03749676 0.0017450254 0
-0.013446685 -0.037622683 0.0041948869 0
-0.012379322 -0.03742015 0.0066786516 0
-0.0099974964 -0.037688266 -0.0099165728 0
-0.011482959 -0.037262268 -0.0080450606 0
-0.011259516 -0.03763992 0.0083398651 0
-0.0099620363 -0.037556637 0.009929142 0
-0.0066910479 -0.037049428 -0.012374635 0
-0.0080916267 -0.037552465 -0.011447595 0
-0.0082213283 -0.037712328 0.011349476 0
-0.0067111659 -0.037611216 0.012362342 0
-0.0044132904 -0.037599098 -0.013356035 0
-0.0043671997 -0.037406843 0.01338132 0
-0.0013578676 -0.037735891 -0.013953065 0
-0.0017280995 -0.03727727 0.013913311 0
0.0018894104 -0.037786033 -0.013895605 0
0.0015081386 -0.037577029 0.013937094 0
0.0045452854 -0.037560448 -0.013301469 0
0.0046495521 -0.037533887 0.013254602 0
0.0066196979 -0.037456073 -0.012405802 0
0.008241456 -0.037279408 -0.011333934 0
0.0081831999 -0.037354384 0.011378397 0
0.0065594064 -0.037864 0.012436037 0
0.0098477798 -0.037361886 -0.010014622 0
0.011275855 -0.03775407 -0.0083180536 0
0.01128031 -0.037482258 0.0083124544 0
0.0099898279 -0.037192248 0.0098929703 0
0.012344709 -0.037728768 -0.0067561702 0
0.013308256 -0.037467632 -0.0045405058 0
0.01393665 -0.037511654 -0.0015108531 0
0.013924778 -0.037553173 0.0016209566 0
0.013397572 -0.037608877 0.0043329261 0
0.012372343 -0.037271876 0.0066930004 0
-0.012445557 -0.034511071 -0.0065432703 0
-0.013325321 -0.034621444 -0.0044959621 0
-0.013920085 -0.034523308 -0.0016640937 0
-0.013927002 -0.034394097 0.001600369 0
-0.013403494 -0.034626443 0.0043060477 0
-0.012387875 -0.034543924 0.0066620503 0
-0.0099351835 -0.0344394 -0.0099272719 0
-0.01135224 -0.034711041 -0.0082173785 0
-0.011359112 -0.034220494 0.0082085617 0
-0.0098904846 -0.03485753 0.010007805 0
-0.006811026 -0.034506325 -0.012322117 0
-0.0083431108 -0.034473322 -0.011256822 0
-0.0080973739 -0.034436647 0.011443499 0
-0.0067021074 -0.034725182 0.012366056 0
-0.0044076927 -0.034466464 -0.013350653 0
-0.0044365348 -0.034406826 0.013363314 0
-0.0013387967 -0.034575209 -0.01395514 0
-0.0013480741 -0.034500647 0.013954389 0
0.0016845554 -0.034385599 -0.013917764 0
0.0016806298 -0.034466062 0.013918436 0
0.0047448389 -0.03422913 -0.013228352 0
0.0048931842 -0.034617562 0.013160207 0
0.006676727 -0.03479328 -0.012381744 0
0.0079385219 -0.034504261 -0.011563757 0
0.0082687354 -0.034405965 0.011313496 0
0.0065824795 -0.034211665 0.012425235 0
0.0098707248 -0.034566257 -0.0099896276 0
0.011388741 -0.034217853 -0.0081692599 0
0.011455843 -0.034553643 0.0080810608 0
0.0099049555 -0.034442641 0.0099917278 0
0.012288495 -0.034219157 -0.006860239 0
0.013237702 -0.034787118 -0.0047237822 0
0.013954063 -0.034548391 -0.0013497933 0
0.013955644 -0.034585264 0.0013354397 0
0.013345748 -0.034481369 0.0044507813 0
0.012380993 -0.034731306 0.0066646715 0
-0.012368632 -0.031400871 -0.0066968645 0
-0.013349226 -0.031531323 -0.0044381949 0
-0.013916741 -0.031424835 -0.0016950121 0
-0.01393666 -0.031218367 0.0015109967 0
-0.013281899 -0.031322811 0.0045864549 0
-0.012321922 -0.031065349 0.0067994539 0
-0.010012739 -0.031514663 -0.0098842438 0
-0.011469534 -0.03116627 -0.008062778 0
-0.011347379 -0.031657174 0.0082240244 0
-0.010026479 -0.031518955 0.0098428549 0
-0.0068769041 -0.03197927 -0.012283552 0
-0.0081937471 -0.031472366 -0.011370146 0
-0.0079975389 -0.031444136 0.011519224 0
-0.0067239725 -0.03160822 0.012350993 0
-0.0044323984 -0.031395182 -0.013343873 0
-0.0045312489 -0.031616483 0.013306615 0
-0.0015867089 -0.031600043 -0.013928349 0
-0.0015863155 -0.031423256 0.013928621 0
0.0017233136 -0.031492226 -0.01391358 0
0.001499214 -0.031539235 0.013938038 0
0.0046528461 -0.031353086 -0.013258204 0
0.0041088257 -0.031433221 0.013467557 0
0.0068193572 -0.031429566 -0.012314743 0
0.0082103796 -0.031783696 -0.011357528 0
0.0081323963 -0.031456426 0.011416915 0
0.006722115 -0.031517211 0.012350693 0
0.010032098 -0.031456813 -0.0098475143 0
0.011520367 -0.031594291 -0.0079957591 0
0.011432459 -0.03154774 0.0081118774 0
0.010088958 -0.031704217 0.0097996406 0
0.01229917 -0.031702664 -0.0068424116 0
0.013305256 -0.031440083 -0.0045044944 0
0.013912119 -0.031678267 -0.0017377902 0
0.013937826 -0.031452999 0.0015002087 0
0.013323762 -0.031515572 0.0044792602 0
0.012317533 -0.031744793 0.006790428 0
-0.012409246 -0.028188247 -0.0066157356 0
-0.01327496 -0.028449463 -0.0045890547 0
-0.013937158 -0.0282056 -0.001506187 0
-0.013943079 -0.028111586 0.0014516352 0
-0.013354847 -0.028477987 0.0044345446 0
-0.012294543 -0.028320409 0.0068476689 0
-0.0098895626 -0.028351193 -0.0099882437 0
-0.0113617 -0.028459156 -0.0082049305 0
-0.011340071 -0.028480468 0.0082336422 0
-0.0098642204 -0.028394887 0.010002842 0
-0.0066597559 -0.028722338 -0.012388002 0
-0.008108425 -0.028603883 -0.011434883 0
-0.0080109639 -0.028346134 0.01150903 0
-0.0067290301 -0.029168425 0.012350773 0
-0.004496804 -0.028391754 -0.013320732 0
-0.0045443308 -0.028375514 0.013311842 0
-0.0016201102 -0.028556356 -0.01392475 0
-0.0018301124 -0.028674768 0.013902253 0
0.0013910802 -0.028353821 -0.013949512 0
0.0015984995 -0.028541645 0.013927295 0
0.0044690431 -0.028691577 -0.013335517 0
0.0044533839 -0.028632628 0.013326697 0
0.0066669863 -0.028367223 -0.01238294 0
0.0082439464 -0.028668331 -0.011332078 0
0.0081302896 -0.028293103 0.011418502 0
0.0068146642 -0.028344788 0.012317208 0
0.0099004051 -0.02850996 -0.0099850679 0
0.011205368 -0.028547788 -0.0084110023 0
0.011361794 -0.028663091 0.0082050133 0
0.0099564102 -0.028158234 0.0099384747 0
0.012306872 -0.028763289 -0.0068228743 0
0.013317248 -0.028390866 -0.0044881115 0
0.013949545 -0.02863119 -0.0013916228 0
0.013937859 -0.028176585 0.001499921 0
0.013362102 -0.028474579 0.0043939524 0
0.012330129 -0.028404519 0.0067844447 0
-0.012315499 -0.025549935 -0.00681923 0
-0.013245167 -0.025625776 -0.0046956502 0
-0.013982492 -0.025529148 -0.0010868503 0
-0.013886215 -0.025330532 0.0019776337 0
-0.013305414 -0.025612142 0.0045515117 0
-0.012384677 -0.025135528 0.0066580242 0
-0.0098012183 -0.025580417 -0.010083729 0
-0.01138224 -0.025841806 -0.0081778653 0
-0.011419823 -0.025688 0.0081285071 0
-0.01002182 -0.025536848 0.0098584946 0
-0.0067157499 -0.025854422 -0.012359832 0
-0.0080954144 -0.025450895 -0.011444763 0
-0.0081421202 -0.025276011 0.011409517 0
-0.0067832489 -0.025408445 0.012327456 0
-0.0042207954 -0.025501855 -0.013423639 0
-0.0046374951 -0.025527591 0.013271078 0
-0.0015271369 -0.025611028 -0.013934812 0
-0.0013442255 -0.025276983 0.013954769 0
0.0014998941 -0.025639297 -0.013937756 0
0.0015721138 -0.025131706 0.013930133 0
0.004654069 -0.025395337 -0.01325233 0
0.0048721214 -0.025287621 0.013174531 0
0.0067142393 -0.025432721 -0.012362743 0
0.008051075 -0.025542721 -0.011478406 0
0.0082996031 -0.025520023 0.011290049 0
0.0067745443 -0.025417032 0.012334492 0
0.010053801 -0.025877543 -0.0098212073 0
0.011395355 -0.025462123 -0.0081605734 0
0.011228713 -0.025565963 0.0083804252 0
0.010037541 -0.025360478 0.009852984 0
0.01240199 -0.026022671 -0.0066403067 0
0.013340324 -0.025386188 -0.0044455482 0
0.013933549 -0.025462089 -0.0015395994 0
0.013931045 -0.025805747 0.0015629289 0
0.013331922 -0.025365943 0.0044770245 0
0.012432767 -0.025349202 0.0065595387 0
-0.012359959 -0.022548102 -0.0067079207 0
-0.013242209 -0.022521408 -0.0047041164 0
-0.013904894 -0.022657312 -0.0018046476 0
-0.013937876 -0.022583112 0.001499744 0
-0.013351944 -0.022257585 0.0044317227 0
-0.012348169 -0.022001032 0.0067547099 0
-0.0099811172 -0.02245361 -0.0099294903 0
-0.011442809 -0.022534134 -0.008098037 0
-0.01135977 -0.022809662 0.0082076583 0
-0.0098881703 -0.022697711 0.0099980822 0
-0.0065221763 -0.022666721 -0.012447387 0
-0.0081383791 -0.022250691 -0.011412183 0
-0.0082533639 -0.022574 0.011325117 0
-0.0066096047 -0.022157133 0.012411392 0
-0.0044031027 -0.022510087 -0.013362382 0
-0.0042912248 -0.022484075 0.013406469 0
-0.0015387102 -0.022387648 -0.013933572 0
-0.0013580265 -0.022520266 0.01395327 0
0.0015647591 -0.022546137 -0.013930756 0
0.0015125105 -0.022388346 0.013936568 0
0.0045564771 -0.022493115 -0.013303729 0
0.0045865187 -0.022156691 0.013293589 0
0.0068971077 -0.022654196 -0.012269891 0
0.0082565378 -0.022796305 -0.011322545 0
0.0084077157 -0.022588568 0.011208021 0
0.006666291 -0.022276511 0.012387801 0
0.0098458957 -0.02251775 -0.010018434 0
0.011297505 -0.022256413 -0.00828957 0
0.011435104 -0.022251064 0.0081083551 0
0.0099060414 -0.022301475 0.0099622067 0
0.012390884 -0.02273296 -0.0066535566 0
0.013322663 -0.022561276 -0.0044905236 0
