# .PCD v0.7 - Point Cloud Data file format
VERSION 0.7
FIELDS x y z rgb
SIZE 4 4 4 4
TYPE F F F F
COUNT 1 1 1 1
WIDTH 1179
HEIGHT 1
VIEWPOINT 0 0 0 1 0 0 0
POINTS 1179
DATA ascii
-0.0099999961 -0.14573219 -0.0013022383 0
-0.010000006 -0.14520012 0.00144357 0
-0.010000015 -0.14518961 0.0042113252 0
-0.010000028 -0.1454788 0.0074597751 0
-0.0097054895 -0.14535613 0.0098359566 0
-0.0074871862 -0.14546734 -0.0099995025 0
-0.0075984676 -0.14555435 0.010000501 0
-0.0044512409 -0.14556369 -0.0099994875 0
-0.0043283757 -0.14522435 0.010000511 0
-0.0013960099 -0.1451588 -0.0099994801 0
-0.0017055263 -0.1452814 0.010000518 0
0.0016550105 -0.14526841 -0.0099994699 0
0.001606873 -0.14541511 0.010000532 0
0.0047753425 -0.14540692 -0.0099994568 0
0.0044511594 -0.14518136 0.010000541 0
0.0073412028 -0.14545682 -0.0099994456 0
0.007534619 -0.14541075 0.010000554 0
0.0097335232 -0.14577812 -0.0098389965 0
0.010000027 -0.14557829 -0.0075789629 0
0.010000017 -0.14526333 -0.0046858527 0
0.010000007 -0.14558747 -0.0017519973 0
0.0099999961 -0.14533743 0.0014421587 0
0.0099999849 -0.1454628 0.004695728 0
0.0099999737 -0.14565976 0.0074058468 0
0.0098175341 -0.14556797 0.0097974073 0
-0.0097017763 -0.14247517 -0.0097709009 0
-0.0099999737 -0.14227334 -0.007436167 0
-0.0099999858 -0.14238545 -0.0043902663 0
-0.0099999951 -0.14265588 -0.0012994972 0
-0.010000007 -0.14275207 0.0015383592 0
-0.010000017 -0.14257109 0.0047305357 0
-0.010000028 -0.14240499 0.0078373542 0
-0.0097979242 -0.14264555 0.0097726388 0
-0.0073346272 -0.14254525 -0.0099995127 0
-0.0076292343 -0.14253822 0.010000486 0
-0.0044085849 -0.14265966 -0.0099995006 0
-0.0044599702 -0.14270434 0.010000501 0
-0.0016973742 -0.14242387 -0.0099994922 0
-0.0017126412 -0.14250459 0.010000511 0
0.0018579632 -0.14278184 -0.0099994764 0
0.0018142271 -0.14259951 0.010000522 0
0.0044126818 -0.14234844 -0.0099994708 0
0.0044459719 -0.14246699 0.010000532 0
0.0077160764 -0.14249071 -0.0099994577 0
0.0076004285 -0.14257149 0.010000546 0
0.0095969448 -0.14275381 -0.0098571414 0
0.01000003 -0.142529 -0.0077331467 0
0.010000016 -0.1424372 -0.0043309117 0
0.010000006 -0.14262699 -0.0016564839 0
0.0099999961 -0.14247224 0.0014483 0
0.0099999839 -0.14250429 0.0043121777 0
0.0099999746 -0.14223096 0.0075745741 0
0.0097172726 -0.14263332 0.0097450307 0
-0.0097904336 -0.13957502 -0.0096890926 0
-0.0099999737 -0.13966356 -0.0076935198 0
-0.0099999839 -0.1393947 -0.0045918263 0
-0.0099999942 -0.13952403 -0.0012857004 0
-0.010000006 -0.13936467 0.0015344825 0
-0.010000017 -0.13942534 0.0044015492 0
-0.010000029 -0.13936071 0.0077062924 0
-0.0097777396 -0.13929355 0.0097364709 0
-0.0076773721 -0.13973266 -0.0099995201 0
-0.0076323594 -0.13932893 0.010000476 0
-0.0045491201 -0.1395826 -0.0099995127 0
-0.004776686 -0.13984738 0.010000491 0
-0.0017549123 -0.13931386 -0.0099995015 0
-0.0014948004 -0.1394489 0.0100005 0
0.0014631156 -0.13950321 -0.0099994913 0
0.0015382058 -0.13970664 0.010000511 0
0.0047178906 -0.13935091 -0.0099994792 0
0.0048097228 -0.13933662 0.010000523 0
0.0074886796 -0.13917142 -0.0099994708 0
0.0072704954 -0.13954638 0.010000531 0
0.0097384797 -0.13968199 -0.0097652161 0
0.010000027 -0.13981515 -0.0072539523 0
0.010000015 -0.13965413 -0.004396487 0
0.010000006 -0.13906883 -0.0016443158 0
0.0099999933 -0.13905871 0.0017202246 0
0.0099999849 -0.13962261 0.0045279968 0
0.0099999728 -0.13942133 0.0076460713 0
0.0098111359 -0.13970347 0.0097253555 0
-0.0098205097 -0.13642837 -0.0095977848 0
-0.0099999728 -0.13658231 -0.007680336 0
-0.0099999849 -0.13634007 -0.0044872984 0
-0.0099999961 -0.13625053 -0.0013091505 0
-0.010000006 -0.13669229 0.0013784912 0
-0.010000018 -0.13665563 0.0050205835 0
-0.010000028 -0.13633789 0.0073537766 0
-0.0097921137 -0.13690373 0.0097112171 0
-0.0077161491 -0.13628042 -0.009999536 0
-0.0073777013 -0.1363427 0.010000467 0
-0.004191522 -0.13679336 -0.0099995201 0
-0.0047396058 -0.13661572 0.010000479 0
-0.0016551742 -0.1366069 -0.0099995118 0
-0.0012358972 -0.13647595 0.01000049 0
0.001286459 -0.13616343 -0.0099995043 0
0.0015682995 -0.13671924 0.010000501 0
0.0044536269 -0.13677451 -0.0099994894 0
0.0043231444 -0.13643147 0.01000051 0
0.0072774002 -0.13650782 -0.0099994801 0
0.0076954006 -0.13626055 0.010000522 0
0.0097330054 -0.13671322 -0.0098084835 0
0.010000028 -0.13660613 -0.0076674591 0
0.010000018 -0.13653687 -0.004527763 0
0.010000006 -0.13665494 -0.0016484535 0
0.0099999951 -0.13651131 0.0017028911 0
0.0099999858 -0.13636608 0.0044992426 0
0.0099999728 -0.1367045 0.0076350975 0
0.0097062262 -0.13644847 0.0097754635 0
-0.0097402586 -0.13359532 -0.0098155672 0
-0.0099999737 -0.13359815 -0.0075519811 0
-0.0099999839 -0.1337585 -0.0045779962 0
-0.0099999951 -0.13352135 -0.0014322997 0
-0.010000006 -0.13349417 0.0016684122 0
-0.010000017 -0.13347775 0.0044450923 0
-0.010000028 -0.13360247 0.0075250557 0
-0.0097658243 -0.13345605 0.0097405221 0
-0.0078020892 -0.133733 -0.0099995434 0
-0.0075933663 -0.13329709 0.010000455 0
-0.0043210853 -0.13341589 -0.0099995323 0
-0.0045269271 -0.13370052 0.010000469 0
-0.0015186933 -0.13352966 -0.0099995229 0
-0.0012139021 -0.13328604 0.010000478 0
0.0012408847 -0.13340375 -0.0099995108 0
0.0015165299 -0.1335132 0.010000487 0
0.0046863384 -0.13331753 -0.0099995015 0
0.0045464085 -0.13305214 0.0100005 0
0.0075245923 -0.13370572 -0.0099994866 0
0.0075763143 -0.13371436 0.010000509 0
0.0098539861 -0.13307805 -0.0097632436 0
0.010000027 -0.13350862 -0.0069625448 0
0.010000017 -0.13366215 -0.0044122878 0
0.010000004 -0.13328904 -0.0014077529 0
0.0099999951 -0.133463 0.0011254549 0
0.009999983 -0.13316473 0.0043718242 0
0.0099999737 -0.13354632 0.0074881897 0
0.0098403972 -0.13394316 0.0095676361 0
-0.0096379984 -0.13085523 -0.0097246468 0
-0.0099999737 -0.13032502 -0.0077359341 0
-0.0099999839 -0.13055387 -0.0046895253 0
-0.0099999951 -0.1305739 -0.0015552624 0
-0.010000007 -0.13022524 0.0014618668 0
-0.010000017 -0.13053896 0.0044546518 0
-0.010000027 -0.1304781 0.0073217358 0
-0.0098569123 -0.13068759 0.0096612778 0
-0.0074733859 -0.13055947 -0.0099995546 0
-0.0072318646 -0.13077827 0.010000447 0
-0.0045403717 -0.13057612 -0.0099995444 0
-0.0041535199 -0.13085645 0.010000458 0
-0.0015193085 -0.13052754 -0.009999535 0
-0.001467813 -0.13068445 0.010000466 0
0.0013583847 -0.13018204 -0.0099995248 0
0.0015505952 -0.1306401 0.010000478 0
0.0044455235 -0.13045621 -0.0099995136 0
0.0042916397 -0.13051213 0.010000489 0
0.007805068 -0.13016741 -0.0099995025 0
0.0074707717 -0.13033895 0.0100005 0
0.0098283552 -0.1304853 -0.0097136842 0
0.010000028 -0.13045476 -0.0078044347 0
0.010000017 -0.13026655 -0.0046912734 0
0.010000005 -0.13068424 -0.0012872347 0
0.0099999942 -0.13029385 0.0013794155 0
0.0099999858 -0.13020229 0.004490104 0
0.0099999728 -0.13068469 0.0075488035 0
0.0097671431 -0.13087845 0.0097765243 0
-0.0096955802 -0.12759629 -0.0097170379 0
-0.0099999728 -0.12751958 -0.007775208 0
-0.0099999849 -0.1274716 -0.0047031753 0
-0.0099999961 -0.12764461 -0.0012784454 0
-0.010000006 -0.12729011 0.0015788716 0
-0.010000018 -0.12744322 0.004645539 0
-0.010000028 -0.12770781 0.0074016987 0
-0.0099119116 -0.12749587 0.0094803981 0
-0.0077818609 -0.12753624 -0.0099995639 0
-0.0077277664 -0.12761408 0.010000435 0
-0.0045066108 -0.12750117 -0.0099995565 0
-0.00463391 -0.12756357 0.010000446 0
-0.0018160481 -0.12746771 -0.0099995472 0
-0.001722087 -0.12778583 0.010000458 0
0.0013479512 -0.12778364 -0.0099995341 0
0.0012772123 -0.12754549 0.010000467 0
0.0045075794 -0.12752311 -0.009999522 0
0.0042231237 -0.1277227 0.010000477 0
0.007429468 -0.12737411 -0.0099995127 0
0.0075469334 -0.12749551 0.01000049 0
0.009754518 -0.12776326 -0.0097253481 0
0.010000026 -0.12749283 -0.0073771686 0
0.010000017 -0.12752895 -0.0043620989 0
0.010000005 -0.1272912 -0.0014141478 0
0.0099999951 -0.12747093 0.0016336037 0
0.0099999821 -0.12760304 0.0043913033 0
0.0099999737 -0.12734655 0.0073613753 0
0.009742097 -0.12740661 0.0097428076 0
-0.0098076686 -0.12428822 -0.0096911015 0
-0.0099999709 -0.12473676 -0.0076038498 0
-0.0099999849 -0.12462734 -0.0044368189 0
-0.0099999951 -0.1243558 -0.001355848 0
-0.010000006 -0.12438918 0.0014623828 0
-0.010000017 -0.12432812 0.0046177106 0
-0.010000026 -0.12443134 0.0074052252 0
-0.0097122695 -0.1249343 0.0098628271 0
-0.0075224941 -0.12427904 -0.0099995788 0
-0.0074476968 -0.12425217 0.010000424 0
-0.0044592316 -0.12446587 -0.0099995648 0
-0.0043527959 -0.12458101 0.010000437 0
-0.0017165033 -0.12442648 -0.0099995546 0
-0.0015345698 -0.12454514 0.010000446 0
0.0016128921 -0.12470686 -0.0099995434 0
0.0015141713 -0.1246849 0.010000457 0
0.0043728668 -0.1246057 -0.0099995341 0
0.004303216 -0.12449063 0.010000468 0
0.0075155967 -0.12444925 -0.0099995211 0
0.0075161178 -0.1246497 0.010000479 0
0.0097279307 -0.12450042 -0.009823883 0
0.010000027 -0.12448964 -0.0076457444 0
0.010000017 -0.12446228 -0.0045055822 0
0.010000005 -0.12450819 -0.0013157114 0
0.0099999951 -0.12429598 0.0015128731 0
0.0099999858 -0.12455144 0.0043416186 0
0.0099999756 -0.12437542 0.0071737072 0
0.0097885113 -0.12453211 0.009580723 0
-0.0095883822 -0.12153121 -0.0098355589 0
-0.00999997 -0.12154888 -0.0077151423 0
-0.0099999849 -0.12138435 -0.0047514657 0
-0.0099999951 -0.12191503 -0.0012888366 0
-0.010000006 -0.12132216 0.001543371 0
-0.010000017 -0.12189744 0.0044803857 0
-0.010000029 -0.12144475 0.0075532221 0
-0.0097385282 -0.12154714 0.0098238168 0
-0.00756791 -0.1212521 -0.0099995891 0
-0.0074113579 -0.12136334 0.010000411 0
-0.0045602159 -0.12150022 -0.0099995798 0
-0.0045602201 -0.12155721 0.010000424 0
-0.0014023898 -0.1213741 -0.0099995667 0
-0.0015842736 -0.1216334 0.010000435 0
0.0018222759 -0.1216094 -0.0099995518 0
0.0016091375 -0.12199442 0.010000446 0
0.0047148811 -0.12156434 -0.0099995425 0
0.0047992188 -0.12145569 0.010000459 0
0.0071237138 -0.12110054 -0.009999536 0
0.0077519049 -0.12120526 0.010000466 0
0.0097429361 -0.12116161 -0.0097142067 0
0.010000028 -0.12193628 -0.0076559852 0
0.010000017 -0.12160747 -0.0045339679 0
0.010000008 -0.12154987 -0.0016961895 0
0.0099999951 -0.1213567 0.0015432002 0
0.0099999849 -0.12117197 0.0046177921 0
0.0099999737 -0.12147135 0.0075432076 0
0.0096297292 -0.12125272 0.0098446682 0
-0.0097041773 -0.11873992 -0.0098969005 0
-0.0099999728 -0.11860574 -0.0076284525 0
-0.0099999849 -0.11851399 -0.0045475531 0
-0.0099999961 -0.11897521 -0.0011739666 0
-0.010000003 -0.11852209 0.0015790992 0
-0.010000017 -0.1183933 0.004467315 0
-0.010000029 -0.11835413 0.0077488418 0
-0.0095597124 -0.11860554 0.0098438626 0
-0.0076563177 -0.11836567 -0.0099996002 0
-0.0073243156 -0.11839973 0.010000402 0
-0.0044289967 -0.11853143 -0.0099995881 0
-0.0043766242 -0.11844333 0.010000414 0
-0.0012736754 -0.11842049 -0.009999577 0
-0.0012928506 -0.11850674 0.010000425 0
0.0017944181 -0.11856402 -0.0099995639 0
0.0017625763 -0.1184926 0.010000437 0
0.0044839564 -0.11855148 -0.0099995565 0
0.0046135085 -0.1188756 0.010000449 0
0.0075808745 -0.11861318 -0.0099995453 0
0.0076014209 -0.11862703 0.010000458 0
0.0096259015 -0.11831605 -0.0098720649 0
0.010000031 -0.1187356 -0.0078848023 0
0.010000013 -0.11846357 -0.0041716727 0
0.010000007 -0.11843533 -0.0017772818 0
0.0099999942 -0.11859802 0.0014655113 0
0.0099999858 -0.11857791 0.004292313 0
0.0099999718 -0.11848561 0.0077455961 0
0.0098821716 -0.11884195 0.0097372737 0
-0.0098394472 -0.11574636 -0.0096724508 0
-0.0099999746 -0.115591 -0.0073941206 0
-0.0099999849 -0.11531904 -0.0043251486 0
-0.0099999942 -0.11562908 -0.0013092394 0
-0.010000008 -0.11544441 0.0018216847 0
-0.010000017 -0.11529368 0.0046934336 0
-0.010000027 -0.11559 0.0075727515 0
-0.0098404679 -0.11576739 0.0096235927 0
-0.0075943321 -0.11570448 -0.0099996096 0
-0.007713032 -0.11553393 0.010000389 0
-0.0046823998 -0.11524752 -0.0099996002 0
-0.004375224 -0.11569649 0.010000404 0
-0.0017030175 -0.11552878 -0.0099995891 0
-0.0013761909 -0.11554706 0.010000413 0
0.0013857225 -0.11548173 -0.0099995779 0
0.0015069961 -0.11545642 0.010000424 0
0.0046161339 -0.11513739 -0.0099995667 0
0.0044722175 -0.11536806 0.010000433 0
0.007261443 -0.11541495 -0.0099995565 0
0.0075388076 -0.11575351 0.010000447 0
0.0096910894 -0.11517949 -0.0098651927 0
0.010000029 -0.11512991 -0.0074381428 0
0.010000017 -0.11543255 -0.0043243235 0
0.010000007 -0.11555186 -0.0014314441 0
0.009999997 -0.11520268 0.0014021107 0
0.0099999839 -0.11549959 0.0045377538 0
0.0099999746 -0.11571238 0.0075248773 0
0.0096718892 -0.11540201 0.0097861988 0
-0.0098580532 -0.11236311 -0.009593389 0
-0.0099999737 -0.11281179 -0.007597012 0
-0.0099999849 -0.11257281 -0.0044016885 0
-0.009999997 -0.11268317 -0.0011559302 0
-0.010000007 -0.11257035 0.001444057 0
-0.010000017 -0.1125877 0.0047415015 0
-0.010000029 -0.11249575 0.0075263768 0
-0.0098290192 -0.11224911 0.0097533129 0
-0.0077215647 -0.11234875 -0.0099996226 0
-0.0075913062 -0.11280882 0.010000381 0
-0.0042764023 -0.11241013 -0.0099996086 0
-0.0047908612 -0.1123005 0.010000391 0
-0.0013893306 -0.11268985 -0.0099995965 0
-0.0015650528 -0.11279017 0.010000403 0
0.0014217626 -0.11241338 -0.0099995891 0
0.0016331658 -0.11231639 0.010000413 0
0.0047625275 -0.11256222 -0.009999576 0
0.0043791812 -0.11230642 0.010000424 0
0.0073732715 -0.11228157 -0.0099995686 0
0.0079257758 -0.11256329 0.010000438 0
0.009797099 -0.11301168 -0.0097294562 0
0.010000029 -0.11272269 -0.0075158626 0
0.010000017 -0.11259993 -0.0044190241 0
0.010000006 -0.11199857 -0.0015295127 0
0.0099999951 -0.11271212 0.0016656611 0
0.0099999849 -0.11241349 0.0043109064 0
0.0099999737 -0.11272376 0.0073653613 0
0.0098253544 -0.11229571 0.009718921 0
-0.009592534 -0.10923275 -0.0099467663 0
-0.0099999746 -0.10921692 -0.007515281 0
-0.0099999849 -0.10929743 -0.004860796 0
-0.0099999951 -0.10971573 -0.0014682439 0
-0.010000006 -0.10920482 0.001465179 0
-0.010000017 -0.10930998 0.0046302923 0
-0.010000029 -0.10939584 0.0076825181 0
-0.0098172994 -0.1092544 0.009686945 0
-0.0075655514 -0.10928557 -0.009999631 0
-0.0076370258 -0.1093378 0.01000037 0
-0.0045338129 -0.10933531 -0.0099996217 0
-0.0041896561 -0.10951759 0.010000382 0
-0.0015222849 -0.10954136 -0.0099996105 0
-0.0012342783 -0.10916522 0.010000392 0
0.0012982115 -0.10965101 -0.0099995974 0
0.0018314942 -0.10940788 0.010000404 0
0.0044415663 -0.10957812 -0.0099995881 0
0.0048840661 -0.10953996 0.010000415 0
0.0078177247 -0.10941727 -0.009999577 0
0.0076490673 -0.10939537 0.010000425 0
0.0096557355 -0.10906884 -0.009776759 0
0.010000029 -0.1093691 -0.0077528646 0
0.010000017 -0.10945926 -0.0047291149 0
0.010000006 -0.10950302 -0.0015583158 0
0.0099999942 -0.1093574 0.0014793328 0
0.0099999867 -0.10948569 0.0042425636 0
0.0099999756 -0.10939486 0.0073596258 0
0.0097567886 -0.10962177 0.0097123059 0
-0.0098695634 -0.10654474 -0.0096350163 0
-0.0099999718 -0.10659962 -0.0076988912 0
-0.0099999839 -0.106488 -0.0045320182 0
-0.0099999923 -0.10649925 -0.001693682 0
-0.010000004 -0.10624092 0.0014109865 0
-0.010000017 -0.10637242 0.0043786555 0
-0.010000028 -0.10663398 0.0074829389 0
-0.0096676955 -0.10675009 0.0097280284 0
-0.0075696367 -0.10657941 -0.0099996421 0
-0.0077399225 -0.1067033 0.01000036 0
-0.0045910459 -0.106363 -0.0099996328 0
-0.0042647175 -0.10665158 0.010000372 0
-0.0013178919 -0.10632791 -0.0099996207 0
-0.001562202 -0.10614812 0.010000379 0
0.001626852 -0.10647759 -0.0099996096 0
0.0012700775 -0.1065536 0.010000391 0
0.0043651573 -0.10633596 -0.0099996002 0
0.0045676688 -0.10674142 0.010000404 0
0.0072959126 -0.1065018 -0.00999959 0
0.0071722819 -0.10661779 0.010000413 0
0.0097688213 -0.10663256 -0.009723749 0
0.010000027 -0.10643481 -0.0074116602 0
0.010000017 -0.10635492 -0.0045951759 0
0.010000007 -0.10650763 -0.0016970029 0
0.0099999951 -0.10632482 0.0016640879 0
0.0099999849 -0.10671937 0.0044695297 0
0.0099999737 -0.10673707 0.0074763088 0
0.0097129988 -0.10637978 0.0098222867 0
-0.0096739195 -0.10355642 -0.0097677503 0
-0.0099999737 -0.10324966 -0.007668606 0
-0.0099999849 -0.10322148 -0.0042961938 0
-0.0099999961 -0.10344037 -0.0012549432 0
-0.010000006 -0.10340855 0.0015173624 0
-0.010000017 -0.10364512 0.0044658999 0
-0.010000026 -0.10351177 0.0072800247 0
-0.0096685421 -0.10342262 0.009716575 0
-0.007405472 -0.1033068 -0.0099996543 0
-0.0073691001 -0.10351051 0.010000347 0
-0.0042165699 -0.10340194 -0.0099996403 0
-0.0043841396 -0.10344683 0.01000036 0
-0.0013411627 -0.10362317 -0.009999631 0
-0.0015873882 -0.10357612 0.010000371 0
0.00096940069 -0.1033184 -0.0099996217 0
0.0014976676 -0.10373073 0.01000038 0
0.0046194093 -0.10344782 -0.0099996105 0
0.0043824445 -0.10348299 0.010000392 0
0.0077713816 -0.10343692 -0.0099995984 0
0.0075904005 -0.10348437 0.010000403 0
0.0097738076 -0.10349858 -0.0098808799 0
0.010000027 -0.10354517 -0.0074835313 0
0.010000016 -0.10346531 -0.0043043946 0
0.010000004 -0.10363789 -0.0011303875 0
0.0099999951 -0.10366704 0.0013688079 0
0.0099999812 -0.10326467 0.004809205 0
0.0099999737 -0.1037314 0.0075262366 0
0.0096612619 -0.10350087 0.0098171905 0
-0.0097131981 -0.10027215 -0.0098916702 0
-0.0099999737 -0.10038099 -0.0075526591 0
-0.0099999839 -0.10031761 -0.004388025 0
-0.0099999933 -0.1004125 -0.0015612819 0
-0.010000004 -0.1004393 0.0014904803 0
-0.010000016 -0.10042071 0.004364165 0
-0.010000028 -0.10035907 0.0073657618 0
-0.0097612338 -0.10053452 0.009614042 0
-0.0075005786 -0.10059175 -0.0099996626 0
-0.0074298903 -0.10056877 0.010000339 0
-0.004650163 -0.1001596 -0.0099996552 0
-0.0042823441 -0.10026158 0.010000349 0
-0.0016544211 -0.10007472 -0.0099996449 0
-0.0015213663 -0.10030019 0.010000356 0
0.00099615066 -0.10072938 -0.0099996319 0
0.0016392362 -0.10006553 0.01000037 0
0.0043593287 -0.10047518 -0.0099996207 0
0.0043856171 -0.10098897 0.010000383 0
0.0075101028 -0.10059787 -0.0099996096 0
0.0075107133 -0.10032864 0.010000391 0
0.009737161 -0.10031509 -0.0097717484 0
0.01000003 -0.10079431 -0.0076203686 0
0.010000017 -0.10048897 -0.0048254873 0
0.010000007 -0.10035305 -0.0018236073 0
0.0099999961 -0.10047211 0.0013820503 0
0.009999983 -0.10048821 0.0046029617 0
0.0099999737 -0.10018824 0.0077169053 0
0.0098260436 -0.10035186 0.0096760727 0
-0.0097219124 -0.097803392 -0.0097559327 0
-0.0099999728 -0.097655527 -0.0075996164 0
-0.009999983 -0.097442344 -0.0046241144 0
-0.0099999951 -0.097339071 -0.0014409175 0
-0.010000007 -0.09768378 0.0017110569 0
-0.010000017 -0.097645439 0.004515911 0
-0.010000029 -0.09736453 0.0074503054 0
-0.0098271323 -0.097260334 0.0097597819 0
-0.0074915015 -0.097433217 -0.0099996747 0
-0.0076942625 -0.097609915 0.010000325 0
-0.0047914819 -0.097658701 -0.0099996645 0
-0.004348529 -0.097712383 0.010000338 0
-0.0017366579 -0.097742222 -0.0099996533 0
-0.0017031154 -0.09748362 0.010000347 0
0.0016336546 -0.097385414 -0.0099996431 0
0.0012385957 -0.097468831 0.010000358 0
0.0045874272 -0.09738446 -0.0099996291 0
0.004706007 -0.097516075 0.01000037 0
0.0073959818 -0.097607464 -0.0099996217 0
0.0075955377 -0.097504221 0.010000382 0
0.0097182132 -0.097809069 -0.0097977519 0
0.010000029 -0.09753605 -0.0074711028 0
0.010000016 -0.09744063 -0.0046129669 0
0.010000006 -0.097631678 -0.0015208621 0
0.0099999942 -0.097301349 0.0017476318 0
0.0099999839 -0.097470321 0.0045506437 0
0.0099999737 -0.097792588 0.0074618794 0
0.0096199866 -0.097310208 0.0097836051 0
-0.0096658077 -0.094435215 -0.0097295344 0
-0.0099999756 -0.094815791 -0.0073797428 0
-0.009999983 -0.094242528 -0.0048557296 0
-0.009999997 -0.095014885 -0.0010932832 0
-0.010000004 -0.094542064 0.0016446125 0
-0.010000015 -0.094790287 0.0041637174 0
-0.010000027 -0.094200768 0.0073872781 0
-0.0098476196 -0.094654091 0.0096477875 0
-0.0071305744 -0.09465155 -0.0099996841 0
-0.0073048291 -0.094200857 0.010000315 0
-0.0045051593 -0.094484337 -0.0099996757 0
-0.0047797398 -0.094486482 0.010000323 0
-0.0014128704 -0.094553426 -0.0099996626 0
-0.0014708148 -0.094686881 0.010000338 0
0.0016814474 -0.094576582 -0.0099996515 0
0.0018085582 -0.094328396 0.01000035 0
0.0045322268 -0.094396047 -0.0099996421 0
0.0045752209 -0.094553493 0.01000036 0
0.0069489353 -0.094500311 -0.0099996338 0
0.0075658164 -0.094485782 0.01000037 0
0.009748105 -0.094485171 -0.0097424602 0
0.01000003 -0.094437666 -0.0077092322 0
0.010000016 -0.094341829 -0.0042115729 0
0.010000004 -0.094491079 -0.0012312187 0
0.009999997 -0.094649874 0.0013102023 0
0.0099999849 -0.094768643 0.0045913425 0
0.0099999746 -0.094228767 0.0075007458 0
0.0097244633 -0.094686203 0.0098446859 0
-0.0096225599 -0.091543384 -0.0098882085 0
-0.0099999737 -0.091352664 -0.0073833922 0
-0.009999983 -0.091572367 -0.0047818194 0
-0.0099999942 -0.091490574 -0.0013933157 0
-0.010000005 -0.091432348 0.0013545712 0
-0.010000018 -0.09166503 0.0045975274 0
-0.010000029 -0.091766931 0.0074355113 0
-0.0097447606 -0.091433726 0.0097135119 0
-0.0073145176 -0.091548018 -0.0099996934 0
-0.0075146081 -0.091308936 0.010000304 0
-0.0043856902 -0.091529049 -0.009999685 0
-0.0040228125 -0.091637202 0.010000318 0
-0.0015093703 -0.091406189 -0.0099996766 0
-0.0016071633 -0.091622405 0.010000327 0
0.0015874869 -0.091761678 -0.0099996636 0
0.0013317484 -0.091592968 0.010000336 0
0.0042173266 -0.091538996 -0.0099996543 0
0.0045310482 -0.091296211 0.010000347 0
0.0073137386 -0.091002278 -0.0099996459 0
0.0076783714 -0.091402642 0.01000036 0
0.0096691726 -0.091261767 -0.0098259952 0
0.010000029 -0.091610752 -0.0076277284 0
0.010000017 -0.091367774 -0.004627679 0
0.010000007 -0.091163322 -0.0016290455 0
0.0099999961 -0.091485053 0.0012896894 0
0.0099999839 -0.091709666 0.0046498422 0
0.0099999728 -0.091607697 0.0076392917 0
0.0097997161 -0.091426231 0.0097459219 0
-0.0097582592 -0.0885785 -0.0098477034 0
-0.0099999728 -0.088390097 -0.0076489542 0
-0.0099999849 -0.088555023 -0.0046668863 0
-0.0099999914 -0.088459171 -0.0017290987 0
-0.010000004 -0.088394865 0.0013766522 0
-0.010000014 -0.088606536 0.0043698023 0
-0.010000029 -0.08862707 0.007489515 0
-0.0097732581 -0.088524528 0.0097164717 0
-0.0075737997 -0.088339448 -0.0099997083 0
-0.0072559677 -0.088689081 0.010000294 0
-0.0047176466 -0.088523269 -0.0099996971 0
-0.0047163554 -0.088876195 0.010000306 0
-0.0014761166 -0.08849629 -0.0099996859 0
-0.0013832896 -0.088676728 0.010000317 0
0.0015824585 -0.088135123 -0.0099996757 0
0.0015570261 -0.089024298 0.010000329 0
0.004464427 -0.088434659 -0.0099996626 0
0.0045140777 -0.088424027 0.010000337 0
0.0072502387 -0.088494778 -0.0099996533 0
0.0077614821 -0.088530593 0.01000035 0
0.0096987439 -0.088393688 -0.0098101506 0
0.010000029 -0.088673487 -0.0076526394 0
0.010000015 -0.088581882 -0.0044335793 0
0.010000004 -0.088678852 -0.0015169325 0
0.0099999942 -0.088546082 0.0017951234 0
0.0099999858 -0.088579178 0.0041170209 0
0.0099999737 -0.088466853 0.0074242451 0
0.0097704977 -0.088559709 0.009691624 0
-0.0096951835 -0.085864484 -0.0097364653 0
-0.0099999756 -0.085202888 -0.0072137159 0
-0.0099999839 -0.085484423 -0.0044764434 0
-0.0099999951 -0.085597239 -0.0016662845 0
-0.010000005 -0.085492767 0.00138308 0
-0.010000017 -0.085569337 0.0047322111 0
-0.010000027 -0.085543185 0.0073687378 0
-0.0096475044 -0.085319348 0.0097796889 0
-0.0076684877 -0.085228272 -0.0099997204 0
-0.0075799446 -0.085449629 0.010000283 0
-0.0046392502 -0.08564008 -0.0099997073 0
-0.0042727874 -0.0855693 0.010000295 0
-0.0018260373 -0.085518219 -0.009999699 0
-0.0014638046 -0.085550494 0.010000306 0
0.0016568182 -0.0856646 -0.009999685 0
0.0017073436 -0.085750423 0.010000316 0
0.0044574277 -0.085448667 -0.0099996747 0
0.0045122034 -0.085619919 0.010000329 0
0.0073602172 -0.085724823 -0.0099996645 0
0.0077458215 -0.085574664 0.010000337 0
0.0097666038 -0.085424311 -0.0096142972 0
0.010000027 -0.085391566 -0.0073350193 0
0.010000017 -0.085387431 -0.0045695161 0
0.010000006 -0.085739367 -0.0015835272 0
0.0099999942 -0.085560977 0.0014978654 0
0.0099999839 -0.085433722 0.0047707963 0
0.0099999746 -0.085474402 0.0073174722 0
0.0097948043 -0.085569724 0.0096725011 0
-0.0097220745 -0.082325846 -0.0097990707 0
-0.0099999746 -0.0825409 -0.0073045753 0
-0.0099999858 -0.082137473 -0.0041517871 0
-0.0099999923 -0.082298838 -0.0017629986 0
-0.010000006 -0.082636647 0.0014476129 0
-0.010000017 -0.082427189 0.0043601622 0
-0.01000003 -0.082607202 0.007682581 0
-0.0097853616 -0.082711555 0.0097333826 0
-0.0074442732 -0.082369991 -0.0099997306 0
-0.0075863227 -0.082439035 0.010000272 0
-0.0044310438 -0.082455441 -0.0099997194 0
-0.0044623963 -0.082343444 0.010000282 0
-0.0014245043 -0.081967302 -0.0099997092 0
-0.0013715945 -0.082237691 0.010000292 0
0.0016055042 -0.082432404 -0.0099996943 0
0.0013795201 -0.082380563 0.010000302 0
0.0044636317 -0.082659639 -0.009999685 0
0.0044877124 -0.082681917 0.010000315 0
0.0074872333 -0.0823837 -0.0099996738 0
0.0076131932 -0.082329415 0.010000327 0
0.0097993538 -0.082156762 -0.0098081836 0
0.010000026 -0.082422256 -0.0072769257 0
0.010000017 -0.082567386 -0.0045880796 0
0.010000005 -0.082425788 -0.0016703192 0
0.0099999942 -0.082469486 0.0014851586 0
0.0099999858 -0.082637347 0.0044324794 0
0.0099999746 -0.082565583 0.0073192059 0
0.0097785024 -0.082629144 0.0098052118 0
-0.0095956307 -0.07941705 -0.009855384 0
-0.0099999746 -0.07937859 -0.0072950646 0
-0.0099999839 -0.07967265 -0.0042793257 0
-0.0099999951 -0.07949923 -0.0013309405 0
-0.010000008 -0.079711936 0.0017796656 0
-0.010000017 -0.079415143 0.0044530691 0
-0.010000028 -0.079512939 0.0072818869 0
-0.0098262271 -0.079556696 0.0096735926 0
-0.0075183474 -0.080158941 -0.0099997381 0
-0.00750728 -0.079599224 0.010000261 0
-0.0043697944 -0.079393446 -0.0099997278 0
-0.0048436145 -0.079433016 0.010000269 0
-0.001747758 -0.07977365 -0.0099997194 0
-0.0014814418 -0.079544641 0.010000283 0
0.0016670701 -0.079458274 -0.0099997073 0
0.0015080398 -0.07939522 0.010000295 0
0.0047096997 -0.079462625 -0.0099996943 0
0.0049455753 -0.079511166 0.010000305 0
0.0074431524 -0.079182677 -0.0099996878 0
0.0074790446 -0.07943365 0.010000316 0
0.0094857104 -0.079436064 -0.0099244369 0
0.010000029 -0.079681367 -0.00748363 0
0.010000017 -0.079235889 -0.0043235919 0
0.010000004 -0.079731964 -0.0013689422 0
0.0099999933 -0.079296924 0.0017280239 0
0.0099999858 -0.079624489 0.0041992976 0
0.0099999718 -0.079543456 0.0075251036 0
0.0096886698 -0.079560265 0.0097533455 0
-0.0098336954 -0.075913936 -0.0097631076 0
-0.0099999718 -0.076296233 -0.007343763 0
-0.0099999858 -0.076665729 -0.0043994533 0
-0.0099999933 -0.076417871 -0.0012955474 0
-0.010000007 -0.07646355 0.0017191512 0
-0.010000018 -0.076372087 0.0046434212 0
-0.010000027 -0.076459736 0.0076125585 0
-0.009625461 -0.076634444 0.0097856773 0
-0.0077245804 -0.076418176 -0.009999753 0
-0.0075641153 -0.076431625 0.01000025 0
-0.0043925727 -0.076446503 -0.0099997409 0
-0.0044275546 -0.076677263 0.010000262 0
-0.0015297218 -0.076657571 -0.0099997278 0
-0.0013843642 -0.076558828 0.010000274 0
0.0015108115 -0.076648392 -0.0099997185 0
0.0016501363 -0.076960981 0.010000285 0
0.0044869781 -0.076426893 -0.0099997083 0
0.0038784528 -0.076655373 0.010000292 0
0.0071196537 -0.076587267 -0.0099996971 0
0.007550335 -0.076478086 0.010000305 0
0.0097929602 -0.07647714 -0.0097384993 0
0.010000028 -0.076479763 -0.0072927703 0
0.010000017 -0.076547295 -0.0047415579 0
0.010000006 -0.076466762 -0.0015222563 0
0.0099999961 -0.076390184 0.0013436696 0
0.0099999821 -0.076283321 0.0046003484 0
0.0099999746 -0.076611973 0.0074146502 0
0.0096915159 -0.076471217 0.0098845446 0
-0.0097244298 -0.073396504 -0.0096515669 0
-0.0099999737 -0.073611856 -0.0074450099 0
-0.009999983 -0.073682167 -0.004269063 0
-0.009999997 -0.073117189 -0.00109652 0
-0.010000006 -0.074000165 0.0015505195 0
-0.010000016 -0.073607735 0.0044943099 0
-0.010000027 -0.073413394 0.007345573 0
-0.0097911544 -0.073806889 0.0097478591 0
-0.007804038 -0.07375709 -0.0099997623 0
-0.0075296704 -0.073689669 0.010000241 0
-0.0044920705 -0.0733172 -0.009999752 0
-0.0042856629 -0.073717177 0.010000253 0
-0.0015895228 -0.073499829 -0.0099997409 0
-0.0016302664 -0.073503725 0.01000026 0
0.0014706053 -0.07355763 -0.0099997269 0
0.0014927884 -0.073389269 0.010000273 0
0.0045380127 -0.073267676 -0.0099997176 0
0.0046370653 -0.07343293 0.010000283 0
0.0075270403 -0.073666096 -0.0099997083 0
0.0078602126 -0.07345181 0.010000297 0
0.0097037908 -0.073256508 -0.0098889405 0
0.01000003 -0.073509112 -0.0080490215 0
0.010000018 -0.074023426 -0.0045982059 0
0.010000005 -0.073548071 -0.0013401718 0
0.0099999951 -0.073495559 0.0012557774 0
0.0099999849 -0.073401503 0.0042237374 0
0.0099999737 -0.073219679 0.007471513 0
0.0098930253 -0.073398791 0.0096188383 0
-0.009837619 -0.070469312 -0.0097463941 0
-0.0099999728 -0.070574313 -0.0077915988 0
-0.0099999849 -0.070525415 -0.0044767121 0
-0.0099999951 -0.070562176 -0.0016480846 0
-0.010000006 -0.070583478 0.0016307905 0
-0.010000017 -0.070428826 0.0042070304 0
-0.010000028 -0.070539527 0.0075393328 0
-0.0097014336 -0.070414521 0.0097666224 0
-0.0074857771 -0.070526585 -0.0099997707 0
-0.0075593921 -0.070864029 0.010000229 0
-0.0044262777 -0.070588239 -0.0099997623 0
-0.0042841383 -0.070847303 0.010000242 0
-0.0015555681 -0.070473351 -0.0099997483 0
-0.0017151285 -0.070461504 0.010000249 0
0.001167067 -0.070624247 -0.0099997399 0
0.0014525304 -0.070669472 0.01000026 0
0.0043819482 -0.070515059 -0.0099997288 0
0.0047294786 -0.070659071 0.010000275 0
0.0072626579 -0.070459969 -0.0099997204 0
0.0073863859 -0.070570059 0.01000028 0
0.0097361328 -0.070501834 -0.0096586654 0
0.010000029 -0.070445105 -0.0075176205 0
0.010000016 -0.07062836 -0.0043965378 0
0.010000003 -0.07054057 -0.0016242821 0
0.0099999942 -0.070571519 0.0016759811 0
0.0099999849 -0.070337266 0.0047140811 0
0.0099999746 -0.070675977 0.0075699864 0
0.0097073186 -0.070589766 0.0096935201 0
-0.0098439623 -0.06736511 -0.0097005442 0
-0.0099999737 -0.067246251 -0.0073275003 0
-0.0099999821 -0.06758485 -0.0045862985 0
-0.0099999942 -0.067718081 -0.0015516074 0
-0.010000005 -0.067043535 0.0014257435 0
-0.010000014 -0.067758374 0.0043619233 0
-0.010000029 -0.067435436 0.0075964774 0
-0.0097779911 -0.0677673 0.0097111138 0
-0.0073097218 -0.06734398 -0.0099997828 0
-0.0073513258 -0.067444004 0.010000218 0
-0.0044764476 -0.067538954 -0.0099997716 0
-0.0046548313 -0.067610875 0.010000229 0
-0.0015484659 -0.067774765 -0.0099997623 0
-0.0014410244 -0.067795396 0.01000024 0
0.0017962334 -0.067472674 -0.0099997511 0
0.0010853456 -0.067367338 0.010000248 0
0.0044257008 -0.067635514 -0.0099997409 0
0.0045216316 -0.067479491 0.01000026 0
0.0076449658 -0.067438073 -0.0099997288 0
0.0075120833 -0.067290619 0.010000271 0
0.0098791774 -0.067422137 -0.0097388048 0
0.010000026 -0.067548759 -0.0072826375 0
0.010000018 -0.067443952 -0.0046570422 0
0.010000005 -0.067340784 -0.0013724278 0
0.0099999961 -0.067285754 0.001467818 0
0.0099999849 -0.067596182 0.004472984 0
0.0099999746 -0.067801848 0.0075014108 0
0.0096686343 -0.067710988 0.0098677026 0
-0.013598327 -0.063422054 -0.013749449 0
-0.013606356 -0.063470446 -0.010708516 0
-0.013397773 -0.063447878 -0.0074271956 0
-0.013603142 -0.063489415 -0.0047908924 0
-0.01369775 -0.063446224 -0.0017827606 0
-0.01375394 -0.063477948 0.0013388119 0
-0.013615103 -0.063488893 0.0044538579 0
-0.013787185 -0.063440725 0.0073211584 0
-0.013658122 -0.063453704 0.010347692 0
-0.01368281 -0.063455619 0.013248854 0
-0.010467238 -0.063474037 -0.013312093 0
-0.010140702 -0.063994296 -0.010134439 0
-0.010385232 -0.064014636 -0.0075821932 0
-0.010161254 -0.064315856 -0.0044687325 0
-0.010478731 -0.064087905 -0.0013101831 0
-0.010483781 -0.06419076 0.0019375155 0
-0.010619407 -0.064122058 0.0044341297 0
-0.010397458 -0.064124733 0.0076112868 0
-0.01050882 -0.063935094 0.010323204 0
-0.010521493 -0.063450135 0.013715928 0
-0.0073725069 -0.063470766 -0.013734459 0
-0.0074106404 -0.064236477 -0.010309361 0
-0.0075993543 -0.064343616 0.010440606 0
-0.0074654929 -0.063458443 0.013672915 0
-0.0045949128 -0.063413352 -0.013603333 0
-0.0046292283 -0.06423904 -0.010460749 0
-0.0043861065 -0.064374045 0.010430381 0
-0.0043949434 -0.063466921 0.013591428 0
-0.0013728838 -0.063464686 -0.013439433 0
-0.0012682298 -0.064168736 -0.010563807 0
-0.0019049352 -0.063967086 0.010676391 0
-0.001448538 -0.063497469 0.01329244 0
0.0012078921 -0.063454844 -0.013567379 0
0.0015519189 -0.064170443 -0.010384079 0
0.0015293533 -0.064333856 0.01034172 0
0.0013703259 -0.063479438 0.01419159 0
0.0046198447 -0.063478008 -0.013729032 0
0.0044638393 -0.064246595 -0.010292862 0
0.0045244042 -0.064244419 0.010412397 0
0.0047353185 -0.063446715 0.013833304 0
0.0078264559 -0.063444458 -0.013758405 0
0.0076173521 -0.064401023 -0.010327612 0
0.0073877643 -0.064213872 0.010424148 0
0.0075502479 -0.063461006 0.01359715 0
0.01064658 -0.063484907 -0.013577415 0
0.010314214 -0.063997142 -0.01019559 0
0.010373413 -0.064347915 -0.0075138137 0
0.010451402 -0.064213283 -0.0041739079 0
0.010421747 -0.064375393 -0.0013558295 0
0.010363661 -0.064175338 0.001470667 0
0.010329832 -0.064115629 0.0045459419 0
0.010461743 -0.064469792 0.0075417501 0
0.010334764 -0.063914143 0.010374634 0
0.010287869 -0.063472711 0.013301286 0
0.013520553 -0.063444771 -0.013608583 0
0.013613927 -0.063484386 -0.010532944 0
0.01343936 -0.063487619 -0.0075456807 0
0.013609624 -0.063470334 -0.0045404397 0
0.013374623 -0.063483916 -0.0016243083 0
0.01321332 -0.063488454 0.0014744197 0
0.013598208 -0.063456953 0.004490315 0
0.013497137 -0.063490205 0.0075400895 0
0.013638415 -0.063482516 0.010635464 0
0.013680995 -0.063356146 0.013659626 0
-0.014220638 -0.061402723 -0.014185187 0
-0.014899961 -0.061621193 -0.010587879 0
-0.014899972 -0.061679766 -0.0076301498 0
-0.014899986 -0.061581809 -0.0041212379 0
-0.014899995 -0.061357182 -0.001325828 0
-0.014900005 -0.06157406 0.001325401 0
-0.014900015 -0.061697584 0.0043941052 0
-0.014900029 -0.061768461 0.0076503474 0
-0.014900038 -0.061346713 0.010460321 0
-0.014037498 -0.06124229 0.01416749 0
-0.010474478 -0.06155175 -0.014899816 0
-0.010566103 -0.061916087 0.014900185 0
-0.0076957238 -0.061411195 -0.014899805 0
-0.0073856297 -0.06156078 0.014900196 0
-0.0045291656 -0.061415967 -0.014899794 0
-0.0043006232 -0.061721232 0.014900207 0
-0.0015987566 -0.061671626 -0.014899781 0
-0.0011878952 -0.06144945 0.014900218 0
0.0012657958 -0.061670627 -0.014899773 0
0.0017339272 -0.061544523 0.014900228 0
0.0039788019 -0.06147559 -0.014899763 0
0.0043693059 -0.061400723 0.014900237 0
0.0075120083 -0.061578892 -0.01489975 0
0.0074904417 -0.061476037 0.014900248 0
0.010594948 -0.061728418 -0.014899737 0
0.010594203 -0.061319351 0.014900261 0
0.014109025 -0.061405841 -0.014349438 0
0.014900037 -0.061377402 -0.010421508 0
0.014900028 -0.061507087 -0.0075800894 0
0.014900015 -0.06150024 -0.0044428143 0
0.014900004 -0.061395556 -0.0015999065 0
0.014899992 -0.061819725 0.0017396091 0
0.014899985 -0.061589021 0.0043119933 0
0.014899973 -0.061394811 0.0076981536 0
0.014899962 -0.061395228 0.010192419 0
0.013943982 -0.061571173 0.014308015 0
-0.01401144 -0.058634512 -0.014487922 0
-0.014899961 -0.058725923 -0.010482952 0
-0.014899976 -0.058178913 -0.0070129605 0
-0.014899982 -0.058758534 -0.0045433957 0
-0.014899994 -0.058566224 -0.0013928585 0
-0.014900006 -0.05826173 0.0016679867 0
-0.014900017 -0.058368426 0.0045260112 0
-0.014900028 -0.058503505 0.0073895412 0
-0.014900037 -0.058291439 0.01060747 0
-0.01432403 -0.058423921 0.014138255 0
-0.010639824 -0.058187611 -0.014899828 0
-0.010335086 -0.058578897 0.014900177 0
-0.0074624112 -0.058638643 -0.014899815 0
-0.007704291 -0.058541834 0.014900184 0
-0.0044928812 -0.058423638 -0.014899803 0
-0.0044299485 -0.058628075 0.014900196 0
-0.0014279105 -0.058647741 -0.014899793 0
-0.001270711 -0.058499597 0.014900208 0
0.0016198242 -0.05867105 -0.014899784 0
0.0013062377 -0.058529049 0.014900215 0
0.0042600287 -0.058182333 -0.014899773 0
0.0045833504 -0.058673285 0.014900228 0
0.0076838899 -0.0583231 -0.014899761 0
0.0076987799 -0.058549553 0.014900239 0
0.010383027 -0.058662485 -0.01489975 0
0.010094907 -0.058635414 0.014900249 0
0.014077919 -0.058423825 -0.014255217 0
0.014900037 -0.058451176 -0.010674275 0
0.014900027 -0.058416821 -0.0075991913 0
0.014900018 -0.058483332 -0.0047544208 0
0.014900006 -0.058733054 -0.001643538 0
0.014899994 -0.058591053 0.0017160242 0
0.014899982 -0.058482353 0.0046213591 0
0.014899973 -0.05862746 0.0072193267 0
0.01489996 -0.058507223 0.010738904 0
0.014378211 -0.058415305 0.014073624 0
-0.01412863 -0.055444814 -0.014155583 0
-0.014899964 -0.055372987 -0.010105772 0
-0.014899973 -0.055445664 -0.0075726858 0
-0.014899982 -0.055379987 -0.0046637841 0
-0.014899993 -0.055394255 -0.001543308 0
-0.014900004 -0.055749621 0.0014621329 0
-0.014900017 -0.055517286 0.0045936154 0
-0.014900025 -0.05553098 0.0072695883 0
-0.014900039 -0.055373684 0.010644193 0
-0.014248546 -0.055412456 0.013995046 0
-0.010489916 -0.055527631 -0.014899838 0
-0.010307847 -0.055295024 0.014900164 0
-0.0074757859 -0.055321414 -0.014899827 0
-0.0075821257 -0.055572756 0.014900173 0
-0.0044477652 -0.05559152 -0.014899814 0
-0.0046000355 -0.055405486 0.014900182 0
-0.0015694274 -0.055576634 -0.014899804 0
-0.001450498 -0.055548806 0.014900195 0
0.0013086315 -0.055458009 -0.014899793 0
0.0019273196 -0.055694662 0.014900208 0
0.0046591079 -0.055693179 -0.014899781 0
0.0045116218 -0.055430237 0.014900216 0
0.0076400051 -0.055353183 -0.014899772 0
0.0075394227 -0.055461783 0.014900227 0
0.010338469 -0.055357698 -0.014899761 0
0.01038258 -0.055326659 0.014900237 0
0.014283832 -0.055524752 -0.014092972 0
0.014900039 -0.055445697 -0.010833914 0
0.014900027 -0.055311617 -0.0074201934 0
0.014900015 -0.055591341 -0.0044372953 0
0.014900006 -0.055633355 -0.0017631671 0
0.014899993 -0.055378616 0.0015642301 0
0.014899983 -0.055056624 0.0043533118 0
0.014899972 -0.055566154 0.0075841891 0
0.014899962 -0.055610102 0.010367366 0
0.014161887 -0.055609591 0.014210022 0
-0.014332389 -0.052553721 -0.013980349 0
-0.01489996 -0.052720647 -0.010716899 0
-0.014899973 -0.052815873 -0.0073824986 0
-0.014899985 -0.052224431 -0.0041502048 0
-0.014899996 -0.052317783 -0.0013793388 0
-0.014900004 -0.052690681 0.0013153618 0
-0.014900017 -0.052439615 0.0043939687 0
-0.014900026 -0.05267565 0.0075150076 0
-0.014900038 -0.052467182 0.010627732 0
-0.014048045 -0.052542899 0.014363376 0
-0.01058507 -0.052171268 -0.01489985 0
-0.010663034 -0.052671645 0.014900153 0
-0.0073982091 -0.052180756 -0.014899839 0
-0.0077730641 -0.052335758 0.01490016 0
-0.0045727235 -0.052703243 -0.014899826 0
-0.004165337 -0.052385863 0.014900175 0
-0.0015656763 -0.052165315 -0.014899815 0
-0.0013208522 -0.052507121 0.014900184 0
0.0016816944 -0.052067135 -0.014899805 0
0.0011226697 -0.052578066 0.014900194 0
0.0046578436 -0.052368253 -0.014899794 0
0.004400962 -0.052839298 0.014900206 0
0.0074124145 -0.052380633 -0.014899782 0
0.0076150992 -0.052346319 0.014900216 0
0.010477298 -0.053043835 -0.014899771 0
0.010375195 -0.052362014 0.014900228 0
0.014196418 -0.052635211 -0.014138058 0
0.014900037 -0.052784067 -0.01056694 0
0.014900026 -0.052424841 -0.0074679176 0
0.014900016 -0.052457459 -0.0045704423 0
0.014900006 -0.05243136 -0.0015042033 0
0.014899995 -0.052491765 0.0014122626 0
0.014899983 -0.052749541 0.0045969482 0
0.014899975 -0.052290745 0.0073015881 0
0.014899964 -0.052531257 0.010404172 0
0.014212824 -0.052356649 0.014382608 0
-0.01415071 -0.049496002 -0.014362815 0
-0.014899962 -0.049209859 -0.010510596 0
-0.014899973 -0.049595956 -0.007647818 0
-0.014899983 -0.049703158 -0.0046274448 0
-0.014899993 -0.049594719 -0.0016689436 0
-0.014900006 -0.049642377 0.0019355775 0
-0.014900017 -0.049329337 0.0045049125 0
-0.014900028 -0.049521919 0.0073741288 0
-0.014900038 -0.049390305 0.010361268 0
-0.013954974 -0.049386453 0.014269004 0
-0.01038659 -0.049609438 -0.014899857 0
-0.010402699 -0.049440779 0.014900141 0
-0.0073880567 -0.049640875 -0.014899848 0
-0.0075742085 -0.049374565 0.014900151 0
-0.0045199348 -0.049682561 -0.014899836 0
-0.0045446302 -0.049660757 0.014900165 0
-0.0017416128 -0.049616024 -0.014899827 0
-0.001603135 -0.049778126 0.014900174 0
0.0018313485 -0.049227178 -0.014899815 0
0.0017755536 -0.049241547 0.014900184 0
0.0043054787 -0.049426105 -0.014899804 0
0.0039549624 -0.049680777 0.014900194 0
0.0076018879 -0.049590144 -0.014899793 0
0.0073243612 -0.049612664 0.014900206 0
0.010585895 -0.049338963 -0.014899783 0
0.010587376 -0.049461525 0.014900216 0
0.01429621 -0.049820747 -0.014087619 0
0.014900039 -0.049526546 -0.010654709 0
0.01490003 -0.049329489 -0.0073963185 0
0.014900017 -0.04953387 -0.0046750037 0
0.014900004 -0.049586564 -0.0015574549 0
0.014899995 -0.049426671 0.0015702671 0
0.014899984 -0.049880899 0.0041891648 0
0.014899973 -0.049143091 0.007609162 0
0.014899962 -0.049587503 0.010553747 0
0.014089345 -0.049540281 0.014142227 0
-0.014147294 -0.046446793 -0.014177886 0
-0.014899963 -0.046782259 -0.010281132 0
-0.014899974 -0.046165321 -0.007499869 0
-0.014899982 -0.046397872 -0.0045990534 0
-0.014899995 -0.04681018 -0.0014710149 0
-0.014900005 -0.046512395 0.0013294808 0
-0.014900015 -0.046689093 0.004288632 0
-0.014900026 -0.046417117 0.0075849164 0
-0.014900037 -0.046140689 0.010642864 0
-0.014129119 -0.046396159 0.014193376 0
-0.010685156 -0.046442918 -0.01489987 0
-0.010550449 -0.046349712 0.01490013 0
-0.007780625 -0.04640254 -0.014899861 0
-0.0076665776 -0.046474036 0.01490014 0
-0.0045996546 -0.046331506 -0.01489985 0
-0.0045853094 -0.046691347 0.014900151 0
-0.0014122309 -0.046376504 -0.014899838 0
-0.001631433 -0.046306893 0.014900161 0
0.0016435417 -0.04606887 -0.014899828 0
0.0013926962 -0.046383027 0.014900171 0
0.0045174249 -0.046478525 -0.014899814 0
0.0045934441 -0.046668515 0.014900184 0
0.0073156585 -0.046416394 -0.014899805 0
0.0074571338 -0.04673424 0.014900197 0
0.010775184 -0.046576008 -0.014899792 0
0.01049162 -0.046565037 0.014900207 0
0.014335169 -0.046420582 -0.014165663 0
0.014900038 -0.046563029 -0.010380248 0
0.014900029 -0.046500795 -0.0076223328 0
0.014900016 -0.04631624 -0.0046838401 0
0.014900007 -0.04677701 -0.0016748921 0
0.014899994 -0.046142638 0.0012871195 0
0.014899984 -0.046452213 0.004466949 0
0.014899971 -0.046369381 0.0077228001 0
0.014899963 -0.046375066 0.010393116 0
0.01398924 -0.046706147 0.014262139 0
-0.014273359 -0.043849189 -0.014110366 0
-0.014899961 -0.043236244 -0.010490372 0
-0.014899972 -0.043517403 -0.0074012573 0
-0.014899982 -0.043333892 -0.0046404661 0
-0.014899993 -0.043380365 -0.0014481215 0
-0.014900005 -0.043623853 0.0014519332 0
-0.014900017 -0.043254156 0.0045641535 0
-0.014900026 -0.043733284 0.0069840988 0
-0.014900038 -0.043423798 0.010467415 0
-0.014202159 -0.043598805 0.014075145 0
-0.010380868 -0.043423589 -0.01489988 0
-0.010454105 -0.043493167 0.014900118 0
-0.0074287709 -0.043780029 -0.014899868 0
-0.0076388237 -0.043438703 0.014900129 0
-0.0044559035 -0.043325134 -0.014899859 0
-0.0043214583 -0.043606605 0.014900141 0
-0.0019190043 -0.043388192 -0.01489985 0
-0.0014549667 -0.043269381 0.01490015 0
0.0018385826 -0.043635476 -0.014899835 0
0.0012074293 -0.04334927 0.01490016 0
0.0046411227 -0.043633334 -0.014899826 0
0.004708352 -0.043661613 0.014900174 0
0.0075248056 -0.043624472 -0.014899815 0
0.0074230181 -0.043696888 0.014900185 0
0.010591942 -0.043531556 -0.014899803 0
0.010512025 -0.04331243 0.014900194 0
0.014072369 -0.043513495 -0.014358887 0
0.014900037 -0.04301193 -0.010474616 0
0.014900025 -0.043683723 -0.0072857118 0
0.014900016 -0.043343157 -0.0044363812 0
0.014900004 -0.043740723 -0.0012851882 0
0.014899994 -0.043403409 0.0013499515 0
0.014899982 -0.043562036 0.0045178351 0
0.014899975 -0.043435525 0.0073243598 0
0.014899964 -0.043333106 0.010301376 0
0.014253056 -0.043363322 0.013988922 0
-0.014299923 -0.040491767 -0.014131444 0
-0.014899961 -0.040173065 -0.010717521 0
-0.014899973 -0.040409811 -0.007520718 0
-0.014899987 -0.040537611 -0.0044862605 0
-0.014899994 -0.040702488 -0.0012759536 0
-0.014900005 -0.040434781 0.0015017064 0
-0.014900016 -0.040433947 0.0045188577 0
-0.014900025 -0.040661745 0.0073003699 0
-0.014900039 -0.040305719 0.010726158 0
-0.014133289 -0.040515561 0.014032033 0
-0.010603601 -0.040354252 -0.014899891 0
-0.010415738 -0.040571075 0.014900109 0
-0.0078104213 -0.040525995 -0.014899881 0
-0.0075223721 -0.040702011 0.014900121 0
-0.0045038853 -0.040567782 -0.014899869 0
-0.0044505689 -0.0403702 0.014900129 0
-0.0013913653 -0.040270597 -0.014899857 0
-0.0014611206 -0.040526278 0.014900142 0
0.0011948816 -0.040407751 -0.014899849 0
0.0012746262 -0.04081288 0.014900152 0
0.0048539084 -0.04019336 -0.014899837 0
0.0048198677 -0.040359784 0.014900163 0
0.0076292343 -0.040386349 -0.014899825 0
0.007577634 -0.040525332 0.014900175 0
0.010307913 -0.040549561 -0.014899815 0
0.010449115 -0.040527243 0.014900185 0
0.013879015 -0.040405713 -0.014564455 0
0.014900036 -0.040280543 -0.010380153 0
0.014900027 -0.040127721 -0.0076435227 0
0.014900015 -0.040574215 -0.0041339542 0
0.014900004 -0.040282801 -0.0014047754 0
0.014899994 -0.040509094 0.0013091917 0
0.014899983 -0.040466975 0.0043001887 0
0.014899974 -0.040559612 0.007188594 0
0.014899962 -0.04030472 0.010598712 0
0.013967927 -0.040386379 0.014133732 0
-0.014118992 -0.037607454 -0.014289602 0
-0.01489996 -0.0376193 -0.010743452 0
-0.014899972 -0.03750547 -0.0075777462 0
-0.014899986 -0.037652478 -0.0042162575 0
-0.014899992 -0.037578791 -0.0018242723 0
-0.014900006 -0.037603144 0.0015546181 0
-0.014900015 -0.03754621 0.004472523 0
-0.014900027 -0.037586741 0.007629991 0
-0.014900039 -0.037591673 0.010463934 0
-0.013875431 -0.037432529 0.014288375 0
-0.010392517 -0.037269931 -0.014899903 0
-0.010685298 -0.037865046 0.014900097 0
-0.0077118585 -0.037594102 -0.014899893 0
-0.0072082533 -0.037446517 0.014900111 0
-0.004723473 -0.037402298 -0.014899881 0
-0.0046567782 -0.037483439 0.014900118 0
-0.0013833637 -0.037557434 -0.014899868 0
-0.001309518 -0.037594952 0.01490013 0
0.0013490007 -0.037489031 -0.014899859 0
0.0013974749 -0.037583705 0.01490014 0
0.0045791254 -0.037889808 -0.014899845 0
0.0045199278 -0.03751456 0.014900154 0
0.0075424807 -0.037478294 -0.014899837 0
0.0075521306 -0.03739439 0.014900161 0
0.010567246 -0.03754779 -0.014899825 0
0.010231528 -0.037543852 0.014900173 0
0.014101339 -0.037483074 -0.014259193 0
0.014900037 -0.037141427 -0.010458983 0
0.014900029 -0.037741378 -0.0076391753 0
0.014900016 -0.037695404 -0.0044058762 0
0.014900005 -0.037261531 -0.0013682342 0
0.014899996 -0.037514959 0.0013843321 0
0.014899982 -0.03770658 0.0046580397 0
0.014899972 -0.037378296 0.0075116092 0
0.014899962 -0.037552498 0.010503141 0
0.014397029 -0.037552614 0.014099373 0
-0.014212627 -0.034537576 -0.014148048 0
-0.014899961 -0.034506556 -0.010538687 0
-0.014899972 -0.034741357 -0.0078520877 0
-0.014899983 -0.03424716 -0.0042861449 0
-0.014899993 -0.03463202 -0.0015975485 0
-0.014900005 -0.034999743 0.0013087483 0
-0.014900017 -0.034514911 0.0043701441 0
-0.014900026 -0.034690328 0.0074399309 0
-0.014900038 -0.034762233 0.010320039 0
-0.014300675 -0.034410477 0.014138831 0
-0.010342593 -0.034554642 -0.014899912 0
-0.010675143 -0.034660496 0.014900086 0
-0.0074656629 -0.034519844 -0.014899902 0
-0.0070541492 -0.034591913 0.014900099 0
-0.0044597192 -0.034408607 -0.01489989 0
-0.0046753003 -0.034217145 0.014900106 0
-0.0015312922 -0.034311607 -0.014899882 0
-0.0012424723 -0.034500953 0.014900122 0
0.0016186278 -0.034604587 -0.014899868 0
0.0016633717 -0.034427494 0.014900131 0
0.0045520626 -0.034788035 -0.014899858 0
0.0045939875 -0.03406857 0.014900139 0
0.0076213717 -0.034626819 -0.014899845 0
0.0075314506 -0.034365732 0.014900153 0
0.010561477 -0.035002891 -0.014899834 0
0.010033117 -0.034397434 0.01490016 0
0.014113012 -0.03461203 -0.014166688 0
0.014900038 -0.034452103 -0.010494564 0
0.014900026 -0.034301151 -0.0074069416 0
0.014900016 -0.03466488 -0.0047228648 0
0.014900004 -0.03448683 -0.0015804403 0
0.014899993 -0.034522057 0.0020461509 0
0.014899983 -0.034375928 0.0044998378 0
0.014899973 -0.034542859 0.0073796338 0
0.01489996 -0.034443576 0.010918326 0
0.014277871 -0.034551408 0.014166184 0
-0.014072604 -0.031381242 -0.014159259 0
-0.014899961 -0.031460688 -0.010433832 0
