# .PCD v0.7 - Point Cloud Data file format
VERSION 0.7
FIELDS x y z rgb
SIZE 4 4 4 4
TYPE F F F F
COUNT 1 1 1 1
WIDTH 1154
HEIGHT 1
VIEWPOINT 0 0 0 1 0 0 0
POINTS 1154
DATA ascii
2.7880533e-08 -0.18740577 -0.0077011473 0
1.5847201e-08 -0.18752035 -0.0043770126 0
5.2016129e-09 -0.1874198 -0.0014362352 0
-6.2862329e-09 -0.187636 0.0017372124 0
-1.6448135e-08 -0.18773977 0.0045443755 0
-2.6947374e-08 -0.18721049 0.007444724 0
-3.4446042e-08 -0.18770507 0.009516187 0
-0.0093069216 -0.18433638 -0.0035427217 0
-0.0098266648 -0.18455274 -0.0013700098 0
-0.0098142363 -0.18442005 0.0015744 0
-0.009259657 -0.18453421 0.0036574902 0
-0.0070774332 -0.18447305 -0.0069996146 0
-0.0086004427 -0.18445978 -0.0050565326 0
-0.0086454665 -0.18462214 0.004994032 0
-0.0070293434 -0.18478461 0.0070354124 0
-0.0036405288 -0.18474038 -0.0092657786 0
-0.005273703 -0.18461196 -0.0084674349 0
-0.0053476505 -0.18445478 0.0083973119 0
-0.003605583 -0.18497488 0.0092816781 0
-0.0016146178 -0.18476613 -0.0098009743 0
-0.0014081907 -0.18458903 0.0098357396 0
3.4312315e-08 -0.18417464 -0.0094778994 0
2.6767585e-08 -0.18424794 -0.007393714 0
1.6848187e-08 -0.18460992 -0.0046535395 0
6.4018644e-09 -0.18447718 -0.0017678079 0
-5.4357607e-09 -0.18460992 0.0015022638 0
-1.6690668e-08 -0.18457168 0.0046113627 0
-2.7806639e-08 -0.18460391 0.0076820808 0
-3.4323204e-08 -0.18481444 0.0094822422 0
-0.0092167882 -0.181372 -0.0037590531 0
-0.0098271724 -0.18157116 -0.0014379871 0
-0.0098194433 -0.18165188 0.0015162647 0
-0.0092572616 -0.18177179 0.0036632288 0
-0.0068524424 -0.18145302 -0.0072059459 0
-0.0084292954 -0.18146122 -0.005316284 0
-0.0085765356 -0.18199497 0.0050627822 0
-0.0071616224 -0.1817262 0.0069004535 0
-0.0036975935 -0.18168546 -0.0092420112 0
-0.0051119132 -0.18174595 -0.0085562002 0
-0.0050411848 -0.18154903 0.0085901171 0
-0.003684852 -0.18165614 0.0092486376 0
-0.001537964 -0.1812495 -0.0098135946 0
-0.0014624922 -0.18149534 0.009820004 0
3.4783341e-08 -0.1818337 -0.0096080257 0
2.6236648e-08 -0.18137799 -0.0072470559 0
1.6444961e-08 -0.18165287 -0.0045421617 0
5.1706306e-09 -0.18148938 -0.0014276979 0
-5.6720082e-09 -0.18129539 0.0015675136 0
-1.6554218e-08 -0.18141308 0.0045736572 0
-2.7356164e-08 -0.18160072 0.0075576291 0
-3.448136e-08 -0.18133822 0.0095259203 0
-0.0092560807 -0.17830549 -0.0036647604 0
-0.0098337261 -0.17856704 -0.0013639377 0
-0.0098005095 -0.17842564 0.001665191 0
-0.009302929 -0.17837583 0.0035536119 0
-0.0070442315 -0.17848346 -0.0070191189 0
-0.0084921587 -0.17887349 -0.0052011693 0
-0.0084666321 -0.17837197 0.005251992 0
-0.0069891131 -0.17819127 0.0070838141 0
-0.0037546046 -0.1783352 -0.00921827 0
-0.0054022516 -0.17856695 -0.0083660167 0
-0.0052430765 -0.17831506 0.0084832776 0
-0.0036598817 -0.17851727 0.0092590302 0
-0.0013474036 -0.17850918 -0.0098383939 0
-0.001442029 -0.17827481 0.0098312907 0
3.3670712e-08 -0.17835306 -0.0093006818 0
2.7349024e-08 -0.17864642 -0.0075543527 0
1.7172653e-08 -0.17875974 -0.0047431923 0
5.2562825e-09 -0.17837407 -0.00145137 0
-5.6676672e-09 -0.17861097 0.0015663047 0
-1.5844641e-08 -0.17858437 0.004377631 0
-2.7856178e-08 -0.17829461 0.0076957429 0
-3.4421269e-08 -0.17836703 0.0095093092 0
-0.0092869969 -0.17557022 -0.0035905747 0
-0.0098312804 -0.17581537 -0.0013960776 0
-0.0098065697 -0.17529519 0.0015634808 0
-0.0091833444 -0.17592008 0.0038406095 0
-0.0072291079 -0.17583352 -0.0068339342 0
-0.0083323279 -0.17557152 -0.005471902 0
-0.0084271468 -0.17559266 0.0053110584 0
-0.0069386349 -0.17553909 0.0071235588 0
-0.0036934137 -0.17538747 -0.0092437761 0
-0.0052242745 -0.17566407 -0.0084966626 0
-0.0053885789 -0.17545336 0.0083835647 0
-0.0035997843 -0.17532703 0.0092840595 0
-0.001281572 -0.17560813 -0.0098440293 0
-0.0013396953 -0.17561357 0.0098385317 0
3.4409197e-08 -0.17547083 -0.0095046936 0
2.6943386e-08 -0.1754335 -0.0074423095 0
1.6644055e-08 -0.17551102 -0.0045971829 0
5.2858669e-09 -0.17556566 -0.0014595527 0
-5.9152243e-09 -0.17532426 0.001634679 0
-1.5816232e-08 -0.17559488 0.0043697725 0
-2.7011605e-08 -0.17543918 0.0074624252 0
-3.4432809e-08 -0.17551088 0.0095124869 0
-0.0093080392 -0.17262952 -0.003540087 0
-0.009829347 -0.17256811 -0.0014099325 0
-0.0097803352 -0.17273004 0.0017992506 0
-0.0092742564 -0.17239493 0.0036224104 0
-0.0070806094 -0.17253241 -0.006996566 0
-0.0084298151 -0.17252851 -0.0053085303 0
-0.0085054841 -0.17228602 0.0052041668 0
-0.0070369937 -0.17237395 0.0070375805 0
-0.0035616155 -0.17240128 -0.0092987027 0
-0.0051645162 -0.17256755 -0.008530288 0
-0.005005823 -0.1721364 0.0086196586 0
-0.0035392267 -0.17270181 0.0093092816 0
-0.0017166157 -0.17242806 -0.0097886333 0
-0.0014089239 -0.17255874 0.0098304823 0
3.42852e-08 -0.17246071 -0.0094704516 0
2.6546116e-08 -0.17254715 -0.0073325769 0
1.5988356e-08 -0.17249408 -0.0044160602 0
6.4447505e-09 -0.17252207 -0.0017796981 0
-5.4521641e-09 -0.17249531 0.0015067512 0
-1.6852358e-08 -0.17260061 0.0046559852 0
-2.6662352e-08 -0.1724803 0.007365935 0
-3.4306101e-08 -0.17235504 0.0094774729 0
-0.0092652533 -0.16963713 -0.003642783 0
-0.00979531 -0.16951862 -0.0016435789 0
-0.009837701 -0.16951749 0.0013552727 0
-0.0092444792 -0.16928804 0.0036938624 0
-0.0071738986 -0.16971648 -0.0068921437 0
-0.0084438538 -0.16955751 -0.0053010718 0
-0.0085990019 -0.16978584 0.0050589317 0
-0.0071041752 -0.16959405 0.006959937 0
-0.0035326669 -0.16947134 -0.0093107736 0
-0.0052296631 -0.16950636 -0.0084931441 0
-0.005369911 -0.16949573 0.0083916439 0
-0.003693583 -0.16946116 0.0092449551 0
-0.0013863653 -0.16945925 -0.0098337345 0
-0.0015988317 -0.16974305 0.0098104738 0
3.4340804e-08 -0.16940761 -0.0094858231 0
2.7151305e-08 -0.16928382 -0.0074997679 0
1.6588967e-08 -0.16941093 -0.0045819865 0
5.7987641e-09 -0.16948688 -0.0016012595 0
-5.2596381e-09 -0.16940868 0.0014535559 0
-1.6194358e-08 -0.16943847 0.004474205 0
-2.7232083e-08 -0.16955762 0.007523309 0
-3.4530693e-08 -0.16922109 0.0095395045 0
-0.0092367884 -0.16613874 -0.0037111109 0
-0.0097954078 -0.16688432 -0.0017396058 0
-0.0098073836 -0.16640234 0.0015967889 0
-0.009287525 -0.16656029 0.0035905428 0
-0.0069335257 -0.16677639 -0.0071382797 0
-0.0085453736 -0.16635607 -0.0051235519 0
-0.0085049467 -0.16653128 0.0051940549 0
-0.0069036004 -0.16650289 0.0071662683 0
-0.0035416998 -0.16636974 -0.0093070203 0
-0.0052602026 -0.16656125 -0.0084534185 0
-0.005150205 -0.16643348 0.0085376957 0
-0.0036175146 -0.16649592 0.0092766397 0
-0.0015870142 -0.16659766 -0.009813928 0
-0.0012613425 -0.16638429 0.0098486692 0
3.4459369e-08 -0.16656119 -0.0095185861 0
2.5723789e-08 -0.16641517 -0.0071054357 0
1.5796832e-08 -0.16644691 -0.004363175 0
5.5630567e-09 -0.16641688 -0.0015361577 0
-5.6543867e-09 -0.16657437 0.0015625926 0
-1.66117e-08 -0.16672537 0.0045894836 0
-2.648718e-08 -0.16659734 0.0073175235 0
-3.4015287e-08 -0.16653776 0.0093971165 0
-0.0092666876 -0.16366327 -0.0036393618 0
-0.0098483916 -0.16330324 -0.0012851248 0
-0.0097873937 -0.16347595 0.001698653 0
-0.0092424555 -0.16308588 0.0036986971 0
-0.0071496405 -0.16349021 -0.0069162548 0
-0.0084658731 -0.16349927 -0.0052274079 0
-0.008495993 -0.16341925 0.0052000601 0
-0.0069887904 -0.16337289 0.0070817377 0
-0.0036318405 -0.1632842 -0.009269475 0
-0.0050055496 -0.16345476 -0.0086274389 0
-0.005110729 -0.16354553 0.0085654641 0
-0.0036150992 -0.16370052 0.0092776362 0
-0.0015967266 -0.16362159 -0.0097959042 0
-0.0014403294 -0.16342737 0.0098317713 0
3.3977674e-08 -0.1633006 -0.0093855318 0
2.6773408e-08 -0.16372353 -0.0073953965 0
1.5852894e-08 -0.16362438 -0.0043786722 0
5.2515139e-09 -0.16348885 -0.0014501065 0
-6.1903274e-09 -0.16335687 0.0017106312 0
-1.5932438e-08 -0.16350316 0.0044018296 0
-2.7297842e-08 -0.1633711 0.0075414525 0
-3.458852e-08 -0.16371456 0.0095554581 0
-0.0092562428 -0.1606167 -0.00366444 0
-0.0098195989 -0.16048746 -0.0014791493 0
-0.0098100957 -0.16065033 0.0015643423 0
-0.0093522537 -0.16046421 0.0034351712 0
-0.0071295467 -0.1609845 -0.0069256751 0
-0.008540309 -0.15991122 -0.0051382151 0
-0.00852428 -0.16038303 0.0051677777 0
-0.0069128843 -0.16069557 0.0071444539 0
-0.0035121562 -0.16103996 -0.009319352 0
-0.005227318 -0.16064119 -0.008494013 0
-0.0052913986 -0.16063784 0.0084477626 0
-0.0037745133 -0.16026865 0.0092111994 0
-0.0015971283 -0.16040009 -0.009806769 0
-0.0012138324 -0.16049834 0.0098534683 0
3.4625845e-08 -0.16002893 -0.0095645972 0
2.6693677e-08 -0.16050114 -0.0073733828 0
1.6383884e-08 -0.16050161 -0.0045253662 0
6.0124465e-09 -0.16065814 -0.0016603197 0
-5.7579856e-09 -0.16060035 0.0015911895 0
-1.6938811e-08 -0.16045094 0.0046798233 0
-2.7124068e-08 -0.16040565 0.0074934377 0
-3.4303003e-08 -0.16026364 0.0094765741 0
-0.0092338547 -0.15755266 -0.0037181831 0
-0.0097856745 -0.15746374 -0.0017525742 0
-0.0098091327 -0.15744691 0.0015518613 0
-0.0092914077 -0.15750884 0.0035811898 0
-0.0069508948 -0.15755412 -0.0071037435 0
-0.0086689582 -0.15749983 -0.004947905 0
-0.0085238861 -0.15735143 0.005177875 0
-0.0070430366 -0.1574214 0.0070278426 0
-0.0036192778 -0.15754654 -0.0092747295 0
-0.0054020383 -0.15776384 -0.008379139 0
-0.0052695419 -0.15748221 0.0084651131 0
-0.0036675658 -0.15759833 0.0092557529 0
-0.0015727242 -0.15737215 -0.0098031592 0
-0.001295045 -0.15741797 0.0098497067 0
3.5053557e-08 -0.15745878 -0.0096827596 0
2.681192e-08 -0.15763406 -0.0074060573 0
1.6205643e-08 -0.15783486 -0.0044761379 0
5.5331313e-09 -0.1574167 -0.0015279236 0
-5.8128853e-09 -0.15746787 0.0016063439 0
-1.655121e-08 -0.15729265 0.0045727394 0
-2.6398538e-08 -0.157332 0.0072930031 0
-3.4107288e-08 -0.15773529 0.0094224997 0
-0.0092719728 -0.15479572 -0.0036267089 0
-0.0097948695 -0.15430132 -0.001692973 0
-0.0098024253 -0.15400967 0.001633734 0
-0.0093316548 -0.15442772 0.0034845879 0
-0.0069608241 -0.15437251 -0.0071062939 0
-0.008538397 -0.15473361 -0.0051351022 0
-0.0085913138 -0.15458825 0.0050734333 0
-0.0069164629 -0.15453854 0.0071707959 0
-0.0037255841 -0.15479769 -0.0092304451 0
-0.0051276004 -0.15481931 -0.008542385 0
-0.0050251321 -0.15438156 0.0086134681 0
-0.0035916918 -0.15479827 0.0092873583 0
-0.0016664366 -0.15427195 -0.0097988313 0
-0.0015041018 -0.15480253 0.0098215286 0
3.5041769e-08 -0.15443756 -0.009679514 0
2.6471817e-08 -0.15459122 -0.0073121167 0
1.6941001e-08 -0.15437452 -0.0046792887 0
6.285779e-09 -0.15430678 -0.0017358492 0
-5.6242184e-09 -0.15441373 0.0015542147 0
-1.5986858e-08 -0.15438078 0.0044168299 0
-2.6813678e-08 -0.15473272 0.0074076736 0
-3.3941088e-08 -0.15463707 0.0093765762 0
-0.0092249382 -0.15135297 -0.0037395987 0
-0.0098480815 -0.15161543 -0.0012679568 0
-0.0098372819 -0.15128393 0.0013563931 0
-0.0093277488 -0.15171844 0.00349395 0
-0.0068924637 -0.15148392 -0.0071689007 0
-0.0084058903 -0.15137118 -0.0053654248 0
-0.008658018 -0.15126275 0.0049607512 0
-0.0071457732 -0.1515763 0.0069549372 0
-0.0036395825 -0.15139762 -0.0092662936 0
-0.0051353006 -0.15138081 -0.0085512958 0
-0.0052465787 -0.15132818 0.0084754964 0
-0.0036608246 -0.15174337 0.0092585422 0
-0.0017180616 -0.15149793 -0.0097833974 0
-0.0013840343 -0.15152903 0.0098380102 0
3.4573482e-08 -0.15136001 -0.0095501635 0
2.7404081e-08 -0.15156634 -0.00756966 0
1.6265705e-08 -0.15182723 -0.0044927513 0
5.8344218e-09 -0.15162063 -0.0016111742 0
-5.4497482e-09 -0.15143023 0.0015060076 0
-1.6568334e-08 -0.15145504 0.0045774486 0
-2.7354531e-08 -0.15129603 0.0075570685 0
-3.4426328e-08 -0.15183647 0.0095106112 0
-0.0092693688 -0.14871383 -0.0036329813 0
-0.0098038949 -0.14843556 -0.0015770525 0
-0.0098164314 -0.14852154 0.0015366148 0
-0.0092140222 -0.14843637 0.0037668885 0
-0.0069770343 -0.14869209 -0.0070875594 0
-0.0084959157 -0.14857808 -0.00520497 0
-0.0085306782 -0.14838299 0.0051514427 0
-0.0071076308 -0.14853364 0.0069533065 0
-0.0035393124 -0.14859639 -0.0093080802 0
-0.0051284665 -0.14877674 -0.0085470714 0
-0.0052624992 -0.1483601 0.0084793195 0
-0.0037185955 -0.1487591 0.0092344573 0
-0.001392093 -0.14859389 -0.0098317862 0
-0.0015430071 -0.14853992 0.0098163709 0
3.4162241e-08 -0.14856552 -0.009436572 0
2.7578629e-08 -0.14868385 -0.0076178885 0
1.576454e-08 -0.14855808 -0.0043543191 0
6.4988384e-09 -0.14848252 -0.0017947266 0
-6.8712973e-09 -0.14841123 0.0018986908 0
-1.6441284e-08 -0.14846799 0.004542341 0
-2.7498244e-08 -0.14865935 0.0075967591 0
-3.4182747e-08 -0.14847553 0.009443311 0
-0.0092197629 -0.14564116 -0.0037520442 0
-0.0098143425 -0.14554663 -0.0015376912 0
-0.0098215155 -0.14571092 0.0014890142 0
-0.0092822546 -0.14562942 0.0036031124 0
-0.0070012626 -0.14512011 -0.0070625576 0
-0.008386624 -0.14568706 -0.0053716339 0
-0.0085909795 -0.14565693 0.005062059 0
-0.0069862478 -0.14564444 0.0070845145 0
-0.003602762 -0.14553422 -0.0092816548 0
-0.005386705 -0.14582898 -0.0083812643 0
-0.005099019 -0.14566487 0.0085586002 0
-0.0035367149 -0.14534777 0.0093102306 0
-0.0017165981 -0.14550476 -0.0097958744 0
-0.001485517 -0.14541748 0.0098176887 0
3.4225298e-08 -0.14540179 -0.0094540017 0
2.6656478e-08 -0.14545178 -0.0073631615 0
1.5910466e-08 -0.14574969 -0.0043946407 0
5.5133844e-09 -0.14548759 -0.0015225118 0
-6.290001e-09 -0.1456183 0.0017381012 0
-1.579169e-08 -0.14535549 0.0043628835 0
-2.6964866e-08 -0.14548834 0.0074494048 0
-3.4077871e-08 -0.14561783 0.0094143292 0
-0.0092626959 -0.14234032 -0.0036490161 0
-0.0098183164 -0.14257993 -0.0015081323 0
-0.0098009426 -0.14233115 0.0016299135 0
-0.0092482036 -0.14241052 0.003684826 0
-0.0069352672 -0.14252061 -0.0071251928 0
-0.0084666312 -0.14252715 -0.0052695237 0
-0.0084937718 -0.14245366 0.0052132029 0
-0.0071148244 -0.14249732 0.0069851652 0
-0.0035153623 -0.14268276 -0.0093180817 0
-0.0050876755 -0.14249107 -0.0085709803 0
-0.0049991161 -0.14262508 0.0086322557 0
-0.0037436103 -0.14238715 0.0092240106 0
-0.0015443603 -0.1423035 -0.0098167444 0
-0.0013393178 -0.14242476 0.009840576 0
3.4319243e-08 -0.14254121 -0.0094799632 0
2.7659375e-08 -0.14256607 -0.007640216 0
1.6377866e-08 -0.14249559 -0.0045237686 0
5.4549365e-09 -0.14218467 -0.0015063779 0
-5.4378542e-09 -0.14238989 0.0015026892 0
-1.6893079e-08 -0.1426249 0.0046671256 0
-2.652931e-08 -0.1425458 0.0073290747 0
-3.3884152e-08 -0.14239664 0.0093608033 0
-0.0091989804 -0.13959585 -0.0038019447 0
-0.0098269451 -0.13953426 -0.0014789655 0
-0.0098192999 -0.13957782 0.0015199695 0
-0.0092303194 -0.13937351 0.003727732 0
-0.006960222 -0.13964386 -0.0071069268 0
-0.0084507614 -0.13951473 -0.0052736318 0
-0.0084652463 -0.1396457 0.0052434648 0
-0.0071651456 -0.13949384 0.0069207251 0
-0.0034961381 -0.13958617 -0.0093261031 0
-0.0051290728 -0.13920845 -0.0085394131 0
-0.0051910151 -0.13942277 0.0085169496 0
-0.0037048638 -0.13980061 0.0092401477 0
-0.0012695305 -0.13957879 -0.0098470366 0
-0.0014528618 -0.13939773 0.0098239239 0
3.4500527e-08 -0.13915235 -0.0095300544 0
2.6583081e-08 -0.1396535 -0.0073429067 0
1.5804972e-08 -0.13977543 -0.0043655201 0
5.6968603e-09 -0.13956083 -0.0015732173 0
-5.9197145e-09 -0.13940667 0.0016357894 0
-1.5793997e-08 -0.13927355 0.0043634987 0
-2.7431193e-08 -0.1394352 0.007578203 0
-3.4611691e-08 -0.13941818 0.0095617715 0
-0.0092756627 -0.13662265 -0.0036179158 0
-0.009780705 -0.1364221 -0.0017276797 0
-0.0098014064 -0.13629414 0.0016237022 0
-0.0092557073 -0.13645972 0.0036667939 0
-0.0070194039 -0.13663442 -0.0070575657 0
-0.0084692072 -0.1364893 -0.0052568284 0
-0.0085685421 -0.1365086 0.0051074838 0
-0.0070073209 -0.13677886 0.0070722182 0
-0.003726244 -0.13620074 -0.0092302375 0
-0.0051605948 -0.13638027 -0.0085282959 0
-0.005102233 -0.13640419 0.0085665053 0
-0.0037084096 -0.13624795 0.0092386575 0
-0.0013472338 -0.13627386 -0.0098378845 0
-0.0013478161 -0.13634114 0.0098446868 0
3.4199115e-08 -0.13676131 -0.0094467998 0
2.7415096e-08 -0.13668238 -0.0075727566 0
1.6066016e-08 -0.1365542 -0.0044376436 0
5.8150129e-09 -0.13654606 -0.0016058673 0
-5.2973781e-09 -0.13668035 0.0014638628 0
-1.6746066e-08 -0.13654397 0.0046264916 0
-2.7263095e-08 -0.136384 0.0075317556 0
-3.3981344e-08 -0.13623734 0.009387631 0
-0.0092744483 -0.13319428 -0.0036208434 0
-0.0098579945 -0.13356569 -0.0012161765 0
-0.0098390663 -0.13357837 0.0013680496 0
-0.0092694722 -0.13345955 0.0036337511 0
-0.0070008282 -0.13335246 -0.0070580998 0
-0.008598133 -0.13347687 -0.0050652181 0
-0.0085700992 -0.13340172 0.0051039229 0
-0.0070615108 -0.13329293 0.0070072557 0
-0.0037538225 -0.13306607 -0.0092187608 0
-0.0052505019 -0.13356169 -0.0084646335 0
-0.0052952627 -0.13350731 0.00843425 0
-0.0036192553 -0.13332888 0.009275794 0
-0.0015815224 -0.13379304 -0.009813088 0
-0.001618418 -0.13338844 0.0098035987 0
3.4123218e-08 -0.13359164 -0.0094258459 0
2.7012343e-08 -0.13364594 -0.0074615097 0
1.6401689e-08 -0.13347033 -0.0045303823 0
4.954217e-09 -0.13338919 -0.0013680891 0
-5.3239497e-09 -0.13337055 0.0014711912 0
-1.6503588e-08 -0.13369262 0.0045594983 0
-2.7306566e-08 -0.1334773 0.0075437543 0
-3.4111327e-08 -0.13356028 0.0094235279 0
-0.0093126111 -0.13010979 -0.0035292667 0
-0.0097833201 -0.13035285 -0.0017464564 0
-0.0098376339 -0.13072136 0.0013352977 0
-0.009260918 -0.13035884 0.0036542672 0
-0.0070949495 -0.13067673 -0.006942281 0
-0.0085015101 -0.13032417 -0.0052215611 0
-0.0083631678 -0.13064866 0.0054189698 0
-0.0070555089 -0.1305085 0.007040557 0
-0.0036475011 -0.13039634 -0.0092630694 0
-0.0051937709 -0.1305296 -0.008497891 0
-0.0051004193 -0.13090894 0.0085607916 0
-0.0038510656 -0.13043231 0.0091791963 0
-0.0015332305 -0.13053487 -0.0098112477 0
-0.0017254103 -0.13073067 0.00979352 0
3.4245677e-08 -0.1301641 -0.0094596865 0
2.6821143e-08 -0.13054767 -0.0074087027 0
1.5699886e-08 -0.13019769 -0.0043365257 0
4.6921453e-09 -0.13058947 -0.0012957035 0
-5.6285447e-09 -0.1302457 0.0015553223 0
-1.661755e-08 -0.13050176 0.0045909686 0
-2.7675291e-08 -0.13064894 0.0076456019 0
-3.4138502e-08 -0.13058728 0.0094310241 0
-0.009216575 -0.12747587 -0.0037597578 0
-0.00980251 -0.12764265 -0.0015859666 0
-0.0097980052 -0.12736079 0.0016241784 0
-0.0091803558 -0.12800767 0.0038476116 0
-0.0071325535 -0.12729703 -0.0069422047 0
-0.008574577 -0.12755641 -0.0050918274 0
-0.0084934887 -0.12745005 0.0052229664 0
-0.0068579125 -0.12782539 0.0072083455 0
-0.0037255583 -0.1279276 -0.0092305541 0
-0.0049955393 -0.12753886 -0.0086384853 0
-0.005223616 -0.12761362 0.0084821936 0
-0.0037058776 -0.12812334 0.0092396839 0
-0.0014037918 -0.12744124 -0.0098302411 0
-0.0013767204 -0.12763694 0.0098321391 0
3.3782531e-08 -0.12753826 -0.0093317544 0
2.7156648e-08 -0.12746304 -0.0075013954 0
1.632227e-08 -0.12743108 -0.0045084651 0
5.436771e-09 -0.12739925 -0.0015014133 0
-4.9683209e-09 -0.1273915 0.0013729292 0
-1.5537248e-08 -0.12750845 0.0042925305 0
-2.7060979e-08 -0.12755312 0.0074758907 0
-3.4199218e-08 -0.12724504 0.0094477842 0
-0.0092669539 -0.12464506 -0.0036388626 0
-0.0098015834 -0.12438799 -0.0016334599 0
-0.0098242201 -0.12440735 0.0014657991 0
-0.009247276 -0.12451302 0.0036869885 0
-0.0069105378 -0.1245544 -0.0071550375 0
-0.0085429251 -0.12448681 -0.0051336843 0
-0.0085466765 -0.12457851 0.0051452136 0
-0.0071513234 -0.12442129 0.0068886182 0
-0.0036113253 -0.12448743 -0.0092781633 0
-0.0050304029 -0.12456757 -0.0086086644 0
-0.0052991705 -0.1244988 0.0084323725 0
-0.0037557809 -0.12412848 0.0092188735 0
-0.0013592567 -0.12439724 -0.0098392433 0
-0.0015443828 -0.12452472 0.0098062875 0
3.4191753e-08 -0.12416217 -0.0094448114 0
2.6479464e-08 -0.1244859 -0.0073143383 0
1.6080996e-08 -0.12461334 -0.0044418252 0
6.1543299e-09 -0.12438647 -0.0016996454 0
-5.8182654e-09 -0.12436996 0.0016077101 0
-1.5649599e-08 -0.12465789 0.0043235566 0
-2.7424726e-08 -0.12454865 0.0075763622 0
-3.4310997e-08 -0.12394327 0.009478651 0
-0.0092453863 -0.12138563 -0.0036906386 0
-0.0098137986 -0.12155759 -0.0015866389 0
-0.0098154964 -0.12147217 0.0015436184 0
-0.0092982575 -0.12133438 0.0035646176 0
-0.0071417545 -0.12135639 -0.006940301 0
-0.008533678 -0.12134019 -0.0051512988 0
-0.0084891059 -0.12175874 0.0052405773 0
-0.0069501414 -0.12143585 0.0071257744 0
-0.0035100565 -0.12121351 -0.0093203709 0
-0.0049676243 -0.12128559 -0.0086338306 0
-0.0051154373 -0.12141611 0.0085574863 0
-0.0036062021 -0.12188822 0.009281191 0
-0.0016567551 -0.12188106 -0.0098027969 0
-0.0015412067 -0.121333 0.0098175835 0
3.4100168e-08 -0.12145409 -0.0094195222 0
2.7557272e-08 -0.12142466 -0.0076120873 0
1.6341344e-08 -0.12142006 -0.0045137564 0
6.0741829e-09 -0.12150609 -0.0016775158 0
-5.4887814e-09 -0.12128504 0.001516681 0
-1.6696744e-08 -0.12147912 0.0046128123 0
-2.7773318e-08 -0.12145205 0.0076726479 0
-3.4384637e-08 -0.12146863 0.0094989846 0
-0.0092958817 -0.11811802 -0.0035694593 0
-0.0097948164 -0.11848095 -0.001675979 0
-0.0098483171 -0.11821079 0.0012673108 0
-0.0092321169 -0.11825658 0.0037233455 0
-0.0070498791 -0.11835114 -0.0070305625 0
-0.0084694903 -0.11831452 -0.0052629802 0
-0.0084550092 -0.11865932 0.0053005246 0
-0.0070548472 -0.11852323 0.0069959396 0
-0.0037549143 -0.11822119 -0.0092183575 0
-0.0052489028 -0.11795412 -0.0084885499 0
-0.005054363 -0.11900505 0.008607883 0
-0.0036401819 -0.11887531 0.0092670219 0
-0.0016238665 -0.11809329 -0.009799853 0
-0.0014354805 -0.11864629 0.0098332595 0
3.4483225e-08 -0.11871286 -0.0095253494 0
2.6818478e-08 -0.11876906 -0.0074080098 0
1.6430128e-08 -0.11827091 -0.0045382939 0
5.3991127e-09 -0.1186545 -0.0014910421 0
-5.3858482e-09 -0.1184914 0.0014882365 0
-1.5578843e-08 -0.11865061 0.004303989 0
-2.6727941e-08 -0.11852522 0.0073838579 0
-3.4402134e-08 -0.1184732 0.009503806 0
-0.0092984587 -0.11578418 -0.0035632809 0
-0.009814634 -0.11543079 -0.001557642 0
-0.0098110512 -0.11561793 0.0015430219 0
-0.0092526572 -0.11577929 0.0036740436 0
-0.0068275584 -0.11585225 -0.0072601042 0
-0.0085399169 -0.11561632 -0.0051318146 0
-0.0084065991 -0.11557575 0.0053676586 0
-0.0070794341 -0.11550581 0.0069785183 0
-0.0037423631 -0.11552754 -0.0092235971 0
-0.0053605619 -0.11571074 -0.0083956681 0
-0.0051019569 -0.11515943 0.0085648717 0
-0.0035136058 -0.1157286 0.0093197506 0
-0.001608159 -0.11524323 -0.0097941365 0
-0.0015555677 -0.11558317 0.0098083001 0
3.4739315e-08 -0.11570467 -0.0095961029 0
2.7081736e-08 -0.1157217 -0.0074807438 0
1.6544901e-08 -0.11560366 -0.0045700083 0
6.1410219e-09 -0.11534813 -0.001696002 0
-5.3649827e-09 -0.11532794 0.0014824609 0
-1.5197285e-08 -0.11541732 0.004198574 0
-2.6826655e-08 -0.11542125 0.0074111158 0
-3.4251922e-08 -0.11571688 0.0094623016 0
-0.0092958668 -0.11242235 -0.0035695157 0
-0.0098194955 -0.11240078 -0.0014714486 0
-0.0098282062 -0.11256174 0.0014324363 0
-0.0092557743 -0.11251484 0.003666552 0
-0.0070305821 -0.11230845 -0.0070485296 0
-0.0084899459 -0.11258785 -0.0052235364 0
-0.008579094 -0.11248319 0.0050739935 0
-0.0070230449 -0.11242273 0.0070293313 0
-0.0036525056 -0.1123729 -0.0092610484 0
-0.0050337943 -0.11255209 -0.0086184535 0
-0.0051535629 -0.11237445 0.0085461847 0
-0.0036645709 -0.1125235 0.009256837 0
-0.0012948284 -0.11235297 -0.0098425532 0
-0.0016775131 -0.11240208 0.0097958613 0
3.4309444e-08 -0.11208113 -0.0094773667 0
2.6844367e-08 -0.11263648 -0.0074151834 0
1.7152345e-08 -0.11258125 -0.0047378223 0
6.1031069e-09 -0.11257464 -0.0016855381 0
-5.1776525e-09 -0.11244049 0.0014307017 0
-1.7204478e-08 -0.11225279 0.0047530378 0
-2.6121121e-08 -0.11243349 0.0072162058 0
-3.4326508e-08 -0.1126929 0.0094828941 0
-0.0092961807 -0.1096028 -0.0035687741 0
-0.009779064 -0.10936572 -0.0017970944 0
-0.0098234331 -0.10965876 0.0014534884 0
-0.009284012 -0.10972644 0.0035987687 0
-0.0071811303 -0.10965064 -0.0069058267 0
-0.0084633958 -0.10938815 -0.0052695023 0
-0.0084658358 -0.10948846 0.0052771498 0
-0.0070176637 -0.10942373 0.0070484462 0
-0.0037449994 -0.10912662 -0.0092225224 0
-0.0050529451 -0.10972358 -0.0085912915 0
-0.005208164 -0.10939128 0.0085056173 0
-0.0037089367 -0.10908226 0.009238339 0
-0.0017063346 -0.10968141 -0.0097922925 0
-0.0015740448 -0.10935535 0.0098068379 0
3.4458246e-08 -0.10968032 -0.0095184818 0
2.7288438e-08 -0.10966139 -0.0075378665 0
1.6076012e-08 -0.10942551 -0.0044405032 0
5.8995138e-09 -0.1095479 -0.0016293079 0
-5.9901764e-09 -0.1096269 0.0016551462 0
-1.6428114e-08 -0.10950006 0.0045385617 0
-2.7123138e-08 -0.10948779 0.0074929963 0
-3.4491485e-08 -0.10906407 0.0095284553 0
-0.0092349565 -0.10646504 -0.0037157245 0
-0.0098114293 -0.10643154 -0.001581455 0
-0.009878817 -0.10669427 0.0010506324 0
-0.0093066888 -0.10645522 0.0035443315 0
-0.0070322114 -0.10657337 -0.0070651425 0
-0.0084143402 -0.10636193 -0.0053528235 0
-0.008586267 -0.10659941 0.0050926977 0
-0.0069170753 -0.10646075 0.0071381112 0
-0.0037702068 -0.10647986 -0.0092120292 0
-0.0052029584 -0.10623334 -0.0085093528 0
-0.0051324014 -0.10641171 0.0085400175 0
-0.0034272624 -0.10629235 0.0093556941 0
-0.0017579793 -0.10638144 -0.0097814519 0
-0.0014030105 -0.10651767 0.0098369466 0
3.4237157e-08 -0.10660315 -0.0094574187 0
2.7528722e-08 -0.10637467 -0.0076042549 0
1.5912669e-08 -0.10659173 -0.0043953909 0
4.8653885e-09 -0.10638541 -0.0013436485 0
-5.1044822e-09 -0.10648292 0.0014104672 0
-1.737644e-08 -0.10636883 0.0048005199 0
-2.6506935e-08 -0.10650622 0.0073227636 0
-3.4566874e-08 -0.10641729 0.0095492713 0
-0.0092078978 -0.10407662 -0.0037806728 0
-0.0097970758 -0.10337169 -0.0016565121 0
-0.0098645007 -0.103315 0.0011533032 0
-0.0093027959 -0.10349722 0.003553665 0
-0.0071043065 -0.1036299 -0.0069701578 0
-0.0085599227 -0.10362267 -0.0051280274 0
-0.0085783266 -0.10364828 0.0050822934 0
-0.0069662076 -0.10318404 0.0071208836 0
-0.0036474331 -0.10342506 -0.0092631951 0
-0.0052629402 -0.10367494 -0.0084833987 0
-0.0053496226 -0.10371766 0.0084081274 0
-0.0035670104 -0.10337099 0.0092974566 0
-0.0013026058 -0.10333454 -0.0098451125 0
-0.0012793827 -0.10339134 0.0098468903 0
3.4235619e-08 -0.10342581 -0.0094570043 0
2.6370842e-08 -0.10339438 -0.0072844084 0
1.6270608e-08 -0.10346007 -0.004494281 0
3.7814827e-09 -0.10337967 -0.0010442371 0
-5.2587974e-09 -0.10343716 0.0014530848 0
-1.6808174e-08 -0.10316432 0.0046435283 0
-2.8038164e-08 -0.10342176 0.0077457447 0
-3.427505e-08 -0.10339973 0.0094686458 0
-0.0092491638 -0.10083357 -0.0036816448 0
-0.0098414104 -0.10018983 -0.0013061328 0
-0.0098408321 -0.10029713 0.0013286934 0
-0.0092396252 -0.10053042 0.0037052641 0
-0.0071306401 -0.10058521 -0.0069248388 0
-0.0086302878 -0.10054089 -0.0050098272 0
-0.0084904106 -0.10057448 0.0052024932 0
-0.0068638078 -0.10049248 0.0071894163 0
-0.0035152852 -0.10028347 -0.009318267 0
-0.0050562187 -0.10046699 -0.008599042 0
-0.0052356916 -0.10063932 0.0084920954 0
-0.0036176469 -0.10048238 0.0092763454 0
-0.0014747508 -0.10043722 -0.0098222475 0
-0.0014913239 -0.10054984 0.0098201418 0
3.4845378e-08 -0.10121929 -0.0096254554 0
2.7811126e-08 -0.10057626 -0.0076822881 0
1.6083757e-08 -0.1006851 -0.0044426741 0
5.327665e-09 -0.10053821 -0.0014713708 0
-5.9508616e-09 -0.10052583 0.0016442528 0
-1.6715655e-08 -0.10055556 0.0046179611 0
-2.7416913e-08 -0.10055688 0.0075741177 0
-3.4837161e-08 -0.1003298 0.009623915 0
-0.0092828907 -0.097437292 -0.003600715 0
-0.0097916434 -0.097367503 -0.0016865182 0
-0.0098237349 -0.097322725 0.0014357095 0
-0.0092581967 -0.097816773 0.0036606833 0
-0.007114775 -0.097486839 -0.0069633676 0
-0.0085161943 -0.097512655 -0.0051838499 0
-0.0086921733 -0.097131819 0.00491443 0
-0.0070559522 -0.097633556 0.0070163007 0
-0.003740025 -0.097718023 -0.0092246365 0
-0.0052445922 -0.09767814 -0.0084681027 0
-0.0050474941 -0.097508609 0.0085976236 0
-0.0035548226 -0.09750928 0.0093025109 0
-0.001908334 -0.097712256 -0.009760513 0
-0.0014547812 -0.097376972 0.0098246718 0
3.4188304e-08 -0.097331077 -0.0094439564 0
2.6818043e-08 -0.097328998 -0.007407967 0
1.6545444e-08 -0.097442821 -0.0045702243 0
5.8022294e-09 -0.09751074 -0.0016024772 0
-5.3345248e-09 -0.097252287 0.0014739817 0
-1.7140042e-08 -0.097494766 0.0047351844 0
-2.7943274e-08 -0.097556539 0.0077195107 0
-3.4252682e-08 -0.097827643 0.0094624469 0
-0.0092777768 -0.094393514 -0.0036129968 0
-0.0098461937 -0.094634496 -0.0012671006 0
-0.0098037254 -0.094673142 0.0015739402 0
-0.0093196444 -0.094488256 0.0035131946 0
-0.0070154998 -0.094475634 -0.0070671029 0
-0.0085622855 -0.094611391 -0.0051157256 0
-0.0084397616 -0.09475781 0.0052973214 0
-0.0069096535 -0.094440088 0.0071681216 0
-0.0036139111 -0.094408132 -0.0092771938 0
-0.0051663774 -0.094417788 -0.0085156551 0
-0.0052601057 -0.094681658 0.008468464 0
-0.003737608 -0.094070263 0.009226338 0
-0.00160288 -0.094451919 -0.0097977202 0
-0.0015885948 -0.094356462 0.0098058125 0
3.4074272e-08 -0.094736658 -0.0094124656 0
2.7434453e-08 -0.094484083 -0.0075782565 0
1.6194274e-08 -0.094542578 -0.0044732261 0
5.7798371e-09 -0.094512083 -0.0015963023 0
-5.2444329e-09 -0.094167545 0.0014490832 0
-1.668405e-08 -0.094571576 0.0046092086 0
-2.7444292e-08 -0.094475865 0.0075816587 0
-3.4659347e-08 -0.094617151 0.0095747747 0
-0.0092759235 -0.091586873 -0.0036174555 0
-0.0097991014 -0.091503575 -0.0016413049 0
-0.0098174484 -0.091284215 0.0014988913 0
-0.0092797261 -0.091130152 0.0036089872 0
-0.0070818425 -0.091681264 -0.0069844974 0
-0.0085824942 -0.091532245 -0.0050648842 0
-0.0084486045 -0.091432542 0.0052833422 0
-0.0069950768 -0.091604657 0.0070908498 0
-0.0036448664 -0.09139584 -0.009264308 0
-0.0052431673 -0.091635086 -0.0084579783 0
-0.0051571829 -0.091474727 0.0085282745 0
-0.0036695781 -0.091567956 0.0092546754 0
-0.0013249336 -0.091227986 -0.0098402882 0
-0.0013058846 -0.091801189 0.0098422412 0
3.4389704e-08 -0.091710225 -0.0094996123 0
2.7267859e-08 -0.091266617 -0.0075322483 0
1.7036539e-08 -0.091583878 -0.0047059078 0
4.9489484e-09 -0.091783173 -0.0013667843 0
-5.9743233e-09 -0.091210358 0.0016507002 0
-1.6009361e-08 -0.091757275 0.0044228197 0
-2.6995938e-08 -0.091360629 0.0074577923 0
-3.3641836e-08 -0.091102615 0.0092936801 0
-0.0093028415 -0.088459693 -0.0035528617 0
-0.0098044807 -0.088625543 -0.0016350807 0
-0.0097954161 -0.088631645 0.0016723744 0
-0.0092171123 -0.088491738 0.0037592512 0
-0.0069493656 -0.088409409 -0.007111955 0
-0.0084538823 -0.088184401 -0.0052746339 0
-0.0084320325 -0.088576011 0.0053118258 0
-0.0069205887 -0.088481501 0.007141761 0
-0.0037825415 -0.088462219 -0.0092069535 0
-0.0051175221 -0.08861398 -0.0085542668 0
-0.0052147727 -0.088300131 0.0084836008 0
-0.0036523258 -0.088370353 0.0092618521 0
-0.0013740669 -0.088542826 -0.0098351575 0
-0.0015417211 -0.088406004 0.0098162079 0
3.457027e-08 -0.087979846 -0.009549506 0
2.6804702e-08 -0.088409871 -0.0074043144 0
1.6124975e-08 -0.088648915 -0.0044541042 0
5.6905214e-09 -0.088549465 -0.0015716511 0
-5.6068621e-09 -0.088660479 0.0015491821 0
-1.6671004e-08 -0.088532507 0.0046055829 0
-2.718072e-08 -0.088434897 0.0075088264 0
-3.4423529e-08 -0.088003576 0.0095096063 0
-0.0092212195 -0.086062029 -0.0037487631 0
-0.0097914152 -0.08575175 -0.0017090312 0
-0.0097788358 -0.085666388 0.0017956197 0
-0.0092677968 -0.085597925 0.0036375939 0
-0.0069570234 -0.085264906 -0.0071155308 0
-0.0085665435 -0.085857213 -0.0051008966 0
-0.008528037 -0.085443117 0.0051588584 0
-0.0071090092 -0.085639849 0.006979275 0
-0.0035149558 -0.085616626 -0.0093184579 0
-0.0051298882 -0.085595392 -0.0085480325 0
-0.005024611 -0.085839815 0.0086066378 0
-0.0036711085 -0.085667118 0.009254016 0
-0.0012381892 -0.085495368 -0.0098520853 0
-0.0016099436 -0.085664913 0.0097977426 0
3.4386147e-08 -0.085568011 -0.0094986511 0
2.7190364e-08 -0.085585169 -0.0075108609 0
1.5400397e-08 -0.085518219 -0.0042539556 0
5.4191793e-09 -0.085308298 -0.001496706 0
-5.7888987e-09 -0.085731879 0.001599458 0
-1.6582215e-08 -0.085472442 0.004581044 0
-2.675727e-08 -0.085169807 0.0073918393 0
-3.4345288e-08 -0.085455038 0.0094879838 0
-0.0092718881 -0.082651407 -0.0036271731 0
-0.0098308763 -0.082335509 -0.0014282523 0
-0.0098348651 -0.082594723 0.0013549253 0
-0.0092705861 -0.082510084 0.00363089 0
-0.0072848741 -0.082364745 -0.0067741387 0
-0.0085597765 -0.082679003 -0.0051315003 0
-0.0086273523 -0.082738623 0.005010087 0
-0.0070438981 -0.082551047 0.0070147817 0
-0.0036143686 -0.082791813 -0.0092770467 0
-0.0053755729 -0.082292393 -0.0083862459 0
-0.0050867787 -0.082376137 0.0085848151 0
-0.0035766088 -0.082786478 0.009293383 0
-0.0015846285 -0.082501605 -0.0098088831 0
-0.0017107202 -0.082286 0.0097902454 0
3.4432148e-08 -0.082783014 -0.0095113693 0
2.6680466e-08 -0.082631811 -0.0073700156 0
1.5975612e-08 -0.08229924 -0.0044128667 0
5.4761911e-09 -0.082267456 -0.0015124663 0
-5.7636584e-09 -0.082394242 0.0015924735 0
-1.5708173e-08 -0.082517095 0.0043395846 0
-2.6940203e-08 -0.082259551 0.0074423631 0
-3.4772583e-08 -0.082229525 0.0096060103 0
-0.0092226174 -0.079374231 -0.0037454348 0
-0.0098182959 -0.079371907 -0.0015392305 0
-0.0098306863 -0.079470351 0.0014181589 0
-0.0092681833 -0.079537526 0.0036366479 0
-0.006896121 -0.079212613 -0.0071648494 0
-0.0084782774 -0.079518028 -0.0052251588 0
-0.0085223848 -0.079586044 0.0051608691 0
-0.0069440464 -0.079338178 0.0071035172 0
-0.0037857424 -0.079792842 -0.0092056533 0
-0.0053129909 -0.079556361 -0.0084265349 0
-0.0051466669 -0.079537503 0.0085324449 0
-0.0035753055 -0.079561867 0.0092939129 0
-0.0015156477 -0.079654127 -0.0098100053 0
-0.0016523272 -0.079440013 0.009794998 0
3.4058811e-08 -0.079727039 -0.0094082486 0
2.8029381e-08 -0.079299659 -0.0077426573 0
1.5699465e-08 -0.079497442 -0.0043365927 0
6.0777907e-09 -0.07957752 -0.0016786641 0
-5.4285434e-09 -0.079266563 0.0014998887 0
-1.7284254e-08 -0.079439387 0.0047749565 0
-2.7891621e-08 -0.079627447 0.0077051772 0
-3.4659923e-08 -0.079206184 0.0095748771 0
-0.0092481943 -0.076086566 -0.0036840606 0
-0.0098025948 -0.07647296 -0.0016348932 0
-0.0098147588 -0.076471291 0.0015693067 0
-0.0091966251 -0.076492757 0.0038083794 0
-0.0069479588 -0.076552644 -0.0071097822 0
-0.0085836248 -0.076557577 -0.0050994707 0
-0.0085768113 -0.076670915 0.005075519 0
-0.0070974347 -0.076594703 0.006987683 0
-0.0037373281 -0.076667078 -0.009225837 0
-0.0050598886 -0.076608941 -0.0086004315 0
-0.0051369001 -0.076192491 0.0085405782 0
-0.0035402437 -0.076616108 0.0093085105 0
-0.0014850189 -0.076712154 -0.0098158102 0
-0.0016285307 -0.076546974 0.0098075764 0
3.4543056e-08 -0.076307282 -0.0095420303 0
2.7770652e-08 -0.076311618 -0.0076711955 0
1.73786e-08 -0.076664753 -0.0048004538 0
5.4719624e-09 -0.076785319 -0.0015113179 0
-5.8029963e-09 -0.076315098 0.0016033183 0
-1.6768142e-08 -0.076411992 0.0046323729 0
-2.6697958e-08 -0.076357476 0.0073754229 0
-3.366787e-08 -0.076239735 0.0093008177 0
-0.0092888772 -0.07299298 -0.0035864331 0
-0.009817767 -0.073580101 -0.0015592714 0
-0.009787403 -0.073199444 0.0017045335 0
-0.0092457635 -0.073526457 0.0036904349 0
-0.0071282499 -0.073503062 -0.0069389706 0
-0.0085972985 -0.073313542 -0.0050508035 0
-0.0085595623 -0.073417015 0.0051131514 0
-0.0070025483 -0.073427111 0.0070618358 0
-0.0037100981 -0.073544048 -0.0092371916 0
-0.0054588551 -0.073084369 -0.0083422661 0
-0.0051698731 -0.073656976 0.0085265078 0
-0.0037818484 -0.073429242 0.0092078289 0
-0.0017360442 -0.0736247 -0.0097817192 0
-0.0017096426 -0.073338278 0.0097934501 0
3.4361356e-08 -0.073772065 -0.009491846 0
2.7212563e-08 -0.073309578 -0.0075170374 0
1.6172555e-08 -0.073268339 -0.0044673034 0
5.1657647e-09 -0.073695891 -0.0014267439 0
-5.4293556e-09 -0.07310202 0.0015000907 0
-1.6515356e-08 -0.073366553 0.0045625311 0
-2.6936643e-08 -0.073412217 0.0074413479 0
-3.4474933e-08 -0.073937893 0.0095237559 0
-0.009576506 -0.069587208 -0.0097385636 0
-0.0097721675 -0.069665924 -0.0075381654 0
-0.0095536094 -0.070200354 -0.0042032283 0
-0.0098650213 -0.070777856 -0.001305869 0
-0.0098707955 -0.070593968 0.0014622326 0
-0.0096468739 -0.069982149 0.0043175225 0
-0.0099177742 -0.069538288 0.0073006316 0
-0.0096320407 -0.069728881 0.0096966336 0
-0.0075119128 -0.069754466 -0.0097466987 0
-0.0075331465 -0.070452273 -0.0074309977 0
-0.0084778285 -0.071002044 -0.0052523827 0
-0.0086404672 -0.071013525 0.0051249256 0
-0.0074343393 -0.070447408 0.0072420943 0
-0.0074693663 -0.069782875 0.0097282082 0
-0.0040269834 -0.070226118 -0.0096117808 0
-0.004967188 -0.07098908 -0.00867844 0
-0.0051749153 -0.070453495 0.0085484413 0
-0.004546185 -0.069986805 0.009685806 0
-0.0016314753 -0.070383452 -0.0098775346 0
-0.0014822653 -0.070631467 0.0098698242 0
3.4578939e-08 -0.070516422 -0.0095519638 0
2.7829957e-08 -0.070438005 -0.0076875994 0
1.6191647e-08 -0.070499472 -0.0044725877 0
5.3246532e-09 -0.070603661 -0.0014706472 0
-5.3523928e-09 -0.070146948 0.0014788194 0
-1.6173978e-08 -0.070818007 0.0044682184 0
-2.6912064e-08 -0.070468239 0.0074345474 0
-3.4595143e-08 -0.070273109 0.0095569491 0
-0.0098735886 -0.0674292 -0.0096755289 0
-0.00999997 -0.067373767 -0.0077211699 0
-0.0099999839 -0.067217395 -0.0044769202 0
-0.0099999914 -0.067522302 -0.0015126725 0
-0.010000003 -0.067096278 0.0013624961 0
-0.010000015 -0.067539476 0.0044203387 0
-0.010000026 -0.067562036 0.0074110599 0
-0.009739982 -0.067263849 0.0097357901 0
-0.007516738 -0.067467511 -0.0099997818 0
-0.0075321095 -0.067472525 0.010000215 0
-0.0044619655 -0.067590542 -0.0099997679 0
-0.0045866333 -0.067517377 0.010000226 0
-0.0015566351 -0.067424208 -0.0099997604 0
-0.0013911366 -0.067512259 0.010000237 0
3.4118067e-08 -0.067457698 -0.0094246622 0
2.6495911e-08 -0.067636319 -0.0073190876 0
1.6030699e-08 -0.06759239 -0.0044281376 0
5.7431748e-09 -0.067530587 -0.0015862723 0
-5.5562315e-09 -0.067472413 0.001535119 0
-1.6370217e-08 -0.067364164 0.0045224158 0
-2.8085271e-08 -0.067249775 0.0077586267 0
-3.4155555e-08 -0.067146465 0.0094355047 0
-0.013516793 -0.063445956 -0.013508437 0
-0.013256374 -0.063477047 -0.010511876 0
-0.013689267 -0.063475192 -0.0073379888 0
-0.013824115 -0.063465625 -0.0046766549 0
-0.013511201 -0.063470997 -0.0016587735 0
-0.013814168 -0.063483484 0.001390202 0
-0.014194866 -0.063422129 0.0043844134 0
-0.013568294 -0.063461334 0.0077072992 0
-0.013608965 -0.063461252 0.010380664 0
-0.013597154 -0.063435085 0.013599863 0
-0.01057017 -0.063475855 -0.013413497 0
-0.010190542 -0.064018451 -0.010310942 0
-0.010580052 -0.064011693 -0.007185691 0
-0.010458281 -0.064187609 -0.0044689276 0
-0.010508036 -0.064027146 -0.0011184159 0
-0.010496439 -0.064125814 0.0014626421 0
-0.010285819 -0.064402722 0.0046043219 0
-0.010325779 -0.064372346 0.0072932588 0
-0.010338791 -0.063852958 0.010318285 0
-0.010547438 -0.063438289 0.01395888 0
-0.0076919147 -0.063462816 -0.014037888 0
-0.0075488947 -0.064266384 -0.010290843 0
-0.0073820301 -0.064205237 0.010474147 0
-0.0075521939 -0.063460834 0.013758456 0
-0.0043360656 -0.063468285 -0.013548767 0
-0.0044827741 -0.0640876 -0.010462701 0
-0.0045577921 -0.064121246 0.010462352 0
-0.0044481722 -0.063448571 0.013656723 0
-0.0014643422 -0.063477367 -0.013543582 0
-0.0016486967 -0.063945375 -0.01051723 0
-0.001470941 -0.064250655 0.010451193 0
-0.0015572165 -0.063459292 0.013764241 0
0.0014488415 -0.063446008 -0.013807459 0
0.0012519241 -0.063751593 -0.010174892 0
0.00080223224 -0.063981652 -0.0075714663 0
0.0010911236 -0.063899696 -0.0046392255 0
0.00086998951 -0.063999444 -0.0014409214 0
0.00095563912 -0.063973926 0.0015784182 0
0.00090234342 -0.064107254 0.0043248008 0
0.00074061652 -0.064081624 0.0074733822 0
0.0013007621 -0.063647471 0.010568155 0
0.0013536508 -0.063479908 0.013450598 0
0.004036766 -0.063437134 -0.013373114 0
0.0040355846 -0.063495643 -0.010323462 0
0.0040653697 -0.063459963 -0.0076387729 0
0.0041538537 -0.063432381 -0.0046466729 0
0.0041452777 -0.063446373 -0.0015688317 0
0.0040285969 -0.063480966 0.0014164803 0
0.0042042765 -0.063391745 0.0046335794 0
0.0040799123 -0.063478775 0.0073678521 0
0.0041340725 -0.063462339 0.010928936 0
0.0041858507 -0.063412778 0.013349363 0
-0.014284886 -0.061526775 -0.014025222 0
-0.014899964 -0.061432008 -0.010183749 0
-0.014899974 -0.061398942 -0.0077302651 0
-0.014899984 -0.061461922 -0.0043753623 0
-0.014899994 -0.061685834 -0.0016080447 0
-0.014900004 -0.061464347 0.0016446413 0
-0.014900015 -0.061549757 0.0043466371 0
-0.014900029 -0.061214294 0.0074989968 0
-0.014900037 -0.061374694 0.010557537 0
-0.014093819 -0.061394852 0.014192661 0
-0.010753891 -0.061675817 -0.014899815 0
-0.01049548 -0.06164756 0.014900188 0
-0.0074757999 -0.061671946 -0.014899804 0
-0.007432756 -0.061527152 0.014900194 0
-0.0046067401 -0.061478548 -0.014899796 0
-0.0047490848 -0.061302323 0.014900204 0
-0.001407047 -0.061420005 -0.014899788 0
-0.0013668789 -0.061484654 0.014900219 0
0.0013182475 -0.061546549 -0.014899775 0
0.0012470495 -0.061355963 0.014900226 0
0.0045904419 -0.061398298 -0.013856525 0
0.004900035 -0.061317585 -0.010236762 0
0.0049000261 -0.061491635 -0.0076225675 0
0.0049000168 -0.061526947 -0.0045433268 0
0.0049000024 -0.061799094 -0.0015981563 0
0.0048999921 -0.0615458 0.0017498108 0
0.0048999814 -0.061591208 0.0045813685 0
0.0048999712 -0.061534554 0.0076795937 0
0.0048999609 -0.061584216 0.010327303 0
0.0045105722 -0.061549112 0.013951476 0
-0.014313826 -0.058584351 -0.014028844 0
-0.01489996 -0.058448903 -0.01075706 0
-0.014899972 -0.058776274 -0.0073592965 0
-0.014899983 -0.058595039 -0.0045370939 0
-0.014899996 -0.058298904 -0.0013903222 0
-0.014900007 -0.058609843 0.0017239839 0
-0.014900018 -0.058389723 0.0046005473 0
-0.014900034 -0.058550637 0.0076353499 0
-0.014900039 -0.058575317 0.010607162 0
-0.014341394 -0.058374442 0.014160189 0
-0.010845582 -0.058357846 -0.014899827 0
-0.010427772 -0.058666337 0.014900174 0
-0.0075024473 -0.058520224 -0.014899817 0
-0.0073155528 -0.058366872 0.014900189 0
-0.0045082583 -0.058362 -0.014899805 0
-0.0043583438 -0.058536019 0.014900198 0
-0.0017546213 -0.058565207 -0.014899793 0
-0.0013285881 -0.058464266 0.01490021 0
0.0013654663 -0.058584739 -0.014899787 0
0.0016383433 -0.058644414 0.014900217 0
0.0046205353 -0.058448546 -0.013908396 0
0.0049000364 -0.058665976 -0.010525389 0
0.0049000252 -0.058218654 -0.0073785121 0
0.004900014 -0.058526184 -0.0045303493 0
0.0049000033 -0.058707505 -0.0015976337 0
0.0048999931 -0.058434118 0.0015061325 0
0.004899981 -0.058664471 0.0047670114 0
0.0048999717 -0.058570471 0.0072992151 0
0.0048999609 -0.05849215 0.010588549 0
0.0046003629 -0.058481805 0.014034069 0
-0.014299565 -0.055628184 -0.014088489 0
-0.014899965 -0.055453252 -0.010340022 0
-0.014899973 -0.05556459 -0.0076556066 0
-0.014899984 -0.055323713 -0.004500418 0
-0.014899993 -0.055371489 -0.0015495146 0
-0.014900008 -0.055727426 0.0017508162 0
-0.014900016 -0.055557251 0.0045611137 0
-0.01490003 -0.055332519 0.007532353 0
-0.014900038 -0.055617437 0.010632278 0
-0.0143174 -0.055383585 0.014043449 0
-0.01034468 -0.055272993 -0.014899836 0
-0.010605411 -0.055358667 0.014900161 0
-0.0074207471 -0.055530362 -0.014899827 0
-0.0073626046 -0.055454962 0.014900173 0
-0.0043191239 -0.055150446 -0.014899815 0
-0.0044917469 -0.055597879 0.014900191 0
-0.0016065957 -0.055224743 -0.014899804 0
-0.0014233404 -0.055729989 0.014900203 0
0.0015614867 -0.05543853 -0.014899795 0
0.0013786447 -0.05579761 0.014900208 0
0.0044920091 -0.05543856 -0.014116768 0
0.0049000373 -0.055400278 -0.010675578 0
0.0049000261 -0.055514406 -0.0075110747 0
0.004900015 -0.055453558 -0.0045377314 0
0.0049000038 -0.05560891 -0.0014031555 0
0.004899994 -0.055543717 0.0013315664 0
0.0048999814 -0.055513501 0.0045029521 0
0.004899974 -0.055499818 0.0072488743 0
0.00489996 -0.05541024 0.010570966 0
0.0044243382 -0.055554558 0.014096687 0
-0.013993751 -0.052431352 -0.014356334 0
-0.014899964 -0.052415323 -0.010586443 0
-0.014899972 -0.052177146 -0.0076043364 0
-0.014899986 -0.05275232 -0.0044732392 0
-0.014899993 -0.052478813 -0.0014165331 0
-0.014900004 -0.052557699 0.0015313081 0
-0.014900018 -0.052506343 0.0046495991 0
-0.014900031 -0.052449923 0.0075279819 0
-0.014900039 -0.052487351 0.010278285 0
-0.014122635 -0.052688476 0.014214307 0
-0.010579772 -0.05231411 -0.014899849 0
-0.010561195 -0.05248509 0.014900151 0
-0.0075149881 -0.052720103 -0.01489984 0
-0.0074934373 -0.052551806 0.014900164 0
-0.0042478545 -0.052423008 -0.014899829 0
-0.00460329 -0.052810784 0.014900175 0
-0.0016715369 -0.052733812 -0.014899815 0
-0.001497503 -0.052602056 0.014900184 0
0.0016814056 -0.052691355 -0.014899805 0
0.0014010274 -0.052493192 0.014900194 0
0.0045414902 -0.05253455 -0.01399943 0
0.0049000373 -0.052437212 -0.010709273 0
0.0049000247 -0.052546885 -0.0074022552 0
0.004900015 -0.052479487 -0.0045355232 0
0.0049000052 -0.052513912 -0.0013623742 0
0.0048999926 -0.052680556 0.0016142366 0
0.0048999819 -0.052383248 0.0046766568 0
0.0048999712 -0.052496985 0.007614674 0
0.0048999619 -0.052776661 0.01045684 0
0.0044487752 -0.052788526 0.014207295 0
-0.014180296 -0.049620498 -0.013961273 0
-0.014899964 -0.049352229 -0.010699282 0
-0.014899972 -0.049327876 -0.0075165834 0
-0.014899983 -0.04980677 -0.0042542121 0
-0.014899998 -0.04944754 -0.0016276009 0
-0.014900007 -0.049463958 0.0014394296 0
-0.014900018 -0.049532864 0.0046534361 0
-0.01490003 -0.049589228 0.0072335606 0
-0.01490004 -0.049786825 0.010467411 0
-0.014240138 -0.049491439 0.014133304 0
-0.010804951 -0.049561318 -0.014899865 0
-0.010349068 -0.049731892 0.014900144 0
-0.0074858065 -0.049317349 -0.01489985 0
-0.0076413443 -0.049305469 0.014900151 0
-0.0045081163 -0.049536493 -0.014899839 0
-0.004542368 -0.049444191 0.014900163 0
-0.0014695892 -0.049579639 -0.014899829 0
-0.0016618093 -0.04930247 0.014900173 0
0.0013063365 -0.049275547 -0.014899818 0
0.0014769855 -0.049259048 0.014900186 0
0.0045082448 -0.049518313 -0.014071345 0
0.0049000373 -0.049415957 -0.010573631 0
0.0049000252 -0.049453259 -0.0074012238 0
0.0049000154 -0.049655188 -0.0046944455 0
0.0049000066 -0.049528878 -0.0015646341 0
0.0048999917 -0.049607575 0.0016356799 0
0.0048999824 -0.049636912 0.0044409349 0
0.0048999707 -0.049447179 0.007587417 0
0.0048999605 -0.049216382 0.010708772 0
0.0044809743 -0.049316905 0.014061157 0
-0.01410434 -0.046611488 -0.014199186 0
-0.014899963 -0.046650507 -0.010248213 0
-0.014899973 -0.046355553 -0.0076555726 0
-0.014899986 -0.046606865 -0.0044523636 0
-0.014899993 -0.046343483 -0.0014298805 0
-0.014900005 -0.046686709 0.0016362683 0
-0.014900016 -0.046459649 0.0045005917 0
-0.014900028 -0.046438802 0.0075645582 0
-0.014900038 -0.046440013 0.010697796 0
-0.014336569 -0.046345349 0.014025344 0
-0.010304644 -0.046584446 -0.01489987 0
-0.010543365 -0.046298966 0.014900131 0
-0.0074677691 -0.046462309 -0.014899862 0
-0.0075124861 -0.046386123 0.014900142 0
-0.0045115286 -0.046342313 -0.014899853 0
-0.0044804853 -0.04651951 0.014900154 0
-0.0015663425 -0.046801664 -0.014899837 0
-0.0014670565 -0.046478275 0.014900162 0
0.001227651 -0.046248689 -0.014899828 0
0.00150301 -0.046648424 0.014900173 0
0.0045280657 -0.046496071 -0.014051274 0
0.0049000354 -0.046420701 -0.010317656 0
0.0049000257 -0.046566557 -0.0076140594 0
0.0049000126 -0.04648238 -0.0041412464 0
0.0049000033 -0.046456024 -0.0014467753 0
0.004899994 -0.046321843 0.0014485144 0
0.0048999828 -0.046539169 0.0044820397 0
0.0048999707 -0.046685033 0.0074055116 0
0.0048999586 -0.046547193 0.010531611 0
0.0043824324 -0.046479937 0.014076502 0
-0.014263202 -0.043479875 -0.01412023 0
-0.014899964 -0.043398604 -0.010317616 0
-0.014899975 -0.043307625 -0.0073785456 0
-0.014899986 -0.043612339 -0.0045073223 0
-0.014899994 -0.043302909 -0.0014227598 0
-0.014900006 -0.043590117 0.00134729 0
-0.014900016 -0.043236297 0.0044398713 0
-0.01490003 -0.043665145 0.0073693055 0
-0.014900039 -0.043398332 0.010361631 0
-0.014141935 -0.043645542 0.014280849 0
-0.01025418 -0.043429703 -0.014899879 0
-0.010223614 -0.043284237 0.014900119 0
-0.00726764 -0.043566871 -0.014899872 0
-0.0073389132 -0.043356415 0.01490013 0
-0.0046218643 -0.04367153 -0.014899857 0
-0.0047620717 -0.043403283 0.014900139 0
-0.001469514 -0.043424204 -0.014899849 0
-0.0014763265 -0.04360595 0.014900151 0
0.0014484103 -0.043497946 -0.014899837 0
0.0013070913 -0.043280117 0.014900165 0
0.0044086231 -0.043395065 -0.014164723 0
0.0049000359 -0.043741088 -0.010263389 0
0.0049000247 -0.043453217 -0.0073818411 0
0.0049000154 -0.043390926 -0.0044503147 0
0.0049000033 -0.043642081 -0.0014521702 0
0.0048999921 -0.043248098 0.0018117109 0
0.0048999819 -0.043547593 0.0046182591 0
0.0048999707 -0.043602634 0.0074026077 0
0.00489996 -0.043404732 0.01042246 0
