# .PCD v0.7 - Point Cloud Data file format
VERSION 0.7
FIELDS x y z
SIZE 4 4 4
TYPE F F F
COUNT 1 1 1
WIDTH 1252
HEIGHT 1
VIEWPOINT 0 0 0 1 0 0 0
POINTS 1252
DATA ascii
-0.0091487868 -0.11977755 0.0016216915
-0.0093109664 -0.12049165 0.0024567193
-0.0070060967 -0.11855158 -0.0070683202
-0.0085746972 -0.11851985 -0.0050854166
-0.0085882833 -0.11854934 0.0050530466
-0.0068909288 -0.11862613 0.0071642548
-0.0034741953 -0.11862889 -0.0093357461
-0.0049245507 -0.11888217 -0.0086625339
-0.004843567 -0.12205967 0.008461345
-0.0038345272 -0.1187682 0.0091856197
-0.0011805444 -0.11826767 -0.0098559391
-0.0017668551 -0.11859445 0.0097809061
4.1568862e-10 -0.11836458 -0.0095098419
0.00057013443 -0.12162868 -0.0073161083
2.0299119e-10 -0.11854281 -0.0046438924
0.00097570318 -0.12369587 -0.0018684848
-6.6526624e-11 -0.1186673 0.0015219572
5.5392433e-05 -0.12173402 0.0042852233
-3.3360048e-10 -0.1186754 0.0076318951
-4.2025006e-10 -0.1179461 0.0096142069
-0.0092190811 -0.11562052 -0.0037542009
-0.0076707453 -0.1192308 -0.0015457504
-0.0098154461 -0.11585264 0.0015322192
-0.0092852842 -0.11536162 0.0035953207
-0.0071549937 -0.11556926 -0.0068982039
-0.0085287411 -0.11838248 -0.0051315334
-0.0085055288 -0.11555256 0.005183218
-0.0070097423 -0.11540264 0.0070512192
-0.0038818719 -0.12399659 -0.0077852937
-0.0050188941 -0.11557468 -0.0086170407
-0.0052614096 -0.11508594 0.0084488876
-0.0036166077 -0.115872 0.009276418
-0.00082525611 -0.12056888 -0.0093244817
-0.0020265875 -0.11888709 0.0094123436
4.1623593e-10 -0.11565856 -0.0095223645
-0.00014513251 -0.11790415 -0.0068032625
1.9764011e-10 -0.1155709 -0.0045214738
-0.00012201196 -0.11597865 -0.0010120264
-6.0494193e-11 -0.11560974 0.0013839511
-4.360515e-06 -0.11570168 0.0044274614
-0.00027084479 -0.11635023 0.007240653
0.00031527606 -0.12710772 0.0082704313
-0.0093122618 -0.11210673 -0.0035305668
-0.0098157581 -0.11268982 -0.0015450021
-0.0098231612 -0.11242782 0.0014843799
-0.0092979912 -0.11271906 0.0035648248
-0.006714737 -0.11411677 -0.0071738493
-0.0085264258 -0.11759473 -0.004690445
-0.0082049742 -0.11441698 0.0051041972
-0.0068185171 -0.11267072 0.0072392942
-0.0036553212 -0.11203999 -0.0092602773
-0.0048519834 -0.11478759 -0.008413408
-0.0053109806 -0.1124436 0.0084354766
-0.0038741399 -0.11777638 0.0083403215
0.00053195027 -0.11587745 -0.0098031079
-0.00064835581 -0.11510639 0.0094123716
4.0888529e-10 -0.11259115 -0.0093542011
2.9218045e-10 -0.11548707 -0.0066843047
1.9066861e-10 -0.11252166 -0.0043619843
-0.00065579382 -0.11761686 -0.0011180505
-4.2460251e-11 -0.11460372 0.00097138243
-2.0246246e-10 -0.11255521 0.0046318066
-3.20724e-10 -0.11253598 0.0073373159
-4.1855264e-10 -0.11260957 0.0095753735
-0.0092659369 -0.10987461 -0.0036417465
-0.0095682759 -0.11034057 -0.0015163788
-0.0098091373 -0.10966722 0.001591792
-0.0092470525 -0.10943227 0.0036870781
-0.0068614567 -0.10937164 -0.0071956748
-0.0083492231 -0.11256399 -0.0053028273
-0.0084736338 -0.10959233 0.0052508945
-0.0070124096 -0.109372 0.0070364727
-0.003501418 -0.10926957 -0.0093244053
-0.0053039207 -0.10945847 -0.0084368819
-0.0052244086 -0.1092925 0.0084719993
-0.0035325179 -0.10925511 0.0093114553
-0.00077153946 -0.11270742 -0.0094359163
-0.0016417704 -0.11179748 0.0096150106
4.0739451e-10 -0.1103393 -0.0093200961
3.2929245e-10 -0.10934196 -0.0075333291
-0.0002128772 -0.11120942 -0.0040970482
-0.00018941131 -0.10998622 -0.0018200423
-7.1554249e-11 -0.10960975 0.0016369753
-1.9809868e-10 -0.10945714 0.0045319744
-5.2253788e-05 -0.11048141 0.006908101
-4.1151935e-10 -0.10970067 0.0094144708
-0.0092113009 -0.10651188 -0.0037728699
-0.0097961733 -0.10654841 -0.0016552856
-0.0098261321 -0.10646867 0.0015020041
-0.0092141414 -0.10650038 0.0037660629
-0.005114032 -0.10982547 -0.0069206217
-0.0073937085 -0.11097874 -0.0047401427
-0.008458375 -0.10631268 0.0052645043
-0.006985514 -0.10646512 0.0071131838
-0.0037835701 -0.10628346 -0.0092068398
-0.0052307718 -0.1065 -0.0084869536
-0.0032631867 -0.11553928 0.0084485412
-0.0035881472 -0.10667783 0.0092882775
-0.0012568778 -0.10650617 -0.009844373
-0.00099603948 -0.11337242 0.0093238382
4.1210418e-10 -0.10568215 -0.0094278408
3.3601097e-10 -0.10678989 -0.0076870308
0.00030176996 -0.11148442 -0.0046063052
6.0845384e-11 -0.10658951 -0.0013919757
-5.0857183e-11 -0.10630247 0.0011634815
-1.8937239e-10 -0.10666116 0.0043323403
0.002247598 -0.11304964 0.007266569
-4.1284359e-10 -0.10643388 0.0094447657
-0.0091965273 -0.10339116 -0.0038083305
-0.008207161 -0.10728136 -0.0014458597
-0.0096717868 -0.10693114 0.0012729807
-0.0040846001 -0.11410945 0.0032655576
-0.007129428 -0.10769542 -0.006602881
-0.0080959275 -0.10890234 -0.0051925532
-0.0085356524 -0.10335957 0.0051512397
-0.0067971433 -0.10588871 0.0065351874
-0.0036121951 -0.10367937 -0.009278249
-0.0050133262 -0.10338196 -0.0086315591
-0.0050749728 -0.10362528 0.0085999724
-0.0035349159 -0.1036795 0.0093104569
-0.0015443438 -0.10350607 -0.0098132938
-0.0016718891 -0.10338002 0.009795229
4.0748477e-10 -0.10362196 -0.0093221609
3.2556222e-10 -0.10324509 -0.0074479911
2.0288503e-10 -0.10334915 -0.004641464
0.0013214002 -0.10704133 -0.0013571301
-6.8612206e-11 -0.10369086 0.001569669
-0.00037192888 -0.10799601 0.004135346
-3.2204384e-10 -0.10364153 0.0073675094
-4.1020712e-10 -0.10295922 0.0093844505
-0.009259331 -0.10073901 -0.003657602
-0.0098159891 -0.10056134 -0.0015406621
-0.0098008858 -0.10049034 0.001628904
-0.0086860945 -0.10524634 0.0033862751
-0.0069946079 -0.1005398 -0.0070709558
-0.0086530475 -0.10069788 -0.0049822875
-0.005926596 -0.10539551 0.0054248478
-0.0063868421 -0.10467121 0.0071592228
-0.0036802012 -0.10212135 -0.0091578737
-0.00060663588 -0.1140663 -0.0077677965
-0.005198719 -0.10058326 0.0085032536
-0.0034274219 -0.1005464 0.0093552452
0.00024537582 -0.1041143 -0.0095833866
-0.0010487324 -0.10056295 0.009878315
4.1076859e-10 -0.10051537 -0.009397286
3.3372327e-10 -0.10043269 -0.0076346952
1.9588378e-10 -0.10065924 -0.0044812947
6.3168755e-11 -0.10338093 -0.0014451282
0.0016123764 -0.10362499 0.0014821358
-1.9310056e-10 -0.1004364 0.0044176304
-0.00020922322 -0.10241775 0.0071070516
-4.1448092e-10 -0.10072719 0.0094822235
-0.008284186 -0.10256358 -0.0037014913
-0.0098050423 -0.09763629 -0.0015689414
-0.0098260976 -0.097426817 0.0014728621
-0.0083675468 -0.10024727 0.00314069
-0.0069774408 -0.097674206 -0.007083117
-0.008508387 -0.097636506 -0.0051872521
-0.0084451307 -0.097540244 0.0053037615
-0.007121319 -0.097535402 0.0069526252
-0.0037811606 -0.097745739 -0.0092078457
-0.0052479911 -0.097574785 -0.0084665315
-0.0051704533 -0.10204538 0.0077741011
-0.0035634832 -0.097503431 0.0092985556
0.00014276708 -0.10101794 -0.0096119214
-0.0015237081 -0.09741763 0.0098208087
0.0028795383 -0.10851061 -0.0081487736
3.1568703e-10 -0.097518459 -0.0072220736
2.0736192e-10 -0.097331814 -0.0047438839
-0.00011033511 -0.099505745 -0.0017730989
-7.0336466e-11 -0.097569294 0.0016091153
0.000937854 -0.10326618 0.0046648094
-3.132774e-10 -0.098733127 0.0071669566
-4.1976222e-10 -0.097549111 0.0096030459
-0.0092346817 -0.094665922 -0.0037167601
-0.009790374 -0.094701193 -0.0017184539
-0.0098151155 -0.095495872 0.0015081682
-0.0092829764 -0.094397731 0.0036008614
-0.0068572336 -0.094592348 -0.0072253798
-0.0085095027 -0.094249524 -0.0051928498
-0.0086358218 -0.094337046 0.0050143306
-0.0070740138 -0.094420984 0.0070181107
-0.0034760835 -0.094587483 -0.009334961
-0.0052678022 -0.094546691 -0.0084686764
-0.004863841 -0.095452771 0.0084377676
-0.0034774521 -0.094447665 0.0093344003
-0.001483455 -0.094579905 -0.0098136226
-0.0016001207 -0.094353341 0.009802429
4.1062045e-10 -0.095205776 -0.0093938978
3.3239442e-10 -0.094456181 -0.0076042945
1.9738457e-10 -0.094711922 -0.0045156288
0.0019212102 -0.10032864 -0.0015444213
-6.574534e-11 -0.094229005 0.0015040822
-1.9017335e-10 -0.094711006 0.0043506636
-3.2697878e-10 -0.09452296 0.0074804076
-4.1123308e-10 -0.094212405 0.0094079208
-0.0089479163 -0.097579658 -0.0038769778
-0.0097926706 -0.091312446 -0.0016780953
-0.0098126959 -0.095375478 0.0014379703
-0.0092838248 -0.090713508 0.0035988234
-0.0070718434 -0.091639012 -0.0069939387
-0.0085663032 -0.091455474 -0.0050930534
-0.0082002413 -0.092741795 0.004934845
-0.0070560323 -0.091730565 0.0070076114
-0.003310794 -0.092517376 -0.0093114292
-0.0052284184 -0.091618553 -0.0084794629
-0.0054300977 -0.093580432 0.0080363285
-0.003688707 -0.091606885 0.0092463754
-0.0015122809 -0.096704468 -0.0094885351
-0.001724969 -0.091541559 0.0097902426
4.1873299e-10 -0.091602348 -0.0095794909
3.2048364e-10 -0.095219299 -0.0073318076
1.9703879e-10 -0.091357365 -0.0045077181
0.00059659936 -0.095118441 -0.001371913
-7.2783828e-11 -0.091225244 0.0016651039
-1.974409e-10 -0.091715708 0.0045169257
-3.2857017e-10 -0.091538236 0.0075168144
-4.165728e-10 -0.090959966 0.0095300796
-0.0092518423 -0.088546239 -0.0036755747
-0.0078830337 -0.094976768 -0.0012392026
-0.0075447895 -0.092920072 0.0015197366
-0.0092178173 -0.088359132 0.0037572403
-0.0070682722 -0.088710338 -0.006997339
-0.0084866425 -0.088837042 -0.0051781703
-0.0085508721 -0.088496946 0.0051234518
-0.0068911617 -0.088957205 0.0071659191
-0.0035764894 -0.088362984 -0.0092931269
-0.0052231858 -0.088388771 -0.0084860008
-0.0022214239 -0.099579602 0.0078586843
-0.00038205367 -0.098175921 0.0090968171
-0.0012755394 -0.088821307 -0.00964751
-0.0017263778 -0.089037448 0.0097470507
4.1305137e-10 -0.088480137 -0.0094495108
0.0024465073 -0.093359828 -0.0069664312
1.7857633e-10 -0.088535331 -0.0040853471
6.8323847e-11 -0.088641211 -0.0015630637
-6.6840602e-11 -0.088829346 0.0015291388
-1.8587065e-10 -0.088477418 0.0042522289
-3.2406608e-10 -0.088475436 0.0074137719
-4.086701e-10 -0.088774204 0.0093492866
-0.0069384137 -0.097500741 -0.0039646663
-0.007102598 -0.090216443 -0.0018834117
-0.0097994544 -0.08546003 0.0017146084
-0.0092486031 -0.085396707 0.003683354
-0.0067109196 -0.088985108 -0.0070576556
-0.0046044732 -0.09402515 -0.0044414755
-0.0085736569 -0.086065784 0.0050893817
-0.007052999 -0.085494302 0.0069963965
-0.0035575239 -0.085421659 -0.0093010282
-0.0051688035 -0.08579585 -0.0085243816
-0.0039013503 -0.094252497 0.0082010785
-0.0035539512 -0.085300371 0.0093025239
-0.0015739785 -0.085494138 -0.0098086139
-0.0016300228 -0.085359581 0.0097953789
4.1277268e-10 -0.085466087 -0.009443135
3.4219641e-10 -0.085418276 -0.0078285383
1.9124284e-10 -0.085642025 -0.004375123
-0.00033269593 -0.091085754 -0.0014685185
-6.967521e-11 -0.085619435 0.0015939869
-1.9929004e-10 -0.085439883 0.0045592287
-3.2405165e-10 -0.085405119 0.0074134418
-4.1517312e-10 -0.085754424 0.0094980579
-0.0092729628 -0.082355596 -0.0036248858
-0.0098096328 -0.08249376 -0.0015758174
-0.0096989339 -0.086521275 0.0014527288
-0.0092653008 -0.082418643 0.0036432811
-0.0063959658 -0.089282535 -0.0064612431
-0.003908677 -0.091387406 -0.0049745888
-0.0084043974 -0.082676619 0.0053650495
-0.0070480299 -0.082493655 0.0070240535
-0.0036752161 -0.082644954 -0.0092519904
-0.0033162704 -0.088105768 -0.0085705742
-0.0018965309 -0.091831766 0.007528441
-0.0035794491 -0.082363538 0.0092919013
-0.0013619873 -0.08258637 -0.0098386332
-0.0017177664 -0.082728907 0.0097850552
4.1587445e-10 -0.082463712 -0.0095140953
-0.0002647166 -0.093730323 -0.0067923241
1.9721548e-10 -0.082503937 -0.004511761
0.0018629153 -0.088704586 -0.0013501931
-0.00021048018 -0.083869636 0.0015414753
-1.8822233e-10 -0.082416937 0.0043060291
-3.2449762e-10 -0.084569149 0.0074236449
-4.2106302e-10 -0.08258386 0.0096328035
-0.0093159266 -0.079326659 -0.0035217705
-0.0088304766 -0.084203377 -0.0019518799
-0.00981298 -0.079478182 0.0015468947
-0.0092067523 -0.079838268 0.0037837951
-0.0066676647 -0.084235609 -0.0065176133
-0.0085429214 -0.078895472 -0.0051394687
-0.0085599618 -0.079122119 0.0050870003
-0.0070327516 -0.080914348 0.0067729792
-0.0036078009 -0.079114668 -0.0092800809
-0.0032745639 -0.084135912 -0.0085685104
-0.0052207978 -0.079271957 0.0084909284
-0.0035766263 -0.079758674 0.0092930775
-0.0015409837 -0.079327255 -0.0098165646
-0.0014926839 -0.079482138 0.0098213395
4.1262729e-10 -0.079707086 -0.0094398092
-0.00030839516 -0.081858732 -0.0074697239
0.0035838091 -0.086997472 -0.0040899045
6.3311481e-11 -0.079426847 -0.0014483945
0.0013626886 -0.084446274 0.0013089764
-1.9614689e-10 -0.079549864 0.0044873212
0.0015976321 -0.084591657 0.007457607
-7.0094968e-05 -0.083281726 0.0095811198
-0.0092983264 -0.076215744 -0.0035640111
-0.0097584156 -0.076470271 -0.001922469
-0.009857893 -0.076474756 0.0012188248
-0.0092464779 -0.0764222 0.0036884546
-0.0068560853 -0.077986248 -0.0070445859
-0.0041706143 -0.093338385 -0.004682736
-0.0054209903 -0.084102452 0.0046223244
-0.0071065985 -0.076255813 0.0069746701
-0.0035352637 -0.076492041 -0.0093103023
-0.0050429166 -0.076900937 -0.0086019728
-0.0051962235 -0.07683365 0.0085089719
-0.0035641675 -0.076397084 0.0092982668
-0.0015278141 -0.076249316 -0.0098180873
-0.0013445789 -0.079611726 0.0094488552
4.1315462e-10 -0.076454528 -0.0094518727
3.322711e-10 -0.076633431 -0.0076014739
0.00040948548 -0.089240961 -0.0047469209
0.0010205352 -0.087225601 -0.0016268762
-5.9624299e-11 -0.076647602 0.0013640485
0.00056846603 -0.083156727 0.0044569657
-3.2557038e-10 -0.076544277 0.0074481862
-4.1398573e-10 -0.076276973 0.009470894
-0.009258491 -0.073602371 -0.0036596176
-0.0098370034 -0.073573098 -0.0013681165
-0.0098351641 -0.075107902 0.0013211376
-0.009320179 -0.073061138 0.0035115683
-0.0062326072 -0.08376722 -0.0060255565
-0.0085257487 -0.073617578 -0.0051643765
-0.0045144535 -0.080926135 0.0054079364
-0.0069006523 -0.073259406 0.0072002569
-0.0037343234 -0.083116122 -0.0078351023
-0.0050785751 -0.079765826 -0.00744844
-0.0051345089 -0.073657505 0.0085358815
-0.0038202235 -0.073849879 0.0091915773
-0.0015727686 -0.076413065 -0.0098008066
0.00072155945 -0.079450458 0.0090945885
4.1893916e-10 -0.073780417 -0.009584209
3.2672265e-10 -0.073738642 -0.0074745403
1.9230449e-10 -0.073309369 -0.0043994109
7.0185892e-11 -0.073352285 -0.0016056629
-0.00024411143 -0.077452935 0.0015266405
-0.00035072016 -0.075287737 0.0043540234
-3.2017033e-10 -0.073496491 0.0073246476
-3.2392578e-10 -0.078130178 0.0074105617
-0.018995658 -0.069846518 -0.019440189
-0.019244133 -0.06987717 -0.01666265
-0.019305464 -0.069841325 -0.013408129
-0.019396156 -0.069862679 -0.010409281
-0.017593471 -0.079402462 -0.0074342303
-0.019510008 -0.069764629 -0.0045373803
-0.019222835 -0.069901064 -0.0014526979
-0.019366454 -0.069834016 0.0015031922
-0.018518932 -0.075385399 0.0037871085
-0.018758135 -0.070798479 0.0069280979
-0.019299248 -0.069871046 0.010511786
-0.019295864 -0.06982775 0.013381951
-0.019416776 -0.069762737 0.016503071
-0.019262807 -0.069725975 0.019247765
-0.016230945 -0.069835767 -0.019386552
-0.016211906 -0.071956716 -0.015822753
-0.016334895 -0.070000015 -0.013534769
-0.016416689 -0.07 -0.010511178
-0.016374454 -0.070737496 -0.0073382426
-0.016533304 -0.069999993 -0.0046063703
-0.016349081 -0.070000015 -0.0013776439
-0.016655248 -0.070000008 0.001398952
-0.016560022 -0.070000008 0.0042473353
-0.015382846 -0.082058363 0.0064526065
-0.016131047 -0.075483859 0.01015956
-0.016451189 -0.070000015 0.013755678
-0.013217542 -0.076296307 0.016219247
-0.015965944 -0.074587397 0.018558288
-0.013477587 -0.069859393 -0.019203298
-0.0091641536 -0.081569105 -0.015182205
-0.013193624 -0.073633425 -0.012887265
-0.013287182 -0.072933801 -0.010244861
-0.013447037 -0.070000008 -0.0075114425
-0.013437489 -0.070000015 -0.0044961376
-0.013433005 -0.069999993 -0.0016130651
-0.013488306 -0.071985699 0.001125596
-0.013709382 -0.070000008 0.0044084773
-0.013325627 -0.070312172 0.0074159601
-0.013596184 -0.069999993 0.010512321
-0.011967526 -0.075521283 0.011823758
-0.01021823 -0.076411068 0.015566276
-0.012930176 -0.073289126 0.018772505
-0.010182968 -0.070352033 -0.01840933
-0.010478403 -0.072400123 -0.015971532
-0.010304202 -0.070000008 -0.013479473
-0.010778392 -0.070000015 -0.010291176
-0.010149807 -0.075312495 -0.0069350828
-0.0081153288 -0.077576563 -0.0045403456
-0.0084740967 -0.078610301 -0.0010146163
-0.0098736975 -0.073932618 0.0014469794
-0.010185815 -0.070306517 0.0042445697
-0.0084717236 -0.073560685 0.0074931318
-0.0096448511 -0.07369563 0.010389167
-0.0083481194 -0.080009513 0.012401939
-0.010509804 -0.070000008 0.016430363
-0.01043051 -0.069792591 0.019312652
-0.0076645552 -0.072325245 -0.018840713
-0.0076166741 -0.070000015 -0.016452529
-0.0076498641 -0.070000015 -0.013896208
-0.007582556 -0.070000015 -0.010431647
-0.0063675833 -0.079287305 -0.0067398967
-0.0080763362 -0.075501703 -0.0049770731
-0.0054718717 -0.083892666 0.0043439395
-0.0075035742 -0.071520984 0.0068663121
-0.0081376564 -0.07 0.010439155
-0.0062014968 -0.076538481 0.013253964
-0.0068590273 -0.07888592 0.015034606
-0.007622038 -0.069791898 0.01936895
-0.0046590613 -0.069808416 -0.019463407
-0.0039385459 -0.075334914 -0.015363685
-0.0037672047 -0.075312503 -0.013162684
-0.0032919669 -0.074085608 -0.009756797
-0.0051113325 -0.079395816 -0.00858727
-0.0050931005 -0.070673779 0.0086795595
-0.0043343995 -0.070239507 0.01009815
-0.0042749862 -0.075003594 0.012914479
-0.0048960526 -0.070000008 0.016484482
-0.0044915993 -0.06984856 0.019363321
0.0014297934 -0.079487227 -0.017636659
-0.0015232726 -0.070000008 -0.016517552
-0.0013337334 -0.074227691 -0.013607949
-0.0016094224 -0.070414931 -0.010496238
-0.00020766718 -0.073555782 0.010286966
0.00052175665 -0.076205254 0.012309796
-0.0013933299 -0.071046613 0.015886512
-0.0014886692 -0.071784578 0.01903102
0.0013884036 -0.069811575 -0.019401472
0.0014347162 -0.069999993 -0.016600562
0.0014326166 -0.07391315 -0.013141659
0.0026458446 -0.073980153 -0.010083558
0.00072201138 -0.071025059 -0.0070112175
0.00091225799 -0.077061474 -0.0043422594
0.00098828773 -0.071828246 -0.001318755
0.0020824289 -0.078828789 0.0014332171
0.0007268592 -0.073192753 0.0044332994
0.0021621699 -0.074506886 0.007063875
0.0015007227 -0.07013616 0.010312537
0.0023983703 -0.074358962 0.013056009
0.0011968289 -0.076150537 0.015862618
0.001469526 -0.069837146 0.019321313
0.004297452 -0.069813564 -0.019264445
0.0046297857 -0.069999985 -0.016682887
0.0043716421 -0.069999993 -0.013434406
0.0044031655 -0.070000008 -0.010694752
0.0071631959 -0.079444431 -0.0072373995
0.0041987654 -0.073159762 -0.0046608052
0.0060991044 -0.076538473 -0.0012815407
0.0039373292 -0.070373081 0.00098240166
0.003790301 -0.071581125 0.0041271793
0.0045143217 -0.069999993 0.0074261245
0.0040048817 -0.071225986 0.010122756
0.0043275333 -0.070341088 0.012956906
0.0058721052 -0.074444443 0.0161011
0.00470779 -0.069926485 0.019249689
0.0073317965 -0.06979353 -0.019515008
0.0072260373 -0.070000008 -0.016542103
0.007702277 -0.069999993 -0.013498268
0.007808344 -0.070000008 -0.01047424
0.0073983925 -0.070892021 -0.0076007755
0.0074372608 -0.070000008 -0.0047125686
0.0073033259 -0.07 -0.0015606801
0.0094774943 -0.075483873 0.0013237051
0.0073660417 -0.07 0.0047725574
0.007376967 -0.070000015 0.0074065011
0.0076291324 -0.07 0.010361075
0.0073980493 -0.070000008 0.013837781
0.0075698453 -0.07 0.016518148
0.0072381622 -0.069767781 0.019360565
0.010563578 -0.069849201 -0.019368773
0.0098284688 -0.074669689 -0.01563468
0.0094612651 -0.072874472 -0.013120314
0.010714198 -0.070000015 -0.010699869
0.011273949 -0.075945362 -0.0069388957
0.010609985 -0.07 -0.0042783492
0.010517771 -0.069999993 -0.0011663741
0.01177462 -0.075312495 0.0011435833
0.010520774 -0.070000008 0.0045267902
0.0099765118 -0.07288669 0.0069545745
0.01058318 -0.07 0.010664375
0.0093256114 -0.078983232 0.012155503
0.0097258873 -0.072077744 0.016185552
0.010824547 -0.06982746 0.019403506
0.012977239 -0.07307519 -0.018449441
0.012854307 -0.074671127 -0.01596877
0.013537669 -0.070000015 -0.013412811
0.013108571 -0.071750835 -0.0099436771
0.013740359 -0.077201888 -0.0069514979
0.01469959 -0.076538481 -0.0038648967
0.01197694 -0.081178255 -0.00087367441
0.013363055 -0.070000008 0.0016026504
0.012763379 -0.069999978 0.0045295204
0.013234465 -0.070012875 0.0071184677
0.0136141 -0.070000008 0.010443402
0.013417774 -0.07 0.013485845
0.013583699 -0.076615967 0.01556208
0.013696158 -0.069800384 0.019384116
0.016380362 -0.069889203 -0.019227857
0.015873199 -0.071643129 -0.016321829
0.016184125 -0.070000015 -0.013695671
0.016536687 -0.070000015 -0.010622187
0.017111523 -0.074473672 -0.0074173263
0.016059544 -0.070756637 -0.0043316865
0.017356802 -0.074146315 -0.0017427255
0.016012492 -0.070297457 0.0016017136
0.016410125 -0.070000008 0.0043212404
0.016124446 -0.070000015 0.0075289384
0.016238254 -0.07 0.010342408
0.016334495 -0.07 0.01343393
0.015833061 -0.072305016 0.016257454
0.014553988 -0.079514019 0.018067924
0.019815424 -0.079328984 -0.018124286
0.021835778 -0.077784747 -0.015104408
0.019363079 -0.06980408 -0.013612743
0.018833591 -0.070095159 -0.0098502161
0.019290701 -0.069788791 -0.0073803975
0.01937069 -0.06979087 -0.0048071458
0.019514835 -0.069741644 -0.0017666375
0.018729899 -0.074877888 0.0018441301
0.019593757 -0.069749705 0.0046882643
0.018358996 -0.075599834 0.0074117701
0.018411774 -0.076039232 0.010426664
0.01838401 -0.073882438 0.012919566
0.016785927 -0.079598762 0.014198987
0.01806147 -0.08296679 0.016755063
-0.018999889 -0.071355306 -0.019117661
-0.016775174 -0.07315474 -0.015212011
-0.019981127 -0.067327864 -0.013545137
-0.02 -0.067460328 -0.010561744
-0.02 -0.067205593 -0.0076511679
-0.016796669 -0.074105941 -0.0041454528
-0.019999996 -0.067799419 -0.0014205818
-0.019999996 -0.067772374 0.0015761716
-0.019172411 -0.074926533 0.004095336
-0.018603442 -0.078299612 0.0070380857
-0.019999998 -0.067421399 0.01042145
-0.015870595 -0.077918537 0.012302224
-0.019999998 -0.067705557 0.016890312
-0.019555055 -0.067362629 0.019424422
-0.016561935 -0.067709014 -0.019999994
-0.016388733 -0.06741742 0.02
-0.013566113 -0.067723021 -0.019999998
-0.013274304 -0.067515001 0.020000003
-0.0089871641 -0.072737433 -0.01943925
-0.010243953 -0.069238976 0.019753007
-0.0063129319 -0.072552621 -0.019633241
-0.0074651712 -0.067399353 0.020000003
-0.0041327844 -0.072832003 -0.018815489
-0.0042654816 -0.067295231 0.02
-0.0012503807 -0.067361124 -0.019999994
-0.0018877675 -0.068300776 0.018534999
0.001508126 -0.067651756 -0.01999999
0.0016184013 -0.067416959 0.019036217
0.0047747185 -0.067202203 -0.019999994
0.0046273461 -0.070036031 0.01976732
0.0088990862 -0.072528884 -0.019337138
0.0074870111 -0.067894317 0.020000005
0.010283774 -0.067442812 -0.019999992
0.010541062 -0.067552947 0.020000003
0.013499085 -0.067563966 -0.019999998
0.013451171 -0.067663394 0.02
0.01656864 -0.067443319 -0.019999992
0.016617456 -0.067356884 0.020000003
0.019624338 -0.067390397 -0.019339858
0.019999996 -0.067346409 -0.016441146
0.019999994 -0.067371354 -0.013583289
0.02 -0.067172617 -0.010629301
0.019149441 -0.07323724 -0.0076167076
0.019191798 -0.069309369 -0.0043897359
0.022342362 -0.080792651 -0.0011490404
0.019960871 -0.072640985 0.0012866955
0.019999996 -0.067550257 0.0043335077
0.019130435 -0.073138922 0.0070989341
0.02 -0.067652196 0.010460385
0.018891139 -0.068037048 0.013063888
0.019999994 -0.067540489 0.016473889
0.018222021 -0.077658191 0.017570075
-0.019532237 -0.064619623 -0.019337555
-0.02 -0.064553387 -0.016671414
-0.02 -0.064647667 -0.013561363
-0.018455317 -0.075862408 -0.0093932664
-0.02 -0.064609639 -0.0074731479
-0.018816503 -0.068834461 -0.0038272501
-0.01965473 -0.068851337 -0.0016247706
-0.019999996 -0.064559162 0.0013459966
-0.019568535 -0.066866502 0.0040146182
-0.02 -0.064846218 0.0074108294
-0.019399606 -0.068108678 0.0099337408
-0.019999994 -0.064525105 0.013489787
-0.019374996 -0.068116792 0.016321441
-0.018689817 -0.071372703 0.018051226
-0.01389746 -0.069682673 -0.019687496
-0.015816027 -0.068182051 0.018839093
-0.013670236 -0.064401239 -0.019999994
-0.013681214 -0.064294994 0.020000005
-0.010688706 -0.064618438 -0.019999998
-0.010481529 -0.064594567 0.020000003
-0.0075084716 -0.065559573 -0.019288192
-0.0064334283 -0.06974525 0.019239562
-0.0041073151 -0.069154941 -0.019331561
-0.0044536004 -0.064550124 0.02
0.0012403168 -0.072427325 -0.019283166
-0.001629813 -0.064392172 0.020000005
0.0012390405 -0.066743381 -0.019109825
0.0012937511 -0.06728211 0.019375211
0.0045480034 -0.064488515 -0.02
0.0045065465 -0.064490952 0.020000005
0.0074711693 -0.064276211 -0.019999996
0.0062095472 -0.06501884 0.019482085
0.0095477337 -0.066223048 -0.018802321
0.010342612 -0.064321272 0.019999998
0.013642001 -0.064553574 -0.019999992
0.013442001 -0.07066229 0.019623619
0.015638269 -0.069998771 -0.019260013
0.015953276 -0.070390433 0.019254355
0.019706018 -0.06950137 -0.018383125
0.019713724 -0.068531252 -0.016286118
0.019999998 -0.064358436 -0.013430255
0.019195573 -0.064710692 -0.010771738
0.019122677 -0.069417328 -0.0073414296
0.018715285 -0.070406012 -0.0044094715
0.019983334 -0.070804909 -0.001435283
0.021047177 -0.069978371 0.0017088918
0.019999996 -0.063980125 0.0044892402
0.019999996 -0.064485416 0.0073021105
0.021733681 -0.071456023 0.0096055651
0.019999992 -0.064499252 0.013515337
0.02 -0.064192727 0.01636526
0.019344209 -0.068227187 0.01935561
-0.019347917 -0.061798025 -0.018919816
-0.020000001 -0.061249606 -0.016294496
-0.01587965 -0.07308948 -0.012236682
-0.019999992 -0.061750092 -0.010603719
-0.019999992 -0.061388072 -0.0077360426
-0.019433083 -0.064996846 -0.0044292961
-0.02 -0.0612882 -0.001342328
-0.019054351 -0.068961978 0.0012013613
-0.019999996 -0.061371554 0.0047283648
-0.019089766 -0.067586802 0.0075283619
-0.02 -0.061349537 0.010572861
-0.019455964 -0.063161269 0.013010076
-0.019428566 -0.065505125 0.016437132
-0.018630732 -0.065947101 0.018229779
-0.01641674 -0.061600532 -0.019999996
-0.016529517 -0.061448094 0.019999998
-0.013293569 -0.061711576 -0.018999994
-0.013438801 -0.061345894 0.020000001
-0.007953017 -0.06828168 -0.018808739
-0.010489539 -0.061623193 0.02
-0.0074833063 -0.062803738 -0.019294875
-0.0075169266 -0.063268803 0.019325633
-0.0046509914 -0.061665364 -0.019999996
-0.0045809699 -0.065065712 0.019719608
-0.001087173 -0.061981514 -0.019762769
-0.00060120289 -0.073555574 0.01855715
0.0039733453 -0.066779539 -0.019618357
0.0015658 -0.061388124 0.02
0.0043819263 -0.0612639 -0.019999996
0.0041909525 -0.062995747 0.019185802
0.0075597581 -0.076402523 -0.018161891
0.0089821341 -0.067776553 0.019120589
0.010644601 -0.061394263 -0.01999999
0.010108247 -0.067599148 0.019239405
0.011720435 -0.068426318 -0.0185737
0.0138094 -0.061095551 0.020000005
0.015720293 -0.062752999 -0.019122913
0.016410746 -0.061241761 0.020000001
0.019412201 -0.061633568 -0.019579759
0.018579893 -0.062774606 -0.014329201
0.019333333 -0.062681615 -0.01277395
0.019999996 -0.061308462 -0.010687855
0.019999996 -0.061647054 -0.00750991
0.02 -0.061312851 -0.0043024672
0.01990976 -0.070346676 -0.0014370921
0.019999994 -0.061340004 0.0015516101
0.02 -0.061595447 0.0044460441
0.020000001 -0.061640348 0.0076611484
0.019999998 -0.061524164 0.010155515
0.019999994 -0.061432693 0.013421889
0.019148424 -0.062394466 0.01601956
0.019169869 -0.064607754 0.019182412
-0.019053165 -0.059631325 -0.019204669
-0.015547495 -0.07052996 -0.01497726
-0.02 -0.058404297 -0.01361041
-0.017524227 -0.064767763 -0.010513568
-0.019262185 -0.060173765 -0.006422108
-0.016709516 -0.068046749 -0.0037656063
-0.019134747 -0.058498081 -0.0022485622
-0.019999992 -0.058403898 0.0013079628
-0.019213829 -0.061033294 0.0043431246
-0.019999998 -0.058731988 0.0074093393
-0.018406503 -0.06321837 0.010466218
-0.01893515 -0.06655179 0.012640218
-0.02 -0.058267709 0.016646927
-0.019467017 -0.058522057 0.019531436
-0.016610198 -0.058417529 -0.019999996
-0.016604759 -0.058482118 0.020000001
-0.013344307 -0.061882157 -0.019516096
-0.012371182 -0.062628858 0.018073907
-0.010411275 -0.061487399 -0.019685315
-0.010550268 -0.058618829 0.019999998
-0.0056326808 -0.065440305 -0.019194996
-0.0075774109 -0.058363404 0.020000003
-0.0043711225 -0.064524218 -0.019095182
-0.0044293371 -0.058575328 0.019999998
-0.0016199712 -0.058344137 -0.019999994
-0.0015671632 -0.058318343 0.019999996
0.0013008246 -0.063569359 -0.019577339
0.0013305157 -0.058586333 0.02
0.0041096113 -0.063103102 -0.019338772
0.0044284686 -0.058417939 0.020000003
0.0089024249 -0.06439735 -0.019171441
0.0075894371 -0.058542274 0.020000003
0.011454387 -0.070442513 -0.01881977
0.010668957 -0.058550104 0.020000003
0.013452447 -0.058721241 -0.02
0.012979507 -0.060889706 0.018598678
0.015240209 -0.063845322 -0.018886225
0.016645951 -0.063131221 0.019441506
0.019414019 -0.058587804 -0.01971392
0.019250602 -0.064453341 -0.015600612
0.019542582 -0.065178305 -0.013388711
0.019113025 -0.060784098 -0.010027015
0.0193356 -0.060213231 -0.0070670485
0.019517386 -0.059214212 -0.0044329176
0.019224828 -0.065464966 -0.0023245732
0.020000001 -0.058786355 0.0015712215
0.021661449 -0.066753171 0.0045762267
0.018620688 -0.065836474 0.0072298837
0.019999994 -0.058459446 0.010380661
0.019999994 -0.058320701 0.013457375
0.019999994 -0.058327552 0.01664312
0.018959645 -0.060731225 0.018915489
-0.019065591 -0.060602784 -0.019177562
-0.019999996 -0.055441324 -0.016691754
-0.02 -0.055392139 -0.013590857
-0.019487172 -0.056906302 -0.010467981
-0.019260751 -0.060308263 -0.0075957803
-0.01945582 -0.057714429 -0.0046174531
-0.019558223 -0.062489673 -0.0012724089
-0.016084256 -0.063562781 0.0012460471
-0.02 -0.055355191 0.0047735372
-0.019999992 -0.055367228 0.0072646202
-0.02 -0.055585213 0.010582338
-0.017160797 -0.063947082 0.012369099
-0.019731721 -0.05894497 0.016236432
-0.019510442 -0.055682462 0.019313142
-0.015582923 -0.059059739 -0.019416342
-0.016322566 -0.055383872 0.02
-0.013392223 -0.055504564 -0.019999992
-0.013056006 -0.062444922 0.019463325
-0.010288896 -0.055512473 -0.019999994
-0.0099125737 -0.058389153 0.019663524
-0.0073267035 -0.055857055 -0.020000001
-0.0070727686 -0.05957913 0.019087935
-0.0046764496 -0.055352937 -0.019999998
-0.0045074224 -0.058249783 0.019151656
-0.0013120055 -0.055418193 -0.019999998
-0.0002874106 -0.062015459 0.018980119
0.0011829034 -0.062896527 -0.01937617
0.0015633391 -0.055685699 0.020000003
0.0043595266 -0.055437613 -0.019999994
0.0047077355 -0.0554366 0.020000001
0.0069027017 -0.05969236 -0.019184837
0.0075577307 -0.055397559 0.02
0.010320606 -0.055498287 -0.019999996
0.010275354 -0.061154597 0.019335708
0.013586377 -0.055375375 -0.02
0.013465689 -0.055626459 0.020000001
0.016940754 -0.061697815 -0.018928574
0.016149953 -0.05715128 0.019249206
0.020075716 -0.065983273 -0.017896807
0.018857138 -0.056743577 -0.015072877
0.02 -0.056026261 -0.012148729
0.019999998 -0.055435445 -0.010571652
0.02 -0.055704627 -0.0074407854
0.019999998 -0.055588555 -0.0044497838
0.019999998 -0.055558369 -0.0014049928
0.019999996 -0.055511139 0.001505553
0.020000001 -0.055414971 0.0043182336
0.019999992 -0.055266775 0.0075365906
0.019999996 -0.0558099 0.010552096
0.019371059 -0.06309288 0.013232118
0.019347334 -0.061187543 0.015380585
0.019197198 -0.058642883 0.018940525
-0.019598469 -0.052391406 -0.019431485
-0.017880144 -0.057428356 -0.016504029
-0.01999999 -0.052464694 -0.013349137
-0.02 -0.052863806 -0.010593138
-0.02 -0.052446753 -0.0075515495
-0.02 -0.052148975 -0.004641165
-0.019999998 -0.052431662 -0.0017006299
-0.02 -0.05239312 0.0012881443
-0.019669831 -0.054254971 0.0042761434
-0.019363482 -0.057083655 0.0069161714
-0.019608127 -0.053322624 0.009971628
-0.020000001 -0.052509233 0.013223195
-0.017767493 -0.061811931 0.014540803
-0.019567925 -0.05251288 0.019427795
-0.015610626 -0.056352414 -0.018596902
-0.015061111 -0.0535434 0.018861633
-0.010522056 -0.058981683 -0.018981295
-0.013426716 -0.052900594 0.019999998
-0.0102023 -0.053539068 -0.019654915
-0.0081369886 -0.062690042 0.01863252
-0.0074653346 -0.053118955 -0.019215712
-0.0076985275 -0.052567188 0.02
-0.0043589701 -0.057669692 -0.019155277
-0.0044911047 -0.052509967 0.020000001
-0.00086817524 -0.056968883 -0.019254535
-0.00023526627 -0.059674069 0.019159123
0.0016307553 -0.052364957 -0.019999996
0.0013519753 -0.052281588 0.019999998
0.0065983227 -0.063011803 -0.018892091
0.0052748411 -0.058796998 0.019634772
0.0076057916 -0.05233144 -0.019999994
0.0075382856 -0.052685395 0.02
0.0099387923 -0.053330325 -0.019075587
0.011722846 -0.056957789 0.019386914
0.010804519 -0.0547719 -0.01806831
0.013229174 -0.053497508 0.019332806
0.017149312 -0.062391587 -0.018877907
0.015854187 -0.063561253 0.019097051
0.018826555 -0.05486628 -0.019142818
0.02 -0.052600157 -0.016626148
0.019999994 -0.052320119 -0.013394335
0.019999996 -0.052466299 -0.010395938
0.020540459 -0.061175138 -0.0066558239
0.019686928 -0.059048284 -0.0045638597
0.02 -0.052748829 -0.0014303951
0.018013135 -0.057403535 0.00072163215
0.019512188 -0.054725256 0.0044883578
0.019999996 -0.052492853 0.0075667789
0.02 -0.052583631 0.010461465
0.019068178 -0.05612779 0.012740456
0.019132318 -0.054380964 0.016213929
0.020117316 -0.056289896 0.018749407
-0.019273503 -0.051668804 -0.01917793
-0.019999996 -0.049478214 -0.016487323
-0.019448003 -0.051227748 -0.013057434
-0.020000001 -0.049656894 -0.010730538
-0.02 -0.049584791 -0.0077265757
-0.018671401 -0.056471433 -0.0037571848
-0.02 -0.049439482 -0.0012900204
-0.019058505 -0.050241824 0.0013093181
-0.019999994 -0.049669273 0.004677481
-0.018428637 -0.056571998 0.0076291263
-0.019999996 -0.049407493 0.010228934
-0.019999996 -0.049581643 0.013528453
-0.015338851 -0.062584579 0.015468481
-0.019510554 -0.049558688 0.019559272
-0.016140051 -0.049857613 -0.018999066
-0.01523667 -0.054113775 0.019683793
-0.013058187 -0.051638294 -0.019065063
-0.01305988 -0.055024698 0.019379159
-0.01023825 -0.053098515 -0.01904314
-0.010714722 -0.050280031 0.019922053
-0.0075456779 -0.049642496 -0.019999996
-0.0068223374 -0.058467172 0.018436652
-0.0045217387 -0.050387964 -0.019487992
-0.0044922763 -0.049464881 0.020000001
-0.0013373636 -0.049590159 -0.019999996
-0.0016838163 -0.05613929 0.019155735
0.0014904706 -0.049766745 -0.020000001
0.0020300669 -0.054988198 0.01972222
0.004704129 -0.049412314 -0.019999996
0.004316119 -0.056826662 0.018714517
0.0070422282 -0.050406728 -0.019660285
0.0074440194 -0.049746204 0.020000003
0.0092807282 -0.054542247 -0.019177882
0.010770136 -0.05503859 0.019307984
0.013659803 -0.049570743 -0.02
0.012447278 -0.054142427 0.018217113
0.016435521 -0.054335494 -0.019569479
0.015574886 -0.054102913 0.019604072
0.01946106 -0.049542252 -0.019557303
0.019007457 -0.056156103 -0.015902702
0.02 -0.049550902 -0.01351595
0.017846361 -0.053155404 -0.0097412737
0.019999998 -0.049417011 -0.0076618767
0.019003429 -0.052353967 -0.0038319337
0.019999994 -0.049231317 -0.0015546046
0.019869871 -0.056210294 0.001347931
0.019428236 -0.054200076 0.0046395198
0.019097267 -0.055727929 0.0074842139
0.018534523 -0.049374636 0.010673118
0.020000003 -0.04973276 0.013565251
0.019324843 -0.052039802 0.016361943
0.01893124 -0.056429025 0.018206084
-0.017161846 -0.053917594 -0.018210014
-0.019352283 -0.047208957 -0.015619363
-0.02 -0.046448421 -0.013519547
-0.02 -0.046441041 -0.010656359
-0.02 -0.046208926 -0.0071670534
-0.020000001 -0.046243872 -0.0044317301
-0.019999996 -0.046503257 -0.0014744485
-0.016777208 -0.052781038 0.0014491696
-0.019999996 -0.046577461 0.0046573752
-0.019999996 -0.046401154 0.0073542907
-0.019999994 -0.046564925 0.010416647
-0.019999996 -0.046597566 0.013778255
-0.017925333 -0.051498927 0.015980871
-0.019390961 -0.046361323 0.01966304
-0.016087232 -0.046609063 -0.019999996
-0.012484618 -0.056160394 0.018600613
-0.013327888 -0.053056713 -0.019409262
-0.013276931 -0.046563789 0.020000001
-0.010081243 -0.046546135 -0.02
-0.010444327 -0.046593685 0.02
-0.0054380693 -0.054197632 -0.019025207
-0.0055648168 -0.053952329 0.017807683
-0.0024987869 -0.052340079 -0.019107582
-0.005117517 -0.047612075 0.019870488
-0.0016579314 -0.046490468 -0.02
-0.001533961 -0.04618147 0.02
0.0016154734 -0.046336003 -0.019999992
0.0011301074 -0.04621686 0.020000005
0.0046412232 -0.046324227 -0.02
0.0040212427 -0.050860282 0.019568466
0.0068735182 -0.049420707 -0.018930865
0.0067739501 -0.047116227 0.018921429
0.01036906 -0.046692267 -0.019999994
0.0107111 -0.046531584 0.020000001
0.013217703 -0.049420986 -0.019638943
0.013166077 -0.04828202 0.019209173
0.016651418 -0.046573821 -0.020000001
0.016475415 -0.046720222 0.02
0.019246738 -0.051200457 -0.01921628
0.019999992 -0.046595741 -0.016331678
0.019721003 -0.052077964 -0.013256061
0.019514399 -0.048895903 -0.0099953329
0.019256305 -0.046877056 -0.0065755579
0.01864497 -0.047080848 -0.0039053869
0.020577906 -0.053709883 -0.0014029483
0.019403763 -0.046809681 0.0008978101
0.019949049 -0.046707876 0.0046469755
0.019026818 -0.051574644 0.0062678885
0.019123808 -0.048067287 0.010032906
0.019285034 -0.052339662 0.013236512
0.019999994 -0.046483267 0.016548496
0.018237559 -0.050814543 0.018357666
-0.018982619 -0.048004646 -0.018509017
-0.016665446 -0.053799395 -0.015973778
-0.0194529 -0.047840636 -0.012972823
-0.018823525 -0.044142518 -0.0098722465
-0.013097025 -0.062721469 -0.0044838195
-0.017606361 -0.04915477 -0.0042102695
-0.019999996 -0.043411531 -0.0014797507
-0.018948708 -0.043908007 0.001410824
-0.019999996 -0.043406948 0.0040902593
-0.019459454 -0.044398502 0.0075256657
-0.019259259 -0.046795998 0.009920503
-0.019999994 -0.043698136 0.013696295
-0.019999998 -0.043367051 0.016269499
-0.01721191 -0.049629048 0.019026089
-0.014687759 -0.045004658 -0.018917732
-0.016521608 -0.043585487 0.020000001
-0.013484418 -0.043347307 -0.019999998
-0.013118282 -0.046533808 0.019233515
-0.010323489 -0.046063364 -0.019595617
-0.008297326 -0.05003823 0.019475166
-0.0075929943 -0.04364543 -0.019999994
-0.0060070101 -0.048406571 0.019629624
-0.0049724858 -0.043542236 -0.02
-0.0056065642 -0.053371318 0.016999954
-0.0015202849 -0.04349982 -0.019999996
-0.0017332592 -0.049592294 0.019570425
0.0013836572 -0.043452371 -0.019999994
0.0010046428 -0.04512199 0.018709587
0.0046041901 -0.043646384 -0.02
0.0035105641 -0.047137719 0.018345201
0.0073335045 -0.04358083 -0.019999998
0.0071657742 -0.044927031 0.019606609
0.01084068 -0.043402564 -0.02
0.014037197 -0.059509069 0.01849452
0.013501142 -0.043503143 -0.019999996
0.013116803 -0.046054337 0.018984402
0.014993107 -0.048146103 -0.019003686
0.015226093 -0.050428141 0.017785016
0.01887347 -0.045947976 -0.018185448
0.019473678 -0.046520758 -0.015657058
0.02 -0.04331401 -0.013300363
0.02 -0.043708216 -0.010391653
0.019999996 -0.04356274 -0.0074154646
0.02 -0.043520395 -0.0044283872
0.018273391 -0.047610745 -0.0012599366
0.019386338 -0.05105349 0.0017795548
0.019999996 -0.043506116 0.0046558478
0.018925996 -0.053196467 0.0064736637
0.019267512 -0.047063287 0.010569002
0.019622169 -0.048160773 0.013135622
0.017439919 -0.045851342 0.0139003
0.018490052 -0.049553763 0.018720759
-0.018691236 -0.041388609 -0.01865433
-0.019521283 -0.044218093 -0.016264461
-0.019999996 -0.040301576 -0.013469442
-0.02 -0.040564079 -0.011060818
-0.019691274 -0.045670055 -0.0072222017
-0.020000001 -0.041548774 -0.0041461699
-0.019999994 -0.040578365 -0.0013917238
-0.019999996 -0.040586151 0.0016804084
-0.018626817 -0.044309925 0.004235575
-0.019422499 -0.046466041 0.0075875632
-0.019999996 -0.04071077 0.010553396
-0.019321181 -0.042504042 0.013472635
-0.016721454 -0.047901869 0.015213981
-0.018071275 -0.043297578 0.018898772
-0.016047567 -0.041334856 -0.019987566
-0.01602638 -0.041409906 0.019049942
-0.013235163 -0.044610072 -0.01858522
-0.013013174 -0.047312837 0.0179193
-0.010537801 -0.046973027 -0.018999031
-0.010713052 -0.040294986 0.019999998
-0.007478484 -0.040700998 -0.019999996
-0.007429929 -0.040401492 0.020000005
-0.0011163841 -0.049408346 -0.0195428
-0.0045075617 -0.041670222 0.01922947
-0.00019644041 -0.044567835 -0.018658658
-0.0011543414 -0.045345195 0.019464266
0.0009327904 -0.044924676 -0.019387618
0.0015941814 -0.040501773 0.02
0.0055474355 -0.046249229 -0.019305361
0.0044092559 -0.040435541 0.020000001
0.0074653518 -0.0409877 -0.018918915
0.0076329284 -0.040554836 0.02
0.011142045 -0.048036229 -0.018351804
0.010470375 -0.040488571 0.02
0.013529542 -0.040722687 -0.02
0.011469416 -0.050894834 0.018230435
0.015856279 -0.04126703 -0.019975603
0.015877886 -0.043110002 0.019202948
0.019441055 -0.040375091 -0.019558964
0.020075891 -0.047012545 -0.015742706
0.018988468 -0.043509822 -0.012884961
0.02 -0.040550884 -0.010633775
0.018438932 -0.041874364 -0.0077059716
0.019310342 -0.042433608 -0.0041028573
0.018479109 -0.055793572 -0.001305484
0.019325873 -0.04341105 0.0017199205
0.019999994 -0.040543396 0.0045380457
0.021290582 -0.046518929 0.0068720551
0.019600231 -0.04068967 0.010840298
0.019999994 -0.040517632 0.013575721
0.019999992 -0.040472336 0.016442828
0.019492418 -0.040382743 0.019479085
-0.017478153 -0.041815437 -0.019178957
-0.019999992 -0.037636064 -0.016583707
-0.01962449 -0.038951408 -0.013205156
-0.019121639 -0.038325906 -0.010391109
-0.018098798 -0.048056237 -0.0070104967
-0.02 -0.037660159 -0.0049515185
-0.019324332 -0.040430348 -0.001439666
-0.018837251 -0.044077598 0.0018160857
-0.02 -0.037398625 0.004341484
-0.019999996 -0.037650093 0.0074020885
-0.019999996 -0.037638754 0.010677389
-0.019999998 -0.037714086 0.013678399
-0.019946733 -0.038854372 0.015832547
-0.01857743 -0.038213614 0.019447638
-0.016581524 -0.03743697 -0.019999998
-0.016307531 -0.040002257 0.01956469
-0.013494852 -0.037463497 -0.019999992
-0.010942603 -0.048327245 0.019288352
-0.010663743 -0.03750331 -0.02
-0.010642374 -0.037552733 0.020000005
-0.0074892356 -0.037648819 -0.019999994
-0.0077062803 -0.043266296 0.01955509
-0.0044878446 -0.042322706 -0.019304903
-0.0043652202 -0.037502319 0.019999998
-0.0014925242 -0.037425753 -0.019999996
-0.00022303396 -0.038783651 0.018645134
0.0014262255 -0.0372549 -0.02
0.0030755308 -0.042944077 0.019712893
0.0037230835 -0.044183824 -0.018572859
0.0037302431 -0.045068178 0.018556003
0.0063180104 -0.04744589 -0.018477611
0.0074776933 -0.037583958 0.02
0.011674083 -0.043308042 -0.019433735
0.010668241 -0.037140533 0.020000003
0.013211063 -0.037633173 -0.018926423
0.015263421 -0.043137811 0.019250732
0.016602071 -0.037626825 -0.019999996
0.015639627 -0.039782815 0.019403292
0.018401699 -0.056378651 -0.016083339
0.019999996 -0.037190616 -0.016468558
0.021229478 -0.044078808 -0.012205386
0.018854566 -0.038867336 -0.0093312394
0.02 -0.037378367 -0.0073609655
0.020089146 -0.042605069 -0.0044048694
0.019999998 -0.03780799 -0.0014985565
0.019999996 -0.037447199 0.0016522448
0.018882234 -0.037654478 0.0040458664
0.019454679 -0.045518771 0.0066607711
0.019999996 -0.037422851 0.010457505
0.02 -0.037750278 0.013484106
0.018935712 -0.045285944 0.016107209
0.01957099 -0.038417719 0.018728068
-0.019208208 -0.036218241 -0.018998863
-0.018219706 -0.036326133 -0.016486064
-0.017983181 -0.046649747 -0.011810513
-0.017892191 -0.044167358 -0.010093467
-0.019699074 -0.037837174 -0.0071860254
-0.019730056 -0.039104126 -0.0044120103
-0.01951411 -0.038282104 -0.0012057481
-0.019524338 -0.039311215 0.0012457129
-0.018963918 -0.038108002 0.0033522968
-0.019999996 -0.034519035 0.0074227531
-0.019999994 -0.034559611 0.010489236
-0.019469809 -0.035931595 0.013355485
-0.019547379 -0.039955236 0.015574334
-0.018848529 -0.037117675 0.019216081
-0.016512422 -0.035451684 -0.01937329
-0.016457286 -0.034342647 0.019999996
-0.012747295 -0.04788395 -0.018850809
-0.013233325 -0.040172461 0.019343793
-0.01033724 -0.035821196 -0.019978436
-0.010758854 -0.035106484 0.019978536
-0.0063837715 -0.035275873 -0.018892869
-0.0072240327 -0.034917321 0.019988043
-0.0043345885 -0.034263719 -0.02
-0.0048487303 -0.034462135 0.02
0.00024666355 -0.042358097 -0.018464649
-0.0012254835 -0.034452029 0.019999998
0.0012647447 -0.048486046 -0.018929359
0.00097954995 -0.039315745 0.019033311
0.0047134813 -0.034439329 -0.019999994
0.0044268803 -0.034714073 0.020000001
0.0074984017 -0.041511294 -0.01923948
0.0073345653 -0.03448493 0.020000005
0.010549789 -0.035494838 -0.017980015
0.010621933 -0.03442055 0.02
0.013049847 -0.037766706 -0.019082168
0.013101294 -0.034976725 0.018167736
0.016506644 -0.034234602 -0.02
0.015094928 -0.039114464 0.018023875
0.019009374 -0.037623875 -0.018701408
0.021354022 -0.040310919 -0.015982406
0.01977572 -0.060280837 -0.012206462
0.019497491 -0.035381239 -0.010278661
0.020427084 -0.040732134 -0.0069582537
0.019057328 -0.040982552 -0.00420372
0.02 -0.034395386 -0.0012728635
0.019220799 -0.037968922 0.0018919545
0.02 -0.03431071 0.0044898721
0.019999996 -0.034772746 0.0075175166
0.02 -0.034573622 0.010536164
0.01885172 -0.0447779 0.011136269
0.019999996 -0.034462553 0.016270898
0.019171497 -0.037865978 0.019025387
-0.019318368 -0.03358518 -0.01913956
-0.019999998 -0.031769205 -0.016379846
-0.019488664 -0.036475033 -0.013227214
-0.019295717 -0.038354028 -0.010373274
-0.019999998 -0.031656139 -0.007603291
-0.019999998 -0.031509101 -0.0045370599
-0.018494967 -0.037423562 -0.0011181028
-0.019999996 -0.031417128 0.0013744819
-0.018871447 -0.040489521 0.0047294651
-0.019292731 -0.03198307 0.0064932941
-0.016911134 -0.044237409 0.010258157
-0.019999998 -0.031417627 0.013319662
-0.019999996 -0.031711765 0.016463716
-0.019371796 -0.031508312 0.0196428
-0.016016709 -0.034271058 -0.019443788
-0.016312681 -0.034816299 0.019234639
-0.012698286 -0.040149607 -0.019267937
-0.013254727 -0.037441719 0.018481584
-0.010590765 -0.031684838 -0.019999996
-0.0086841453 -0.043617085 0.018354421
-0.0070561236 -0.036691077 -0.019296743
-0.007594842 -0.031540643 0.020000005
-0.0045655314 -0.037531082 -0.019428581
-0.004355154 -0.03875117 0.019059028
-0.001436147 -0.031206584 -0.019999994
-0.0014318532 -0.031119097 0.020000001
0.0015431383 -0.031720653 -0.02
0.0014819801 -0.031335685 0.02
0.0046168971 -0.037605375 -0.019156104
0.0046128104 -0.03152927 0.020000003
0.0072342665 -0.038111322 -0.019238081
0.00754403 -0.033132583 0.020000001
0.0093480637 -0.036159206 -0.019399518
0.012322429 -0.037193563 0.019333737
0.013455907 -0.031104703 -0.019999996
0.013859949 -0.040375333 0.018570499
0.015859166 -0.040073667 -0.01845078
0.018734809 -0.038080588 0.019654056
0.018267557 -0.032804754 -0.018737849
0.01999999 -0.031423222 -0.016518237
0.019430548 -0.035360627 -0.01284569
0.019999994 -0.0316763 -0.010584052
0.019999994 -0.03169043 -0.0076565272
0.019485841 -0.031927954 -0.0051086722
0.019999996 -0.031569656 -0.0013760654
0.019999992 -0.031403374 0.0012605594
0.019992266 -0.032573257 0.0040443656
0.020566618 -0.037159219 0.0072943037
0.019999992 -0.03160258 0.010721904
0.01923077 -0.037609778 0.012649605
0.020482244 -0.046661213 0.014957885
0.018253148 -0.037587453 0.018140133
-0.018048789 -0.033566508 -0.019000491
-0.02 -0.028697839 -0.016325237
-0.019999996 -0.028399786 -0.013512647
-0.019999994 -0.028303834 -0.010562374
-0.017908519 -0.040578082 -0.0074375006
-0.019663392 -0.028977307 -0.004898225
-0.018809864 -0.034691676 -0.0016469052
-0.019999994 -0.028589625 0.0011730775
-0.019056449 -0.036082465 0.0053076874
-0.02 -0.028636171 0.0071621691
-0.019411759 -0.033113211 0.010443629
-0.017630985 -0.033368126 0.012975771
-0.019999996 -0.028389839 0.016805205
-0.017948112 -0.039106324 0.017650809
-0.01540467 -0.034818482 -0.019072687
-0.015721908 -0.033853602 0.019141512
-0.013659555 -0.028717857 -0.020000001
-0.01244024 -0.037421219 0.01957963
-0.010550831 -0.028440272 -0.019999994
-0.010459704 -0.028836569 0.019999998
-0.0074062599 -0.028404847 -0.019999996
-0.0073571713 -0.034225967 0.019706532
-0.0042905561 -0.028585024 -0.02
-0.004344753 -0.02856721 0.02
-0.0023145447 -0.028752547 -0.018807707
-0.0015083191 -0.028283475 0.019999996
0.0015877619 -0.028468633 -0.019999998
0.0016560646 -0.028419033 0.020000001
0.0048258994 -0.029881746 -0.018733729
0.0043673692 -0.034382258 0.019628717
0.0088753197 -0.035535235 -0.019286118
0.008662953 -0.033810399 0.019437579
0.010501546 -0.028406296 -0.02
0.01051478 -0.028471489 0.019999998
0.013208615 -0.028465334 -0.019999994
0.01323988 -0.03255276 0.019106546
0.016321106 -0.028816082 -0.019999998
0.016325511 -0.028567918 0.020000001
0.017739654 -0.032014929 -0.018013554
0.02 -0.028279178 -0.016538739
0.020533878 -0.037654188 -0.012640535
0.019999994 -0.028527517 -0.010615256
