# .PCD v0.7 - Point Cloud Data file format
VERSION 0.7
FIELDS x y z rgb
SIZE 4 4 4 4
TYPE F F F F
COUNT 1 1 1 1
WIDTH 1233
HEIGHT 1
VIEWPOINT 0 0 0 1 0 0 0
POINTS 1233
DATA ascii
0.058741603 -0.2400001 -0.025568821 0
0.057981342 -0.2400001 -0.02202356 0
0.059064828 -0.24000008 -0.020281551 0
0.059142135 -0.24000007 -0.016731873 0
0.058686178 -0.24000007 -0.013566469 0
0.058470994 -0.24000005 -0.010266272 0
0.058053434 -0.24000004 -0.0074295714 0
0.058043372 -0.24000002 -0.004094894 0
0.059090972 -0.24000002 -0.0016046698 0
0.058334582 -0.24000002 0.0010731762 0
0.05847688 -0.23999999 0.0046791877 0
0.059062991 -0.23999998 0.0075746961 0
0.058520854 -0.23999998 0.0098633338 0
0.05851968 -0.23999998 0.013084286 0
0.058349259 -0.23999995 0.016362287 0
0.058218677 -0.23999994 0.019609153 0
0.058186982 -0.23999992 0.022717958 0
0.058097731 -0.23999992 0.025648022 0
0.058283202 -0.23999991 0.028362671 0
0.061404537 -0.24000011 -0.028959725 0
0.061215859 -0.2400001 -0.025580717 0
0.061583988 -0.2400001 -0.02265165 0
0.061789554 -0.24000008 -0.019890741 0
0.061260752 -0.24000007 -0.016471481 0
0.061655365 -0.24000007 -0.013722873 0
0.061341323 -0.24000005 -0.010841475 0
0.061317902 -0.24000005 -0.007547569 0
0.061383594 -0.24000004 -0.0048524751 0
0.061500411 -0.24000002 -0.0016288316 0
0.061856676 -0.24000001 0.0016561188 0
0.061472982 -0.23999999 0.0049110386 0
0.061009448 -0.23999998 0.0066961455 0
0.062014591 -0.23999996 0.010696014 0
0.06101663 -0.23999998 0.013442418 0
0.062096395 -0.23999995 0.016725253 0
0.062133208 -0.23999994 0.019386681 0
0.06160624 -0.23999994 0.022593683 0
0.061124541 -0.23999992 0.025103569 0
0.061668035 -0.23999991 0.028561382 0
0.064029165 -0.24000011 -0.028848941 0
0.064523861 -0.2400001 -0.025261113 0
0.064309858 -0.24000008 -0.02225584 0
0.064262532 -0.24000008 -0.019885182 0
0.063929133 -0.24000008 -0.016234286 0
0.064600512 -0.24000005 -0.013523205 0
0.064679801 -0.24000007 -0.010705068 0
0.064236045 -0.24000004 -0.0078531839 0
0.064474128 -0.24000002 -0.0045577288 0
0.064429067 -0.24000002 -0.0015873201 0
0.064329505 -0.24000001 0.0016374737 0
0.064494886 -0.23999999 0.0044824095 0
0.064527422 -0.23999998 0.0075709308 0
0.064652979 -0.23999996 0.010362422 0
0.065400854 -0.23999996 0.013613996 0
0.064364612 -0.23999995 0.016212028 0
0.064677194 -0.23999995 0.019307187 0
0.064640701 -0.23999995 0.022304513 0
0.064329319 -0.23999992 0.025526712 0
0.064404912 -0.23999992 0.028659288 0
0.067545429 -0.24000013 -0.028013907 0
0.067297168 -0.24000011 -0.025416005 0
0.066848464 -0.24000008 -0.022527695 0
0.06770166 -0.2400001 -0.019545332 0
0.067611054 -0.24000007 -0.016323673 0
0.067501709 -0.24000005 -0.013159259 0
0.067780249 -0.24000004 -0.010224001 0
0.067667596 -0.24000005 -0.007356172 0
0.067662805 -0.24000002 -0.0044785775 0
0.06728062 -0.24000002 -0.001686072 0
0.067498252 -0.24000001 0.0014810279 0
0.067483075 -0.23999999 0.0043414771 0
0.067390025 -0.23999999 0.0076737152 0
0.068086617 -0.23999998 0.010121802 0
0.067657366 -0.23999996 0.013751427 0
0.067321435 -0.23999995 0.016308988 0
0.067881286 -0.23999992 0.019540019 0
0.067451306 -0.23999994 0.023293834 0
0.067270614 -0.23999992 0.025732152 0
0.067684598 -0.23999991 0.028921189 0
0.07147444 -0.24000011 -0.028469404 0
0.070538878 -0.2400001 -0.02563671 0
0.071034722 -0.24000008 -0.022560824 0
0.070566878 -0.2400001 -0.019816956 0
0.070659071 -0.24000007 -0.015792746 0
0.070021033 -0.24000005 -0.013699605 0
0.070235372 -0.24000005 -0.010279951 0
0.070840038 -0.24000005 -0.0076310285 0
0.069989555 -0.24000002 -0.0047265426 0
0.071198456 -0.24000001 -0.0013795927 0
0.07021521 -0.24000001 0.0013422817 0
0.070263542 -0.23999999 0.0044002971 0
0.070769615 -0.23999998 0.0081975032 0
0.070580475 -0.23999998 0.010124373 0
0.070317917 -0.23999996 0.013400699 0
0.070242584 -0.23999995 0.016305173 0
0.070846081 -0.23999992 0.019059649 0
0.069926471 -0.23999994 0.021989793 0
0.070504777 -0.23999994 0.0254589 0
0.06994231 -0.23999992 0.027781932 0
0.073430195 -0.24000013 -0.027781207 0
0.073796451 -0.24000011 -0.025167294 0
0.073670916 -0.24000011 -0.022941349 0
0.073676169 -0.24000008 -0.01965878 0
0.072877273 -0.24000007 -0.016108885 0
0.073389292 -0.24000005 -0.013213423 0
0.073715776 -0.24000005 -0.010434944 0
0.073155753 -0.24000004 -0.0073258895 0
0.073854521 -0.24000002 -0.0049187299 0
0.073795266 -0.24000001 -0.0016850878 0
0.073438443 -0.24000001 0.0013843608 0
0.073274955 -0.23999999 0.0044850041 0
0.073406748 -0.23999998 0.0073853154 0
0.07395526 -0.23999999 0.010258463 0
0.073792502 -0.23999996 0.013657345 0
0.073280089 -0.23999995 0.015800316 0
0.073385999 -0.23999994 0.0192717 0
0.073526822 -0.23999995 0.022430915 0
0.073606335 -0.23999992 0.025564583 0
0.074091516 -0.23999992 0.028650988 0
0.076065518 -0.24000011 -0.028758526 0
0.076460637 -0.2400001 -0.025816955 0
0.076589078 -0.24000008 -0.022222189 0
0.075771846 -0.24000008 -0.01910622 0
0.076347858 -0.24000007 -0.015770791 0
0.076673754 -0.24000007 -0.013568626 0
0.076450907 -0.24000005 -0.010304596 0
0.076339275 -0.24000004 -0.0078647248 0
0.076541372 -0.24000002 -0.0045239464 0
0.076138109 -0.24000002 -0.0015398755 0
0.076235995 -0.24000001 0.0022428106 0
0.076241419 -0.23999999 0.0044292356 0
0.076396696 -0.23999998 0.0074213883 0
0.076645203 -0.23999998 0.010801246 0
0.077041864 -0.23999996 0.013132608 0
0.07669276 -0.23999995 0.016540613 0
0.076104395 -0.23999995 0.019331353 0
0.076699734 -0.23999994 0.021899205 0
0.075493917 -0.23999992 0.025491973 0
0.076112971 -0.23999991 0.028881138 0
0.079625316 -0.24000011 -0.027967652 0
0.079617999 -0.2400001 -0.024879916 0
0.07916221 -0.2400001 -0.022766246 0
0.079863757 -0.24000008 -0.01961479 0
0.079764068 -0.24000008 -0.016663065 0
0.079278328 -0.24000005 -0.012569232 0
0.078773044 -0.24000005 -0.010828089 0
0.079027876 -0.24000004 -0.0076017496 0
0.079588562 -0.24000002 -0.0044749849 0
0.079258107 -0.24000001 -0.0018784143 0
0.079555422 -0.24000002 0.001641975 0
0.079354517 -0.23999999 0.0055094282 0
0.078859262 -0.23999999 0.0077137495 0
0.079533555 -0.23999996 0.011139791 0
0.079707995 -0.23999996 0.013088281 0
0.079703473 -0.23999996 0.0166535 0
0.079843096 -0.23999994 0.019743148 0
0.079281799 -0.23999994 0.022518532 0
0.079421856 -0.23999994 0.025402158 0
0.079521388 -0.23999991 0.028936541 0
0.082067214 -0.24000011 -0.028130157 0
0.082600638 -0.2400001 -0.025384877 0
0.082210556 -0.2400001 -0.022138568 0
0.082778037 -0.24000008 -0.019514821 0
0.082238339 -0.24000007 -0.015881753 0
0.082270145 -0.24000005 -0.012868233 0
0.082469665 -0.24000004 -0.010277684 0
0.08250992 -0.24000004 -0.0076017287 0
0.082574971 -0.24000004 -0.004535154 0
0.08234486 -0.24000002 -0.0015435411 0
0.083003744 -0.24000002 0.001236163 0
0.08218573 -0.24000001 0.0042995163 0
0.08293362 -0.23999998 0.008117089 0
0.082291193 -0.23999996 0.011122183 0
0.082794666 -0.23999998 0.013630019 0
0.08141692 -0.23999995 0.01656449 0
0.082592376 -0.23999994 0.019631397 0
0.082107015 -0.23999994 0.02215993 0
0.083305024 -0.23999992 0.026554413 0
0.081990615 -0.23999991 0.028472872 0
0.08509735 -0.24000011 -0.027615132 0
0.086138055 -0.2400001 -0.024447849 0
0.085425012 -0.2400001 -0.022268809 0
0.085294075 -0.24000008 -0.019524448 0
0.085816234 -0.24000007 -0.016639918 0
0.08557117 -0.24000005 -0.013643868 0
0.085568182 -0.24000005 -0.010205408 0
0.085239328 -0.24000004 -0.006969593 0
0.085369252 -0.24000002 -0.0044106627 0
0.085713133 -0.24000002 -0.0010069039 0
0.085153624 -0.24000001 0.0017013601 0
0.085917123 -0.23999999 0.0044024386 0
0.085398041 -0.23999998 0.0077733407 0
0.0854626 -0.23999996 0.010515423 0
0.085283473 -0.23999998 0.013515565 0
0.085198142 -0.23999995 0.017232647 0
0.085590735 -0.23999994 0.020145271 0
0.085136987 -0.23999994 0.022197137 0
0.086052366 -0.23999992 0.025612934 0
0.086358085 -0.23999991 0.029105591 0
0.089428097 -0.24000011 -0.027855858 0
0.088152997 -0.2400001 -0.025309462 0
0.087934241 -0.24000008 -0.022434499 0
0.088566668 -0.24000008 -0.01944996 0
0.088484362 -0.24000007 -0.016555626 0
0.088351935 -0.24000005 -0.01319309 0
0.088314421 -0.24000004 -0.010119846 0
0.088423051 -0.24000005 -0.0081601441 0
0.088362686 -0.24000004 -0.0042902776 0
0.088328891 -0.24000001 -0.0016761532 0
0.08892139 -0.24000001 0.0012948526 0
0.088281401 -0.23999999 0.0041859313 0
0.088435009 -0.23999998 0.0080164634 0
0.088150382 -0.23999999 0.010091931 0
0.088517368 -0.23999996 0.013699811 0
0.088596478 -0.23999995 0.016052471 0
0.088515088 -0.23999994 0.019494474 0
0.087983198 -0.23999994 0.022300968 0
-0.009639727 -0.23891425 -0.0097375764 0
-0.0099299429 -0.23887932 -0.0074261436 0
-0.0098151769 -0.23921023 -0.0042604464 0
-0.0098714959 -0.23881197 -0.0016314582 0
-0.0098941484 -0.23889922 0.0015633126 0
-0.0099118836 -0.23866493 0.0042684791 0
-0.0099045206 -0.23882677 0.0074894233 0
-0.0096727349 -0.23865353 0.009814851 0
-0.0078330766 -0.23880878 -0.009872946 0
-0.0076373545 -0.23999995 -0.0073289657 0
-0.0075669177 -0.24000001 -0.0043202084 0
-0.007253469 -0.23999996 -0.0011562515 0
-0.0072998516 -0.23999998 0.0015852632 0
-0.0076504867 -0.23999994 0.0042025568 0
-0.0075789308 -0.23999991 0.0074148076 0
-0.007554064 -0.23881657 0.0098670693 0
-0.0043980493 -0.23891528 -0.009871522 0
-0.0046899957 -0.23999996 -0.0074787773 0
-0.0042936616 -0.24000002 -0.0046335207 0
-0.0041912971 -0.23999996 -0.0014974752 0
-0.0046280767 -0.23999998 0.0014368359 0
-0.0044735284 -0.23999998 0.0043780501 0
-0.0050582467 -0.23999996 0.0072803153 0
-0.0044802791 -0.23864977 0.0099097798 0
-0.0014538531 -0.23879389 -0.0099277748 0
-0.0016114586 -0.24000001 -0.0076966537 0
-0.0018179137 -0.23999995 -0.0042462749 0
-0.0013643869 -0.23999999 -0.0018257597 0
-0.0017896994 -0.23999999 0.0018294022 0
-0.0014031372 -0.23999998 0.0043101856 0
-0.0016709242 -0.23999991 0.0076047387 0
-0.0014552136 -0.23869403 0.0099268993 0
0.001589587 -0.23907855 -0.0098512527 0
0.0015372997 -0.23999995 -0.0073622148 0
0.0011787015 -0.23999998 -0.0047666356 0
0.0017269717 -0.23999992 -0.0014481816 0
0.0013256309 -0.23999995 0.001618096 0
0.0017997384 -0.23999992 0.0049764635 0
0.0015861033 -0.23999996 0.0078818221 0
0.0014168158 -0.23859234 0.0099596102 0
0.0042387741 -0.23864828 -0.009843342 0
0.004403024 -0.23999996 -0.0076989625 0
0.0043890965 -0.23999996 -0.0042289938 0
0.0050060828 -0.23999999 -0.0014562119 0
0.0047037043 -0.23999991 0.0013742533 0
0.0045330408 -0.23999996 0.0045882412 0
0.0046847654 -0.23999988 0.0077386913 0
0.0046900162 -0.23906514 0.0098476801 0
0.0075937114 -0.23875026 -0.0098948414 0
0.0070137815 -0.24000004 -0.0070692054 0
0.0073487693 -0.23999994 -0.0042817066 0
0.0075007863 -0.23999996 -0.0016626496 0
0.0072742607 -0.23999999 0.0015517025 0
0.0073774103 -0.23999999 0.0045552128 0
0.0075052581 -0.23999991 0.0072121453 0
0.0075113471 -0.23867658 0.0099098999 0
0.010634309 -0.2389366 -0.0099046426 0
0.010361616 -0.23999998 -0.0077540064 0
0.010699236 -0.23999995 -0.0047617233 0
0.010530403 -0.23999999 -0.0013502171 0
0.010268822 -0.24000001 0.0014288301 0
0.010665949 -0.23999996 0.0045586503 0
0.010476906 -0.23999992 0.007670525 0
0.010414446 -0.23871489 0.0099314013 0
0.013623517 -0.23900695 -0.0098958537 0
0.013270142 -0.23999995 -0.0074016084 0
0.01345329 -0.23999996 -0.0043874588 0
0.013281953 -0.23999999 -0.001904143 0
0.01364201 -0.23999999 0.0017342744 0
0.013315015 -0.23999994 0.0043958137 0
0.013237513 -0.23999991 0.0075184689 0
0.013311802 -0.23907535 0.0099042207 0
0.016485173 -0.23923956 -0.0097704493 0
0.016556848 -0.24000002 -0.0075389142 0
0.016740642 -0.23999994 -0.0045665666 0
0.016484616 -0.23999998 -0.0017399037 0
0.016190939 -0.23999995 0.0015366552 0
0.016665958 -0.23999996 0.0044835326 0
0.017020756 -0.23999992 0.007734789 0
0.016524931 -0.23912831 0.0098903263 0
0.019853564 -0.23898941 -0.010020447 0
0.019276828 -0.23999995 -0.0076002399 0
0.019256502 -0.23999992 -0.0043663546 0
0.019540446 -0.23999994 -0.0016305656 0
0.019064639 -0.23999995 0.0015967721 0
0.019609796 -0.23999996 0.0046259151 0
0.0196619 -0.23999995 0.0072821309 0
0.019693187 -0.23872817 0.010041612 0
0.023526302 -0.23863573 -0.012331838 0
0.022253482 -0.23921677 -0.010865075 0
0.022737594 -0.23999998 -0.0070840484 0
0.02251857 -0.23999996 -0.0044978722 0
0.022503605 -0.23999994 -0.001379895 0
0.022591164 -0.23999996 0.0016479098 0
0.022339316 -0.23999996 0.0045141787 0
0.022294719 -0.23999991 0.0073855803 0
0.02246557 -0.23923531 0.010947233 0
0.02344965 -0.23891667 0.012279255 0
0.025520785 -0.23887371 -0.013458351 0
0.025349451 -0.23999996 -0.010450216 0
0.025610801 -0.23999999 -0.007104184 0
0.025573045 -0.24000001 -0.0047610053 0
0.02526672 -0.23999994 -0.0015147034 0
0.025228346 -0.23999996 0.0013058855 0
0.025718486 -0.23999992 0.0048314403 0
0.025250314 -0.23999989 0.0073664193 0
0.025666451 -0.23999989 0.010472393 0
0.025569985 -0.23892097 0.013466014 0
0.028989522 -0.23893194 -0.015921284 0
0.028336035 -0.23982885 -0.013734491 0
0.028338237 -0.24000005 -0.010656506 0
0.028671861 -0.24000002 -0.0074700196 0
0.028298371 -0.23999999 -0.0042820489 0
0.028213965 -0.23999995 -0.0015713372 0
0.028501838 -0.23999995 0.0016359382 0
0.028609907 -0.23999991 0.0044039954 0
0.02834077 -0.23999995 0.0074823243 0
0.02845275 -0.23999991 0.010698509 0
0.028348742 -0.23980314 0.013459873 0
0.028998278 -0.2389947 0.015800409 0
0.032451972 -0.23869199 -0.018289784 0
0.031182926 -0.23908122 -0.016808588 0
0.031241419 -0.24000004 -0.013553414 0
0.031478766 -0.23999998 -0.010556616 0
0.031549159 -0.23999995 -0.007336671 0
0.031384446 -0.23999996 -0.0044128336 0
0.031657074 -0.23999996 -0.0017772067 0
0.031129032 -0.23999994 0.0013550372 0
0.031831279 -0.23999999 0.0044447887 0
0.03180588 -0.23999991 0.0077168974 0
0.031630341 -0.23999983 0.010537237 0
0.031429946 -0.23999994 0.013616323 0
0.031382505 -0.23931824 0.016919021 0
0.032602578 -0.23866309 0.018402746 0
0.034620214 -0.23895593 -0.01952651 0
0.034977797 -0.23999998 -0.016453283 0
0.034667015 -0.23999996 -0.013538009 0
0.034406729 -0.23999995 -0.010495108 0
0.034428578 -0.23999999 -0.0074921716 0
0.034418683 -0.24000001 -0.0045158942 0
0.03446988 -0.24000001 -0.0015875053 0
0.03472802 -0.23999995 0.0016479146 0
0.034436505 -0.23999995 0.0043458613 0
0.034474198 -0.23999989 0.0072639356 0
0.034249775 -0.23999992 0.010582146 0
0.034495018 -0.23999992 0.013726177 0
0.034690507 -0.23999986 0.016586749 0
0.034597594 -0.23892955 0.019393841 0
0.037863165 -0.23885991 -0.021774886 0
0.037286017 -0.23974963 -0.019660765 0
0.037261114 -0.24000005 -0.016339468 0
0.037422515 -0.24000002 -0.013219349 0
0.037367631 -0.24000004 -0.01072508 0
0.037731636 -0.24000001 -0.0077169277 0
0.038066547 -0.24000002 -0.0045248563 0
0.037246201 -0.23999995 -0.0019754081 0
0.037453432 -0.23999994 0.0020342409 0
0.037476167 -0.23999998 0.0040613618 0
0.03737437 -0.23999991 0.0078208074 0
0.037114903 -0.23999988 0.010799175 0
0.037794828 -0.23999994 0.013815396 0
0.037422158 -0.23999985 0.016426312 0
0.036969908 -0.23967774 0.019788016 0
0.037993114 -0.23892945 0.021898046 0
0.041517161 -0.23804981 -0.024343697 0
0.040434342 -0.23928188 -0.022865154 0
0.040445115 -0.24000002 -0.019580979 0
0.040552922 -0.24000004 -0.016475767 0
0.040501762 -0.24000004 -0.013661394 0
0.040128306 -0.24000004 -0.010511719 0
0.040213313 -0.23999998 -0.0073192515 0
0.040371615 -0.24000001 -0.0044220285 0
0.040243912 -0.23999999 -0.0018945066 0
0.040416621 -0.23999998 0.0014532533 0
0.040701125 -0.23999996 0.0046029445 0
0.040540565 -0.23999998 0.0077172671 0
0.04042922 -0.23999989 0.010632234 0
0.04030012 -0.23999996 0.013675014 0
0.040444322 -0.23999995 0.016673733 0
0.040423632 -0.23999989 0.019493131 0
0.040180195 -0.23901311 0.02286556 0
0.041603483 -0.23861989 0.024391254 0
0.043337565 -0.23889278 -0.025227828 0
0.043555003 -0.23999995 -0.02242879 0
0.043426692 -0.23999999 -0.019447098 0
0.043516722 -0.24000001 -0.01648025 0
0.043840162 -0.24000004 -0.013970346 0
0.04365778 -0.23999999 -0.010384127 0
0.043610211 -0.23999998 -0.0076306304 0
0.043512389 -0.23999995 -0.0043758675 0
0.043720149 -0.24000001 -0.0012530021 0
0.043477248 -0.23999996 0.0015713673 0
0.043415613 -0.23999992 0.004374932 0
0.043399535 -0.23999991 0.007521261 0
0.043510135 -0.23999988 0.010752631 0
0.043326978 -0.23999988 0.013529093 0
0.043671038 -0.23999983 0.016297372 0
0.043466222 -0.23999986 0.019505734 0
0.043286704 -0.2399998 0.022786561 0
0.043565776 -0.2386754 0.025551736 0
0.046749543 -0.23911098 -0.027702319 0
0.046237554 -0.23985115 -0.025935046 0
0.046646725 -0.24000001 -0.022651682 0
0.046522357 -0.24000001 -0.019206356 0
0.04669223 -0.24000001 -0.016604988 0
0.046177715 -0.23999996 -0.01346871 0
0.046877719 -0.23999999 -0.010584046 0
0.046729542 -0.23999998 -0.0078001162 0
0.046788976 -0.23999996 -0.0041274722 0
0.046428431 -0.23999994 -0.0014136235 0
0.046829347 -0.23999996 0.0014919953 0
0.04668517 -0.23999994 0.0046930048 0
0.04613173 -0.23999992 0.0074340063 0
0.046469666 -0.23999995 0.010323608 0
0.046539251 -0.23999995 0.013383868 0
0.046445634 -0.23999992 0.016548555 0
0.046288267 -0.23999985 0.019352203 0
0.046580009 -0.2399998 0.02287068 0
0.046343207 -0.23948628 0.026046276 0
0.046855111 -0.23893961 0.027737921 0
0.05057298 -0.23828043 -0.029998956 0
0.04940531 -0.23902842 -0.029060526 0
0.049388837 -0.2400001 -0.025499899 0
0.049613059 -0.24000004 -0.022632442 0
0.04949335 -0.24000004 -0.01951829 0
0.049498811 -0.23999998 -0.016673606 0
0.049448077 -0.23999995 -0.013534291 0
0.049348325 -0.24000002 -0.010112296 0
0.049376469 -0.23999998 -0.0073173512 0
0.049754921 -0.23999995 -0.0045508114 0
0.049518917 -0.23999995 -0.0012626455 0
0.049539391 -0.23999988 0.0013661487 0
0.049600203 -0.23999994 0.0045739543 0
0.049497705 -0.23999992 0.0076866797 0
0.049625497 -0.23999995 0.010409553 0
0.049562119 -0.23999986 0.013455147 0
0.049433831 -0.23999983 0.016760875 0
0.049325801 -0.23999982 0.019256076 0
0.049265869 -0.23999982 0.022547532 0
0.049394522 -0.2399998 0.025219606 0
0.049349308 -0.23916435 0.028952383 0
0.05064692 -0.23853952 0.030001048 0
0.05289337 -0.23824586 -0.029998949 0
0.052497357 -0.23930027 -0.029395534 0
0.052765802 -0.24000005 -0.025647493 0
0.052394219 -0.24000001 -0.022544596 0
0.052465174 -0.24000007 -0.019239869 0
0.052616872 -0.24000001 -0.01650735 0
0.052426402 -0.24000004 -0.013262497 0
0.052537706 -0.23999998 -0.010099218 0
0.052323211 -0.23999998 -0.0075156139 0
0.052412052 -0.23999998 -0.0046667648 0
0.052458737 -0.23999995 -0.0014663257 0
0.052404132 -0.23999995 0.0015452565 0
0.052543469 -0.23999991 0.004154196 0
0.052368879 -0.23999996 0.0076931752 0
0.051753614 -0.23999995 0.010560926 0
0.05268272 -0.23999992 0.013377904 0
0.052414984 -0.23999983 0.016762104 0
0.052811779 -0.23999982 0.019519407 0
0.052575085 -0.23999983 0.022670697 0
0.052282106 -0.23999983 0.025755119 0
0.052868824 -0.23950544 0.028850675 0
0.05259265 -0.23866931 0.030001044 0
0.05604877 -0.23886281 -0.029998934 0
0.055528488 -0.23945369 -0.029367212 0
0.055221826 -0.24000008 -0.02552709 0
0.055429053 -0.24000005 -0.022548979 0
0.055125751 -0.24000004 -0.019353386 0
0.055367205 -0.24000001 -0.016445449 0
0.055405725 -0.23999998 -0.0136414 0
0.055578507 -0.23999999 -0.010548435 0
0.055608448 -0.23999998 -0.007270704 0
0.055650238 -0.23999999 -0.0043583037 0
0.055409711 -0.23999999 -0.0017092535 0
0.055497501 -0.23999995 0.0015315247 0
0.055613186 -0.23999998 0.0047673732 0
0.05524886 -0.23999996 0.0076579885 0
0.055513207 -0.23999991 0.010195226 0
0.055617992 -0.23999996 0.013952475 0
0.055428654 -0.23999988 0.016613342 0
0.055482887 -0.23999992 0.019118866 0
0.055538785 -0.23999988 0.022346266 0
0.055533934 -0.2399998 0.025459191 0
0.05570855 -0.23950003 0.028843936 0
0.055576336 -0.23857345 0.030001055 0
0.059135463 -0.23865238 -0.029998923 0
0.058528677 -0.23938271 -0.029214343 0
0.058209028 -0.24000008 -0.025712481 0
0.058812473 -0.24000007 -0.022495404 0
0.058209993 -0.24000005 -0.01958451 0
0.058443494 -0.23999999 -0.01653713 0
0.058364436 -0.24000004 -0.013617996 0
0.058338232 -0.24000001 -0.010793314 0
0.058495246 -0.24000002 -0.0072338423 0
0.058232702 -0.23999995 -0.0042977231 0
0.058646955 -0.23999999 -0.0014575967 0
0.058431305 -0.23999994 0.0014216572 0
0.058209702 -0.23999991 0.0044100499 0
0.058790836 -0.23999992 0.0077240458 0
0.058494087 -0.23999995 0.010536117 0
0.058517937 -0.23999994 0.013506458 0
0.05868559 -0.23999992 0.016726501 0
0.058596626 -0.23999992 0.019578813 0
0.058701761 -0.23999986 0.022553641 0
0.05845933 -0.23999983 0.025140068 0
0.058545198 -0.23978759 0.028662244 0
0.05832205 -0.23869543 0.03000107 0
0.061615039 -0.23839949 -0.029998915 0
0.061393455 -0.23928449 -0.029232061 0
0.061467059 -0.24000007 -0.025140066 0
0.061336707 -0.23999999 -0.022386363 0
0.061597455 -0.24000004 -0.019454485 0
0.061527237 -0.24000005 -0.016416181 0
0.061640631 -0.23999998 -0.01367081 0
0.061576422 -0.24000004 -0.010013434 0
0.061534803 -0.24000002 -0.0071433983 0
0.061161984 -0.23999995 -0.0047099204 0
0.061384067 -0.23999995 -0.0012469543 0
0.061337706 -0.23999999 0.0014116054 0
0.061470412 -0.23999995 0.0044487766 0
0.061245505 -0.23999995 0.0075873313 0
0.061297096 -0.23999988 0.010580099 0
0.061581157 -0.23999988 0.013353916 0
0.06144147 -0.23999992 0.016527537 0
0.061356608 -0.23999986 0.019539731 0
0.061557718 -0.23999989 0.022477435 0
0.061540697 -0.23999986 0.02575063 0
0.061372835 -0.23973648 0.028960465 0
0.061624978 -0.23875171 0.030001085 0
0.064917214 -0.2383882 -0.029998904 0
0.064509958 -0.23928227 -0.029079139 0
0.064142786 -0.24000004 -0.025475681 0
0.06460017 -0.23999999 -0.022462318 0
0.064248964 -0.24000002 -0.019456733 0
0.064671092 -0.24000004 -0.01640472 0
0.064468652 -0.24000002 -0.013549358 0
0.064427346 -0.24000002 -0.010766019 0
0.064595327 -0.23999994 -0.0072014211 0
0.064622492 -0.23999994 -0.0046030474 0
0.064557135 -0.23999992 -0.0013025232 0
0.064659782 -0.23999991 0.0015530713 0
0.064227998 -0.23999994 0.0044557475 0
0.064728901 -0.23999992 0.0076840012 0
0.064440444 -0.23999994 0.010176116 0
0.064532511 -0.23999988 0.013511171 0
0.064774513 -0.23999994 0.016611408 0
0.064465471 -0.23999992 0.019207843 0
0.064587511 -0.23999986 0.022249011 0
0.06455154 -0.23999988 0.025484089 0
0.064889044 -0.23935334 0.028981166 0
0.064424425 -0.2382416 0.030001085 0
0.067397393 -0.23856576 -0.029998893 0
0.067657851 -0.23936225 -0.029051932 0
0.067399867 -0.24000004 -0.025570678 0
0.067704558 -0.24000001 -0.022670282 0
0.067817785 -0.23999999 -0.019541061 0
0.067305267 -0.24000002 -0.016230434 0
0.067827426 -0.24000004 -0.013302848 0
0.067509137 -0.23999998 -0.010032035 0
0.06737861 -0.23999996 -0.0073632379 0
0.0677986 -0.23999996 -0.0047249552 0
0.067665927 -0.23999999 -0.00091780798 0
0.067531712 -0.23999996 0.0014179961 0
0.067364566 -0.23999996 0.0045122341 0
0.067709573 -0.23999994 0.0077668289 0
0.067519538 -0.23999994 0.010200922 0
0.067444794 -0.23999989 0.013669113 0
0.06756679 -0.23999994 0.016415985 0
0.067918308 -0.23999992 0.019434787 0
0.067535125 -0.23999991 0.022256225 0
0.067586869 -0.23999983 0.025570082 0
0.067586146 -0.23946296 0.029004736 0
0.067213811 -0.23840635 0.030001095 0
0.070754476 -0.23876455 -0.02999888 0
0.070707239 -0.23930329 -0.029062714 0
0.070032172 -0.24000002 -0.025511879 0
0.070520811 -0.24000002 -0.022435915 0
0.07020326 -0.24000002 -0.01923695 0
0.07043983 -0.23999999 -0.016248681 0
0.070300415 -0.24000004 -0.013646363 0
0.070711315 -0.23999999 -0.010370368 0
0.07052356 -0.24000001 -0.0071404809 0
0.070787199 -0.24000001 -0.0044487207 0
0.070437036 -0.23999992 -0.001639616 0
0.070391998 -0.23999995 0.0017506526 0
0.070663333 -0.23999995 0.0047928328 0
0.070292391 -0.23999992 0.0072151069 0
0.07048931 -0.23999992 0.010452727 0
0.070595503 -0.23999995 0.013360359 0
0.070585579 -0.23999989 0.016428441 0
0.070720151 -0.23999985 0.019638326 0
0.070564494 -0.23999985 0.022390995 0
0.070078656 -0.23999989 0.02534741 0
0.070353508 -0.23925464 0.02923971 0
0.070342913 -0.23856764 0.030001115 0
0.073726431 -0.238396 -0.029998869 0
0.073364146 -0.23943867 -0.029246543 0
0.073610403 -0.23999999 -0.025438135 0
0.073531456 -0.24000007 -0.02294381 0
0.073568434 -0.24000007 -0.019524397 0
0.073421866 -0.24000005 -0.01639838 0
0.073462255 -0.23999996 -0.013704632 0
0.07353875 -0.24000002 -0.010147542 0
0.073700726 -0.23999992 -0.007506975 0
0.073666237 -0.23999999 -0.0043730265 0
0.073230103 -0.23999999 -0.0013797639 0
0.073368423 -0.23999994 0.0013806939 0
0.073995136 -0.23999998 0.0046113497 0
0.073560275 -0.23999994 0.0080053387 0
0.073283046 -0.23999989 0.010627907 0
0.07360743 -0.23999989 0.01344566 0
0.073319733 -0.23999986 0.016261619 0
0.073376127 -0.23999982 0.019571867 0
0.07359767 -0.23999988 0.022483082 0
0.073213086 -0.23999991 0.025394784 0
0.073684432 -0.23934875 0.029040556 0
0.073236465 -0.23863482 0.030001121 0
0.076802708 -0.23872715 -0.029998859 0
0.0768985 -0.23934807 -0.029144378 0
0.076440848 -0.24000004 -0.025611332 0
0.076574273 -0.24000007 -0.022804493 0
0.076403677 -0.24000002 -0.019297946 0
0.076304302 -0.23999998 -0.01644684 0
0.076269232 -0.23999998 -0.013678915 0
0.076116793 -0.24000005 -0.010358691 0
0.076317847 -0.23999996 -0.0075440905 0
0.076307893 -0.23999996 -0.0043758177 0
0.076532066 -0.23999996 -0.0016657604 0
0.076327659 -0.23999999 0.0017700492 0
0.076526299 -0.23999996 0.0046227504 0
0.076526001 -0.23999996 0.0074394131 0
0.076156713 -0.23999995 0.010530814 0
0.077151686 -0.23999995 0.013118736 0
0.076536119 -0.23999991 0.016814932 0
0.076527923 -0.23999992 0.019751474 0
0.076744378 -0.23999985 0.022816082 0
0.07657963 -0.23999991 0.025238127 0
0.076438047 -0.23965743 0.029093029 0
0.07663101 -0.23833276 0.030001139 0
0.079960309 -0.23806237 -0.02999885 0
0.079411738 -0.23931131 -0.029106157 0
0.079543225 -0.2400001 -0.025417453 0
0.079182468 -0.24000002 -0.022364482 0
0.079748698 -0.24000008 -0.019506635 0
0.079599299 -0.23999999 -0.016364412 0
0.079664961 -0.23999998 -0.013721189 0
0.079571836 -0.23999998 -0.01044586 0
0.079571076 -0.23999998 -0.0075371419 0
0.079474553 -0.23999999 -0.004590082 0
0.079734311 -0.23999994 -0.0016571659 0
0.079483971 -0.23999999 0.0017113109 0
0.079695247 -0.23999996 0.0047950326 0
0.079873487 -0.23999995 0.0075429315 0
0.079333648 -0.23999988 0.010634298 0
0.079475708 -0.23999992 0.013636375 0
0.07939963 -0.23999994 0.016482702 0
0.080029033 -0.23999988 0.019575126 0
0.079277806 -0.23999992 0.022313472 0
0.079618193 -0.23999982 0.025287714 0
0.07958249 -0.23940362 0.029229265 0
0.079880096 -0.23854396 0.030001147 0
0.082899444 -0.23799549 -0.029998839 0
0.082498379 -0.23922257 -0.029227847 0
0.082676895 -0.2400001 -0.025423314 0
0.082273178 -0.23999998 -0.022552133 0
0.082438923 -0.23999998 -0.01960163 0
0.082376197 -0.24000005 -0.01643974 0
0.082700938 -0.23999995 -0.013289132 0
0.082291067 -0.23999999 -0.010389719 0
0.082357354 -0.24000001 -0.0073637734 0
0.082775183 -0.23999999 -0.0044298982 0
0.082879134 -0.23999992 -0.0015171225 0
0.082581446 -0.23999992 0.0015328944 0
0.082519196 -0.23999994 0.0046567442 0
0.082366824 -0.23999996 0.0074103493 0
0.082105324 -0.23999988 0.010435912 0
0.082410879 -0.23999995 0.013576094 0
0.08263322 -0.23999986 0.016274279 0
0.08241681 -0.23999988 0.019555012 0
0.082558736 -0.23999989 0.022779712 0
0.082205005 -0.23999989 0.025390415 0
0.082256146 -0.23928954 0.029253062 0
0.082473755 -0.23846056 0.030001152 0
0.085435554 -0.23738708 -0.029998833 0
0.085719556 -0.23938802 -0.02921189 0
0.085584939 -0.24000001 -0.025578944 0
0.085414752 -0.23999998 -0.022716096 0
0.085703686 -0.24000004 -0.019578435 0
0.085112475 -0.23999999 -0.016522812 0
0.085513636 -0.24000001 -0.013493507 0
0.085454322 -0.24000004 -0.010676404 0
0.085370719 -0.24000001 -0.0073027918 0
0.085445724 -0.24000001 -0.0045734649 0
0.085618675 -0.24000001 -0.0018604783 0
0.085414469 -0.23999994 0.0019137984 0
0.085632294 -0.23999991 0.004207239 0
0.085524976 -0.23999989 0.0072692102 0
0.085285157 -0.23999994 0.010465948 0
0.0856805 -0.23999988 0.013426041 0
0.085631967 -0.23999985 0.016591571 0
0.085712239 -0.23999985 0.019466609 0
0.085149623 -0.23999986 0.022619214 0
0.08571218 -0.23999983 0.025497451 0
0.085589029 -0.23969826 0.028719394 0
0.085540511 -0.23865147 0.030001165 0
0.087361537 -0.23901846 -0.029998818 0
0.088579543 -0.23943032 -0.02907113 0
0.088532232 -0.24000004 -0.025219075 0
0.088932671 -0.23999999 -0.022427985 0
0.088379659 -0.23999999 -0.019649897 0
0.08834552 -0.23999998 -0.016354263 0
0.088488661 -0.23999996 -0.01371601 0
0.088743873 -0.23999996 -0.010474985 0
0.088661566 -0.23999996 -0.0073592099 0
0.088132843 -0.23999999 -0.004381544 0
0.088448659 -0.23999995 -0.001669529 0
0.088792898 -0.23999998 0.0016546197 0
0.088481583 -0.23999989 0.0045228805 0
0.088714503 -0.23999995 0.0074044517 0
0.088336855 -0.23999986 0.010598049 0
0.088272601 -0.23999995 0.013518196 0
0.088285461 -0.23999983 0.016322099 0
0.088431776 -0.2399998 0.019245347 0
0.088573009 -0.23999982 0.022537436 0
0.088127688 -0.23999982 0.02540303 0
0.088427685 -0.23975368 0.028552497 0
0.08854875 -0.23828487 0.030001175 0
0.090000093 -0.23840462 -0.028701069 0
0.0900001 -0.23862076 -0.025415618 0
0.090000071 -0.23844039 -0.022523036 0
0.090000056 -0.23843355 -0.019598806 0
0.090000048 -0.23845904 -0.016353576 0
0.090000063 -0.23838234 -0.013517112 0
0.090000018 -0.23847301 -0.010411976 0
0.090000026 -0.23854771 -0.0074776877 0
0.090000026 -0.23861499 -0.0047624372 0
0.089999989 -0.23844688 -0.0015678154 0
0.090000018 -0.23878516 0.0017637977 0
0.090000011 -0.23833562 0.0043177772 0
0.089999959 -0.23868638 0.0073260567 0
0.089999981 -0.23833406 0.010452131 0
0.089999929 -0.23849134 0.013604457 0
0.089999951 -0.2382009 0.0160597 0
0.089999922 -0.23854622 0.019348554 0
0.089999922 -0.238602 0.022534244 0
0.089999899 -0.23851611 0.025688609 0
0.089999884 -0.23830517 0.028500862 0
-0.0097669018 -0.23550612 -0.0098214578 0
-0.0099999737 -0.23529308 -0.0075158817 0
-0.0099999821 -0.23543628 -0.0045839637 0
-0.0099999933 -0.23544841 -0.0014598648 0
-0.010000007 -0.23538935 0.0016777994 0
-0.010000017 -0.23528288 0.0045832768 0
-0.010000028 -0.23541722 0.0074454308 0
-0.0097344071 -0.2354188 0.0097262086 0
-0.0073818108 -0.23511542 -0.0099991765 0
-0.0075541902 -0.23532106 0.010000825 0
-0.0044089002 -0.23567776 -0.0099991634 0
-0.0045284061 -0.23546697 0.010000836 0
-0.0015623857 -0.23564506 -0.0099991532 0
-0.0015842549 -0.23553658 0.010000845 0
0.0015862018 -0.23554133 -0.009999142 0
0.0015634384 -0.23551331 0.010000858 0
0.0043884758 -0.23558484 -0.0099991318 0
0.0043501286 -0.23536447 0.010000869 0
0.0073186914 -0.23518237 -0.0099991215 0
0.0074716788 -0.23528701 0.010000878 0
0.01073641 -0.2356132 -0.0099991066 0
0.010550516 -0.23544037 0.010000888 0
0.013466503 -0.23567075 -0.0099990973 0
0.013662729 -0.23557878 0.010000903 0
0.016447239 -0.23531869 -0.0099990861 0
0.016226925 -0.23561148 0.010000911 0
0.019956989 -0.23553756 -0.010199093 0
0.019607499 -0.23545539 0.010138146 0
0.023449006 -0.23589881 -0.012298368 0
0.021952407 -0.23545744 -0.011300646 0
0.022063086 -0.23539145 0.011376351 0
0.023461182 -0.23522867 0.012308419 0
0.025372768 -0.23559318 -0.013580869 0
0.025809832 -0.23532806 0.013874202 0
0.02866286 -0.23553896 -0.015774244 0
0.027204171 -0.23521899 -0.014801792 0
0.027209133 -0.23520346 0.014807074 0
0.028596876 -0.23552449 0.015732242 0
0.032488894 -0.23505819 -0.018324915 0
0.030915044 -0.23556547 -0.017275687 0
0.031070029 -0.23579484 0.017381027 0
0.032429621 -0.23526257 0.018287428 0
0.03450235 -0.2356509 -0.019667203 0
0.034588162 -0.23568566 0.019726465 0
0.037924688 -0.23551464 -0.021948747 0
0.03631115 -0.23540924 -0.020873066 0
0.036217656 -0.23622522 0.020812808 0
0.037665803 -0.23550089 0.021778248 0
0.041634008 -0.23560333 -0.024421602 0
0.040070977 -0.23572433 -0.023379594 0
0.04006882 -0.23572059 0.02338027 0
0.041567024 -0.23551823 0.024379076 0
0.043583017 -0.23537295 -0.025720937 0
0.043430969 -0.2355445 0.025621714 0
0.046620503 -0.23549958 -0.027745914 0
0.045273807 -0.23516294 -0.026848124 0
0.045274004 -0.23531698 0.026850417 0
0.046670031 -0.23558155 0.02778111 0
0.0501885 -0.23606041 -0.029998964 0
0.048909247 -0.23518442 -0.029271733 0
0.049256362 -0.23567121 0.029448727 0
0.050647501 -0.23537259 0.030001035 0
0.052931953 -0.23539025 -0.029998958 0
0.05264822 -0.23572502 -0.029998951 0
0.052174982 -0.23589374 0.030001041 0
0.052153911 -0.23557277 0.030001028 0
0.055439629 -0.23546772 -0.029998947 0
0.055327807 -0.23544168 -0.029998947 0
0.055727765 -0.23545378 0.030001054 0
0.055773001 -0.23553771 0.030001044 0
0.058442794 -0.23532666 -0.029998938 0
0.058904417 -0.23541366 -0.029998932 0
0.058641046 -0.23576809 0.030001065 0
0.058476247 -0.23530625 0.030001063 0
0.061478518 -0.23604576 -0.029998925 0
0.061306737 -0.23554206 -0.029998925 0
0.061981812 -0.23523761 0.030001076 0
0.061615407 -0.23502657 0.030001072 0
0.064308234 -0.23549642 -0.029998915 0
0.064581677 -0.23545101 -0.029998906 0
0.064542152 -0.23549707 0.030001085 0
0.064476512 -0.23564424 0.030001076 0
0.067289807 -0.23637314 -0.029998904 0
0.06738773 -0.23542295 -0.0299989 0
0.067753017 -0.2356513 0.030001098 0
0.067440249 -0.23562539 0.030001089 0
0.070563607 -0.23558676 -0.029998895 0
0.070722662 -0.23566632 -0.029998891 0
0.070636265 -0.23535649 0.030001106 0
0.070432536 -0.23535192 0.030001109 0
0.073774874 -0.23588236 -0.029998882 0
0.073494472 -0.23528844 -0.029998878 0
0.073698618 -0.23518293 0.030001115 0
0.073570177 -0.23545437 0.030001108 0
0.076767862 -0.23537478 -0.029998871 0
0.076358445 -0.23538955 -0.029998871 0
0.076701097 -0.23516366 0.030001126 0
0.076549567 -0.23562047 0.030001121 0
0.0788977 -0.23570062 -0.029998865 0
0.079627559 -0.23521398 -0.029998859 0
0.080022678 -0.23564476 0.030001143 0
0.079468749 -0.2356759 0.030001139 0
0.082397066 -0.23537509 -0.029998854 0
0.082753159 -0.23563589 -0.029998837 0
0.082811505 -0.23529515 0.03000115 0
0.082514256 -0.23546474 0.030001141 0
0.085406311 -0.23576306 -0.029998839 0
0.085405171 -0.23547763 -0.029998835 0
0.085831404 -0.23550583 0.030001163 0
0.085416831 -0.23564768 0.03000115 0
0.088993259 -0.23531823 -0.029998828 0
0.088499531 -0.23558037 -0.029998824 0
0.08782924 -0.23622371 0.030001171 0
0.088637009 -0.23577601 0.030001163 0
0.090000093 -0.23556679 -0.028670663 0
0.0900001 -0.2357004 -0.025465455 0
0.090000056 -0.23567848 -0.022885036 0
0.090000078 -0.23544502 -0.01963874 0
0.090000041 -0.23564705 -0.016612759 0
0.090000033 -0.23570113 -0.013444961 0
0.090000056 -0.23570128 -0.010381181 0
0.089999996 -0.23537745 -0.007624371 0
0.090000033 -0.23524496 -0.0045162095 0
0.089999996 -0.2353109 -0.0016840379 0
0.090000018 -0.23545603 0.0012195793 0
0.089999989 -0.23540846 0.0044679418 0
0.089999981 -0.23549441 0.0074760099 0
0.089999951 -0.23560466 0.01035226 0
0.089999951 -0.23561172 0.013483509 0
0.089999937 -0.23545358 0.016335603 0
0.089999907 -0.23560715 0.019567946 0
0.089999922 -0.23553237 0.022690078 0
0.089999907 -0.23546545 0.025271747 0
0.089999884 -0.23569652 0.028451936 0
-0.0097785341 -0.23231673 -0.0097844163 0
-0.0099999728 -0.23248847 -0.0072516641 0
-0.0099999812 -0.23251951 -0.0046196771 0
-0.0099999961 -0.23259784 -0.0012797656 0
-0.010000005 -0.23243989 0.0014725907 0
-0.010000017 -0.23244028 0.0045251143 0
-0.010000029 -0.23225483 0.0076462016 0
-0.0096429745 -0.23264049 0.0097878342 0
-0.0075742896 -0.2323148 -0.0099991849 0
-0.0077414652 -0.2327161 0.010000816 0
-0.0046131606 -0.23240492 -0.0099991774 0
-0.0047085281 -0.23263201 0.010000823 0
-0.0017126846 -0.23253787 -0.0099991634 0
-0.0015708875 -0.23266491 0.010000838 0
0.0014471204 -0.23264161 -0.0099991523 0
0.001276355 -0.23233815 0.010000845 0
0.0044007162 -0.23245354 -0.0099991439 0
0.004513626 -0.23265642 0.010000858 0
0.0075207269 -0.23279552 -0.0099991327 0
0.0075000543 -0.23255946 0.01000087 0
0.010327353 -0.23249577 -0.0099991215 0
0.010371253 -0.23253725 0.010000879 0
0.013705293 -0.23242413 -0.0099991094 0
0.013273917 -0.23267779 0.010000888 0
0.016645251 -0.23243201 -0.0099990945 0
0.016297828 -0.23240714 0.010000897 0
0.019523434 -0.2325539 -0.010112508 0
0.019501539 -0.23249042 0.010095578 0
0.023553805 -0.23246625 -0.012368246 0
0.021847991 -0.2326653 -0.011231045 0
0.022080399 -0.23264626 0.011387884 0
0.023591775 -0.23239712 0.012395474 0
0.025375072 -0.23261127 -0.013582416 0
0.025274204 -0.23259121 0.013517101 0
0.028707869 -0.23263246 -0.015804261 0
0.027306354 -0.23285429 -0.014869925 0
0.027217234 -0.23297304 0.014812466 0
0.028841509 -0.23238267 0.015895324 0
0.032451913 -0.23288114 -0.018300269 0
0.031081945 -0.23254174 -0.017386965 0
0.030892977 -0.23230885 0.017262977 0
0.032522682 -0.23230456 0.018349456 0
0.03439372 -0.23238678 -0.0195948 0
0.034465719 -0.23238252 0.01964483 0
0.0377375 -0.2324809 -0.021823974 0
0.036438726 -0.23243968 -0.020958126 0
0.036285561 -0.23289584 0.020858064 0
0.03763653 -0.23215993 0.021758715 0
0.041609436 -0.23216203 -0.024405239 0
0.039870854 -0.23284976 -0.023246191 0
0.040159877 -0.23249552 0.023440959 0
0.041499674 -0.23261976 0.02433417 0
0.04357383 -0.23251605 -0.025714822 0
0.043509282 -0.23255312 0.025673913 0
0.046912938 -0.23258744 -0.027940877 0
0.045286391 -0.23234493 -0.026856523 0
0.045245316 -0.2321592 0.026831279 0
0.046969626 -0.2324675 0.027980823 0
0.050876152 -0.23171972 -0.029998979 0
0.049283244 -0.23260403 -0.029442418 0
0.049158312 -0.23278065 0.029423581 0
0.050420038 -0.23261684 0.030001026 0
0.05253765 -0.23293048 -0.029998967 0
0.052371014 -0.23225862 -0.029998966 0
0.052184545 -0.23304574 0.030001031 0
0.052579649 -0.23234145 0.030001018 0
0.055652335 -0.23244521 -0.029998958 0
0.055705007 -0.23249729 -0.029998951 0
0.055012267 -0.23267736 0.030001042 0
0.055302788 -0.23247626 0.030001044 0
0.058244143 -0.23299897 -0.029998947 0
0.058554634 -0.23229022 -0.029998941 0
0.058564376 -0.2326996 0.030001052 0
0.05824047 -0.23241661 0.030001054 0
0.061749712 -0.23259622 -0.029998936 0
0.061605547 -0.23252623 -0.029998923 0
0.061966527 -0.23171555 0.030001063 0
0.061465479 -0.23253407 0.030001059 0
0.064477466 -0.23206964 -0.029998928 0
0.064608723 -0.23238423 -0.029998913 0
0.064230107 -0.23286575 0.030001076 0
0.064288244 -0.23235929 0.030001067 0
0.067904115 -0.2326526 -0.029998913 0
0.067461796 -0.23275393 -0.029998908 0
0.067790642 -0.23287708 0.030001087 0
0.067523003 -0.23217787 0.030001085 0
0.070495792 -0.23236331 -0.029998904 0
0.070277013 -0.23252329 -0.0299989 0
0.070320204 -0.23259167 0.030001096 0
0.070268393 -0.23240857 0.030001087 0
0.073892757 -0.23219353 -0.029998893 0
0.073634475 -0.23230785 -0.029998893 0
0.073741712 -0.2322956 0.030001106 0
0.073709041 -0.23256719 0.030001109 0
0.076200269 -0.23232262 -0.029998884 0
0.076867022 -0.23248814 -0.029998878 0
0.076931655 -0.23269084 0.030001121 0
0.076516353 -0.23269901 0.030001109 0
0.079686761 -0.23269805 -0.029998871 0
0.079533324 -0.2324817 -0.029998863 0
0.079402886 -0.23294137 0.03000113 0
0.079383433 -0.23264016 0.030001123 0
0.082299523 -0.23189436 -0.029998865 0
0.082587212 -0.23262843 -0.029998854 0
0.082822472 -0.23271264 0.030001141 0
0.082448862 -0.23225422 0.03000113 0
0.085495144 -0.23197117 -0.029998854 0
0.085329197 -0.23238148 -0.029998839 0
0.085117273 -0.23272972 0.030001147 0
0.085669547 -0.23239982 0.030001143 0
0.088665172 -0.23298319 -0.029998837 0
0.088702887 -0.23252231 -0.029998828 0
0.088201426 -0.23309381 0.030001163 0
0.088294394 -0.23231207 0.030001158 0
0.090000093 -0.23231865 -0.028664703 0
0.090000078 -0.23243524 -0.025284111 0
0.090000093 -0.23252538 -0.022438597 0
0.090000078 -0.23233914 -0.019490819 0
0.090000063 -0.23262915 -0.016515967 0
0.090000063 -0.23240608 -0.013548292 0
0.090000033 -0.2327105 -0.010648066 0
0.090000033 -0.23266056 -0.0076881549 0
0.090000026 -0.23240954 -0.0046756347 0
0.089999996 -0.23251618 -0.0016544726 0
0.089999974 -0.23247202 0.001830472 0
0.089999966 -0.23223588 0.0042268489 0
0.089999974 -0.23229003 0.0073721888 0
0.089999974 -0.23223281 0.010669129 0
0.089999951 -0.23223408 0.013626029 0
0.089999959 -0.23261723 0.016613992 0
0.089999929 -0.23260672 0.019541323 0
0.089999914 -0.23253454 0.022483911 0
0.089999914 -0.23242754 0.025528381 0
0.089999884 -0.23228535 0.028439766 0
-0.0098615773 -0.22951338 -0.0097002834 0
-0.0099999737 -0.22966607 -0.0073365131 0
-0.009999983 -0.22956944 -0.0043651131 0
-0.0099999942 -0.22943629 -0.0016185644 0
-0.010000006 -0.22925857 0.0013774039 0
-0.010000017 -0.22962706 0.0048032315 0
-0.01000003 -0.22979316 0.0075914422 0
-0.0097472714 -0.22949494 0.0097854147 0
-0.0073440615 -0.22957237 -0.009999197 0
-0.0074598556 -0.22930971 0.010000802 0
-0.0044945087 -0.22953771 -0.0099991858 0
-0.0045834519 -0.22935995 0.010000816 0
-0.0013710627 -0.22954418 -0.0099991728 0
-0.0014812942 -0.22979622 0.010000824 0
0.001148763 -0.22999412 -0.0095773144 0
0.00064058858 -0.22968394 -0.0073403683 0
0.00073484675 -0.2295762 -0.0043238755 0
0.00090204371 -0.22976515 -0.0015060608 0
0.00082233426 -0.22973268 0.0017697411 0
0.00082527084 -0.22971383 0.0045225611 0
0.00081314868 -0.22984184 0.0074943719 0
0.00091859675 -0.22995724 0.009620022 0
0.0042446125 -0.23032093 -0.0096698096 0
0.0045973598 -0.23019996 -0.0073426394 0
0.0042849714 -0.23019996 -0.0041762162 0
0.0043527959 -0.23019993 -0.001471475 0
0.0045168926 -0.23019996 0.0015618474 0
0.0045390674 -0.23019996 0.0047465777 0
0.0046691652 -0.23019993 0.0074210893 0
0.0048318328 -0.23054652 0.0098632248 0
0.0074873059 -0.23029198 -0.0096714711 0
0.007442323 -0.23019998 -0.0073296116 0
0.0072834808 -0.23019993 -0.0043924982 0
0.0074820248 -0.23019996 -0.0014064813 0
0.0074269734 -0.23019999 0.0016305657 0
0.0075735594 -0.23019996 0.0045352406 0
0.0074131042 -0.23019996 0.0076009324 0
0.0076522678 -0.23037159 0.0096496753 0
0.010514745 -0.23041584 -0.0097811362 0
0.010697744 -0.23019996 -0.0075691147 0
0.010536481 -0.23019999 -0.0046915961 0
0.010358936 -0.23019993 -0.0015242276 0
0.010532322 -0.23019993 0.0014668936 0
0.010617735 -0.23019995 0.004582372 0
0.010849275 -0.2301999 0.0073106596 0
0.010317658 -0.23041499 0.0096875951 0
0.013730559 -0.23034668 -0.0097496072 0
0.013483813 -0.23020002 -0.0074107 0
0.013601893 -0.23020001 -0.0044074925 0
0.013342834 -0.23019993 -0.0012045649 0
0.013742808 -0.23019995 0.0015723318 0
0.013351812 -0.23019992 0.0044193794 0
0.013708609 -0.23019992 0.0074617546 0
0.01357589 -0.23034225 0.0096253334 0
0.016670294 -0.23034045 -0.0098484512 0
0.016369082 -0.23019996 -0.0075537218 0
0.016744871 -0.23019995 -0.0047500739 0
0.01653323 -0.23019993 -0.0015517278 0
0.016463596 -0.23019996 0.0014992143 0
0.016443092 -0.23019992 0.004726266 0
0.016195396 -0.2301999 0.007326371 0
0.016366128 -0.23023997 0.0097324261 0
0.019684836 -0.23027304 -0.0098305205 0
0.019631835 -0.23020001 -0.0074714734 0
0.019412899 -0.23019999 -0.0045931004 0
0.019832604 -0.23019995 -0.0013866083 0
0.01968319 -0.23019992 0.001310799 0
0.019483976 -0.23019993 0.0043223198 0
0.019727891 -0.23019995 0.0075739478 0
0.019099846 -0.23026298 0.0096020205 0
0.023689719 -0.23096295 -0.012458861 0
0.022527376 -0.23029755 -0.010545412 0
0.022593921 -0.23019996 -0.0073592737 0
0.022389548 -0.23019996 -0.0044307467 0
0.02243899 -0.23019995 -0.0012432372 0
0.022242248 -0.23020002 0.0013097844 0
0.022443779 -0.23019992 0.0043315282 0
0.02237995 -0.23019993 0.0076711085 0
0.022562623 -0.23034064 0.010543593 0
0.02351076 -0.23049007 0.012278108 0
0.02581092 -0.23036842 -0.013316366 0
0.025771286 -0.23020001 -0.010207011 0
0.025454413 -0.23019995 -0.0072387806 0
0.025455886 -0.23019998 -0.0043884655 0
0.025384558 -0.23019998 -0.0016146457 0
0.02540944 -0.23020001 0.0014155415 0
0.025636433 -0.23019996 0.0041896701 0
0.025266081 -0.23019992 0.0074793841 0
0.025456313 -0.23019992 0.010549168 0
0.025630454 -0.23032668 0.013085312 0
0.029088683 -0.23042178 -0.015747564 0
0.028610464 -0.23020707 -0.01369933 0
0.028536404 -0.23019999 -0.010656128 0
0.028576627 -0.23019998 -0.0073556639 0
0.028000321 -0.23020005 -0.0047321119 0
0.028420534 -0.23019993 -0.001638176 0
0.028529981 -0.23019993 0.0012657684 0
0.028501129 -0.2301999 0.00426473 0
0.028403006 -0.2301999 0.0077340547 0
0.028404644 -0.23019989 0.0105745 0
0.02850033 -0.2301999 0.013524498 0
0.028916713 -0.23041402 0.015770314 0
0.03241843 -0.23070154 -0.018259253 0
0.031564035 -0.2302648 -0.016515264 0
0.031383317 -0.23020001 -0.01376222 0
0.03173675 -0.23019996 -0.01054421 0
0.031327628 -0.23019995 -0.0075197197 0
0.031285871 -0.23019992 -0.0044083246 0
0.0315984 -0.23019996 -0.0014165756 0
0.031451561 -0.23020002 0.0014295758 0
0.031206014 -0.23019993 0.0044252467 0
0.031609926 -0.23019989 0.0074820505 0
0.031505607 -0.23019989 0.01041523 0
0.031371415 -0.23019989 0.013467816 0
0.031214863 -0.23037289 0.016590787 0
0.032687757 -0.23034312 0.018270731 0
0.034661695 -0.23038024 -0.019152079 0
0.034362897 -0.23019998 -0.01650387 0
0.034100451 -0.23020007 -0.01327718 0
0.034937762 -0.23020007 -0.010654974 0
0.034751087 -0.23020001 -0.0078199897 0
0.034667864 -0.23019998 -0.0046566278 0
0.034545541 -0.23019995 -0.0016527992 0
0.034603201 -0.23019996 0.0014223208 0
0.034606986 -0.23019993 0.0044606528 0
0.034493141 -0.23019998 0.0073604393 0
0.034450229 -0.23019989 0.010487376 0
0.034368087 -0.23019992 0.013481922 0
0.034505859 -0.2301999 0.016579844 0
0.034819599 -0.23027347 0.019223336 0
0.037876152 -0.23051727 -0.021664955 0
0.037494995 -0.23021536 -0.019594571 0
0.037208702 -0.23020001 -0.016610665 0
0.037420332 -0.23019999 -0.013594038 0
0.037380241 -0.23019998 -0.010688034 0
0.037460372 -0.23019996 -0.0073105306 0
0.037490513 -0.23019993 -0.0043822033 0
0.037336554 -0.23019995 -0.0012288315 0
0.037422501 -0.23019996 0.0016363227 0
0.037556548 -0.23019992 0.0046223146 0
0.037388816 -0.23019993 0.0073655816 0
0.037521724 -0.23019992 0.010674117 0
0.037288442 -0.23019987 0.01357253 0
0.037760705 -0.23019986 0.016462583 0
0.037642851 -0.23021613 0.019445401 0
0.037670601 -0.23048303 0.021561317 0
0.041615363 -0.23078877 -0.024409194 0
0.040587455 -0.23031639 -0.022539433 0
0.040526371 -0.23020004 -0.019636633 0
0.040850848 -0.23020001 -0.016526289 0
0.040819898 -0.23020001 -0.013558894 0
0.040485144 -0.23019996 -0.010314609 0
0.040824559 -0.23020001 -0.0072793784 0
0.040700138 -0.23020001 -0.0046826228 0
0.040381074 -0.23019996 -0.0013014813 0
0.040585458 -0.23019993 0.001428777 0
0.04051714 -0.23019992 0.0045018629 0
0.040590666 -0.23019993 0.0074720816 0
0.04077727 -0.23019989 0.010501833 0
0.040542964 -0.23019992 0.013376893 0
0.040397987 -0.23019992 0.016776562 0
0.04051239 -0.23019984 0.01957305 0
0.040478837 -0.230314 0.022676745 0
0.041534543 -0.23038998 0.024307638 0
0.043608591 -0.2303074 -0.02512873 0
0.04332741 -0.23019999 -0.02260031 0
0.043872461 -0.23020004 -0.019341685 0
0.043567333 -0.23019998 -0.016564865 0
0.043262258 -0.23020001 -0.013732174 0
0.043841608 -0.23020001 -0.010972261 0
0.043568186 -0.23019995 -0.0076123984 0
0.04343316 -0.23019998 -0.0042247949 0
0.043554004 -0.23019996 -0.0012121254 0
0.043269943 -0.23019995 0.0015866772 0
0.043382887 -0.23019995 0.0047492026 0
0.0434076 -0.23019993 0.007309013 0
0.043367874 -0.23019992 0.010296929 0
0.043670952 -0.23019993 0.013601705 0
0.043641683 -0.23019993 0.016655853 0
0.043386132 -0.23019992 0.019305199 0
0.04342496 -0.23019989 0.022172438 0
0.043796077 -0.23027676 0.025042299 0
0.047266483 -0.23027666 -0.027786301 0
0.046493191 -0.23020005 -0.025550434 0
0.046320129 -0.23020001 -0.022503544 0
0.046554983 -0.23019999 -0.019526118 0
0.046358339 -0.23019999 -0.016521646 0
0.046514295 -0.23019996 -0.013568873 0
0.046413358 -0.23020001 -0.010642468 0
0.046389244 -0.23019996 -0.007533561 0
0.046732437 -0.23019993 -0.0046699247 0
0.046485603 -0.23019996 -0.0015629196 0
0.04653905 -0.23019999 0.0014752711 0
0.046462115 -0.23019999 0.0044254893 0
0.046481956 -0.23019993 0.0075201788 0
0.04633797 -0.23019987 0.010499733 0
0.046429642 -0.23019992 0.013657278 0
0.046556849 -0.23019996 0.016307971 0
0.046368219 -0.23019986 0.019343283 0
0.04629679 -0.23019983 0.022662278 0
