# .PCD v0.7 - Point Cloud Data file format
VERSION 0.7
FIELDS x y z rgb
SIZE 4 4 4 4
TYPE F F F F
COUNT 1 1 1 1
WIDTH 1191
HEIGHT 1
VIEWPOINT 0 0 0 1 0 0 0
POINTS 1191
DATA ascii
0.091512419 -0.2323079 -0.019998822 0
0.091438077 -0.23234802 0.020001175 0
0.094162606 -0.23230797 -0.01999882 0
0.094678856 -0.23250972 0.020001186 0
0.097435899 -0.23248377 -0.019998806 0
0.09743236 -0.23261774 0.020001192 0
0.099864356 -0.23256999 -0.019154301 0
0.10000003 -0.23222299 -0.016412729 0
0.10000002 -0.23256055 -0.013659619 0
0.10000002 -0.23234755 -0.010374688 0
0.10000002 -0.23272988 -0.0075938585 0
0.099999987 -0.23268472 -0.0044339206 0
0.1 -0.23271939 -0.001528748 0
0.10000001 -0.23266791 0.0016259461 0
0.099999964 -0.23220363 0.0043812543 0
0.099999949 -0.23254021 0.0072034732 0
0.099999957 -0.23224457 0.010448571 0
0.099999934 -0.23259827 0.013425963 0
0.099999942 -0.23272882 0.016478112 0
0.099767782 -0.23258735 0.019327771 0
-0.0097323079 -0.22955225 -0.0096608298 0
-0.0099999718 -0.22949737 -0.0075162477 0
-0.0099999867 -0.22952095 -0.0041317395 0
-0.0099999961 -0.22937402 -0.0015279197 0
-0.010000005 -0.22944643 0.001525572 0
-0.010000017 -0.22950846 0.0043688384 0
-0.010000025 -0.22954372 0.0075180065 0
-0.009667919 -0.22941129 0.0099347942 0
-0.0074493499 -0.22943363 -0.010087087 0
-0.0075280345 -0.22986209 0.010188784 0
-0.0043740766 -0.22980893 -0.010364864 0
-0.0043062069 -0.22967771 0.010296596 0
-0.0015659562 -0.22959195 -0.01044524 0
-0.0016023051 -0.22982727 0.010466152 0
0.0024916772 -0.23063309 -0.012081095 0
0.0014530061 -0.23008065 -0.01029087 0
0.00071340328 -0.22973463 -0.0073527843 0
0.00088781037 -0.2296177 -0.004449646 0
0.00072157761 -0.22970831 -0.0014493047 0
0.0010335497 -0.22982721 0.0015689473 0
0.00072640221 -0.22969845 0.0043539479 0
0.00090651447 -0.2298784 0.0074805799 0
0.00083815824 -0.23003849 0.010365347 0
0.002691261 -0.23036443 0.01211606 0
0.0046625077 -0.23049068 -0.012374262 0
0.004107235 -0.23020002 -0.010664454 0
0.0045610759 -0.23019999 -0.0074885418 0
0.0042912783 -0.23019993 -0.0044731256 0
0.004413316 -0.23019993 -0.0014970424 0
0.004299257 -0.23019993 0.0015971024 0
0.0044845943 -0.2301999 0.0044357073 0
0.0045521422 -0.23019989 0.0077078384 0
0.0046592043 -0.23019995 0.01049538 0
0.0046838322 -0.23041117 0.012384677 0
0.007288062 -0.23044638 -0.012611421 0
0.0074351211 -0.23019999 -0.010668995 0
0.0075249295 -0.23019998 -0.0074346843 0
0.0074373875 -0.23019995 -0.0044429428 0
0.0075249216 -0.23019993 -0.0013542981 0
0.0076466482 -0.23019993 0.0015307426 0
0.0076083122 -0.23019995 0.00456458 0
0.007669488 -0.23019993 0.0073531629 0
0.0076332488 -0.23019984 0.010411517 0
0.0076091476 -0.23037116 0.012688475 0
0.010684069 -0.23043828 -0.013008615 0
0.010436527 -0.23020002 -0.010472514 0
0.010593371 -0.23019998 -0.0072586765 0
0.010556996 -0.23019993 -0.0046251346 0
0.010548179 -0.23019993 -0.0012795489 0
0.010500223 -0.23019998 0.0014046278 0
0.010461668 -0.23019996 0.0043377639 0
0.010358161 -0.2301999 0.0070999889 0
0.010612629 -0.23019987 0.010558624 0
0.010622192 -0.23030566 0.012877439 0
0.013561303 -0.23038061 -0.013454471 0
0.013390206 -0.23019999 -0.010298 0
0.013238014 -0.23019995 -0.007349235 0
0.013321001 -0.23019995 -0.0046782452 0
0.013819027 -0.23020004 -0.0015485587 0
0.013560541 -0.23019993 0.0015113959 0
0.013517094 -0.23019992 0.0044481349 0
0.013515107 -0.2301999 0.0077076685 0
0.013547871 -0.23019987 0.010497759 0
0.013704083 -0.23038478 0.013370406 0
0.016506046 -0.23032248 -0.013438246 0
0.016598955 -0.23019998 -0.010593364 0
0.016298108 -0.23019996 -0.007482748 0
0.016796682 -0.23019995 -0.0045701261 0
0.016487362 -0.23019993 -0.0016249551 0
0.016752508 -0.23019996 0.0014087425 0
0.016376723 -0.23019992 0.0045679878 0
0.016570166 -0.23019992 0.0074673872 0
0.016256958 -0.23019992 0.010509982 0
0.01663059 -0.23032585 0.013701316 0
0.020657465 -0.2304558 -0.015108659 0
0.019325573 -0.23022521 -0.013459983 0
0.019772653 -0.23020001 -0.010543924 0
0.019513754 -0.23019999 -0.0074991323 0
0.019346783 -0.23019995 -0.0044140727 0
0.019410545 -0.23019995 -0.0015072495 0
0.019618444 -0.23019995 0.0015422564 0
0.019526327 -0.23019995 0.0046898341 0
0.019655094 -0.2301999 0.0075456407 0
0.019615058 -0.23019992 0.010443372 0
0.019383689 -0.23027144 0.013763411 0
0.020196145 -0.23022808 0.015033606 0
0.022709854 -0.23044819 -0.015392992 0
0.022435786 -0.23019999 -0.013537548 0
0.022607744 -0.23019999 -0.010504152 0
0.022630867 -0.23020002 -0.0075518005 0
0.022498997 -0.23019995 -0.0048884279 0
0.022477256 -0.23019993 -0.001588759 0
0.022595378 -0.23019993 0.0015087937 0
0.022349007 -0.23019995 0.0041583087 0
0.022313979 -0.2301999 0.0073614917 0
0.022745093 -0.23019986 0.010496475 0
0.022516353 -0.23019987 0.013435162 0
0.022578385 -0.23049307 0.015351182 0
0.025299728 -0.23048857 -0.015757581 0
0.025731757 -0.23020002 -0.013244526 0
0.025545564 -0.23019998 -0.010552405 0
0.025560418 -0.23019999 -0.0077402829 0
0.025545284 -0.23019998 -0.0046170754 0
0.025499688 -0.23019993 -0.0015167332 0
0.025593193 -0.23019996 0.0015084777 0
0.025617346 -0.23019993 0.0045297728 0
0.025394412 -0.23019989 0.0075964839 0
0.025641227 -0.23019992 0.010586308 0
0.025613399 -0.23019992 0.013553099 0
0.025434515 -0.23042139 0.015710624 0
0.028372962 -0.23034023 -0.015953382 0
0.028870106 -0.23019998 -0.013718363 0
0.02861142 -0.23019996 -0.010396747 0
0.02855725 -0.23019998 -0.007396528 0
0.028670186 -0.23019995 -0.0044971239 0
0.028287297 -0.23019995 -0.0018534143 0
0.028583093 -0.2301999 0.0017538754 0
0.028544094 -0.23019993 0.0045474456 0
0.028752318 -0.2301999 0.0076140924 0
0.028620463 -0.23019998 0.010362579 0
0.028329421 -0.23019989 0.013703154 0
0.028377267 -0.23033945 0.015845479 0
0.031341176 -0.23036553 -0.016253704 0
0.031553239 -0.23020007 -0.013544774 0
0.031256549 -0.23020001 -0.010410725 0
0.031453788 -0.23019999 -0.0077769654 0
0.031367466 -0.23019996 -0.0044641201 0
0.031421676 -0.23019995 -0.0015888849 0
0.031548563 -0.23019996 0.0015958832 0
0.031458341 -0.2301999 0.0046546878 0
0.031708069 -0.23019993 0.0076385215 0
0.031776913 -0.2301999 0.010540761 0
0.031450298 -0.23019993 0.013318302 0
0.031712696 -0.23031047 0.016579511 0
0.034527328 -0.23035499 -0.016452948 0
0.03461824 -0.23019998 -0.01330958 0
0.034353897 -0.23020001 -0.010550955 0
0.034327701 -0.23020005 -0.0075379219 0
0.034765154 -0.23019999 -0.0043937424 0
0.03458257 -0.23019992 -0.0015464906 0
0.034619302 -0.23019993 0.0016157678 0
0.034096662 -0.23019996 0.0048298021 0
0.03447023 -0.2301999 0.007602205 0
0.034344662 -0.23019987 0.010698298 0
0.034516532 -0.23019989 0.013515695 0
0.034690838 -0.23029523 0.016418753 0
0.038247347 -0.23053443 -0.01804024 0
0.037143365 -0.23026995 -0.016839471 0
0.037796032 -0.23019999 -0.013507947 0
0.037633829 -0.23020001 -0.01046099 0
0.037387595 -0.23019998 -0.0074956799 0
0.037288878 -0.23019996 -0.004411445 0
0.037587892 -0.23019993 -0.0015840495 0
0.037527718 -0.2301999 0.0016333543 0
0.037547614 -0.23019995 0.0044806916 0
0.037298501 -0.23019993 0.007669216 0
0.037279233 -0.23019989 0.010372574 0
0.0374026 -0.23019992 0.013206316 0
0.037212145 -0.23026732 0.016843412 0
0.040218696 -0.23020005 -0.018075563 0
0.040516552 -0.23019999 -0.016450958 0
0.040355973 -0.23019998 -0.013649085 0
0.040587306 -0.23019996 -0.0106085 0
0.040310148 -0.23019999 -0.007616295 0
0.040321268 -0.23019996 -0.0043226406 0
0.040733024 -0.23019996 -0.001356326 0
0.040538654 -0.23019995 0.0014120782 0
0.040493131 -0.23019995 0.0045310766 0
0.040387206 -0.23019992 0.0075277318 0
0.040424798 -0.23019987 0.010531619 0
0.040526159 -0.23019995 0.013385287 0
0.040553529 -0.2301999 0.016488748 0
0.040624928 -0.23033111 0.018311026 0
0.043761097 -0.23030035 -0.018599462 0
0.043324541 -0.23020004 -0.016431769 0
0.043585829 -0.23020001 -0.013546271 0
0.04373255 -0.23020001 -0.01059515 0
0.043700013 -0.23019995 -0.0073581636 0
0.043622527 -0.23019995 -0.0044919769 0
0.043561209 -0.23019993 -0.0013523067 0
0.043470588 -0.23019995 0.0013472514 0
0.043629598 -0.23019992 0.0042231963 0
0.043414198 -0.23019992 0.007390622 0
0.043675791 -0.23019992 0.010809205 0
0.043289442 -0.23019987 0.013250905 0
0.043444682 -0.23019989 0.016739672 0
0.044158891 -0.2304146 0.018835327 0
0.046728555 -0.23032072 -0.018885583 0
0.046592787 -0.23020004 -0.016829059 0
0.046112332 -0.23019998 -0.013720667 0
0.046587516 -0.23019998 -0.01051663 0
0.046648342 -0.23019995 -0.0074181044 0
0.046478406 -0.23019995 -0.0043758531 0
0.046531506 -0.23019998 -0.001251661 0
0.046515141 -0.23019993 0.0017105245 0
0.046521451 -0.23019993 0.0045276666 0
0.046589147 -0.23019992 0.0076575438 0
0.046449862 -0.23019993 0.010461838 0
0.046540592 -0.23019992 0.013789577 0
0.046535805 -0.23019989 0.016351214 0
0.046819247 -0.23040165 0.019049205 0
0.049418051 -0.23042391 -0.019335205 0
0.049493309 -0.23020002 -0.016296171 0
0.049152609 -0.23020001 -0.013205754 0
0.049634814 -0.23019995 -0.010024711 0
0.049538441 -0.23019996 -0.0075544324 0
0.049601723 -0.23019995 -0.0045792367 0
0.049396906 -0.23020005 -0.0014038108 0
0.049431339 -0.23019992 0.0013789095 0
0.049726322 -0.23019995 0.0043040751 0
0.049503908 -0.23019992 0.0075052786 0
0.049211971 -0.2301999 0.010407328 0
0.049352042 -0.23019993 0.013616683 0
0.049332686 -0.2301999 0.01656431 0
0.049752858 -0.23030631 0.019232741 0
0.052901205 -0.23023336 -0.019130988 0
0.05237009 -0.23019998 -0.0163144 0
0.052384503 -0.23019999 -0.013406999 0
0.052862961 -0.23019998 -0.010571477 0
0.052483987 -0.23019995 -0.0075343847 0
0.052447185 -0.23019993 -0.0045255492 0
0.052564602 -0.2301999 -0.0016282942 0
0.052585293 -0.23019995 0.0014323053 0
0.052446924 -0.23019998 0.0045597069 0
0.052432004 -0.2301999 0.0072723464 0
0.052555636 -0.23019992 0.010420587 0
0.052298989 -0.23019993 0.013420624 0
0.052417152 -0.23019993 0.016836736 0
0.052270669 -0.23028381 0.019084308 0
0.055681542 -0.23035993 -0.019263605 0
0.055525061 -0.23019998 -0.016544968 0
0.055671383 -0.23020002 -0.013446887 0
0.055302389 -0.23019996 -0.010751463 0
0.055464756 -0.23019995 -0.007619787 0
0.055464815 -0.23019993 -0.0046893037 0
0.055529926 -0.23019992 -0.0014921814 0
0.055860277 -0.23019992 0.0015393647 0
0.055406675 -0.23019992 0.0045698951 0
0.055390868 -0.23019989 0.007680438 0
0.055548307 -0.23019993 0.010110178 0
0.05566575 -0.23019992 0.013666809 0
0.055656761 -0.23019987 0.01641616 0
0.055462446 -0.23036432 0.019446572 0
0.058389321 -0.23029414 -0.019076325 0
0.058641165 -0.23020002 -0.016339105 0
0.058493327 -0.23020002 -0.013313321 0
0.058460087 -0.23020001 -0.010479227 0
0.058643378 -0.23019996 -0.0075549316 0
0.058575839 -0.23019993 -0.004518366 0
0.058263455 -0.23020001 -0.0014469875 0
0.058569577 -0.23019996 0.0014219517 0
0.058776427 -0.23019995 0.004358185 0
0.058424529 -0.23019989 0.0076920656 0
0.058265179 -0.23019996 0.01038143 0
0.058746312 -0.23019995 0.013535862 0
0.058642548 -0.23019987 0.016481442 0
0.058536313 -0.23026919 0.019262377 0
0.061328474 -0.2302914 -0.018997692 0
0.061602067 -0.23020001 -0.01620288 0
0.06154279 -0.23019999 -0.013538617 0
0.06162874 -0.23019998 -0.010525176 0
0.061353739 -0.23020002 -0.0072002253 0
0.061043698 -0.23019995 -0.0043391916 0
0.06147005 -0.23019993 -0.0013269825 0
0.06134804 -0.23019993 0.0017190726 0
0.061602551 -0.23019992 0.004529017 0
0.061762564 -0.23019999 0.0072964919 0
0.061464015 -0.23019987 0.01069793 0
0.061473828 -0.23019987 0.013217992 0
0.06125715 -0.2301999 0.016637653 0
0.061649028 -0.23028198 0.019234259 0
0.064486437 -0.23037067 -0.01915155 0
0.064483784 -0.23020002 -0.016598577 0
0.064562522 -0.23020004 -0.013315928 0
0.064385697 -0.23019999 -0.010255507 0
0.064773433 -0.23019999 -0.0072939824 0
0.064687021 -0.23019999 -0.004121982 0
0.064510971 -0.23019993 -0.0015479715 0
0.064453676 -0.23019996 0.0016236415 0
0.064568222 -0.23019995 0.0045025805 0
0.064778589 -0.23019993 0.007418822 0
0.064433627 -0.23019992 0.010387518 0
0.06472744 -0.2301999 0.013562548 0
0.06455221 -0.23019986 0.016468303 0
0.064532891 -0.23030086 0.019220108 0
0.06756065 -0.23029424 -0.019342583 0
0.067778178 -0.23020008 -0.016508153 0
0.06783773 -0.23020001 -0.013400737 0
0.067437991 -0.23020001 -0.01051049 0
0.067666613 -0.23020002 -0.0072009158 0
0.067394696 -0.23019995 -0.0045000585 0
0.067604974 -0.23019993 -0.0012640186 0
0.067194961 -0.23020004 0.0017526102 0
0.067439355 -0.23019995 0.0043210434 0
0.067621686 -0.23019992 0.0072236387 0
0.067398809 -0.23019993 0.010395908 0
0.067410082 -0.23019987 0.013562349 0
0.067366667 -0.23019987 0.016222317 0
0.067475796 -0.23035444 0.019476358 0
0.070606254 -0.230286 -0.019068113 0
0.070659094 -0.23020002 -0.016634408 0
0.070732214 -0.23019998 -0.013499034 0
0.07037849 -0.23019996 -0.010376217 0
0.070427239 -0.23019999 -0.0076004714 0
0.070499569 -0.23019995 -0.0043733288 0
0.070868209 -0.23019995 -0.0016723911 0
0.070496321 -0.23019993 0.0013639602 0
0.070465036 -0.2301999 0.0045863371 0
0.070556246 -0.23019989 0.0076941932 0
0.070398718 -0.23019987 0.010559121 0
0.070625238 -0.2301999 0.013570352 0
0.070498861 -0.23019989 0.016552994 0
0.070614703 -0.23032339 0.019303722 0
0.073387422 -0.23035708 -0.019247055 0
0.073629096 -0.23019998 -0.016449841 0
0.073551781 -0.23019998 -0.013372996 0
0.073440798 -0.23020005 -0.01071825 0
0.073313721 -0.23019999 -0.0075749098 0
0.073591858 -0.23019999 -0.0044017779 0
0.073660351 -0.23019992 -0.0015989385 0
0.072989561 -0.23019998 0.0017513231 0
0.07335344 -0.23019995 0.0045217131 0
0.073653378 -0.23019989 0.0074451771 0
0.073595092 -0.23019992 0.010612017 0
0.07358849 -0.23019992 0.013505997 0
0.073716685 -0.2301999 0.016600929 0
0.073454209 -0.23027143 0.019140534 0
0.076470956 -0.23024087 -0.019169224 0
0.076771468 -0.23019998 -0.016587159 0
0.076677613 -0.23019995 -0.0135311 0
0.076588169 -0.23020004 -0.0107131 0
0.076515444 -0.23019996 -0.0075344979 0
0.076715238 -0.23019998 -0.004538333 0
0.076535672 -0.23019996 -0.0016230462 0
0.076514043 -0.2301999 0.0017610968 0
0.076562822 -0.23019995 0.0046320683 0
0.076245561 -0.23019999 0.0074088722 0
0.076486439 -0.23019987 0.010591839 0
0.076769248 -0.23019993 0.013590224 0
0.076296046 -0.23019987 0.016089045 0
0.076284394 -0.23028299 0.019226892 0
0.079596326 -0.23036309 -0.019385481 0
0.079475559 -0.23019999 -0.016647233 0
0.079648115 -0.23019999 -0.013198149 0
0.07952977 -0.23019999 -0.010535405 0
0.079464555 -0.23019999 -0.0074589648 0
0.079414919 -0.23019995 -0.0045625977 0
0.079409838 -0.23019998 -0.0015831689 0
0.079403803 -0.23019996 0.0012661145 0
0.07962469 -0.23019992 0.0044905785 0
0.079408042 -0.23019993 0.007288646 0
0.079279765 -0.23019987 0.010496223 0
0.079642132 -0.23019989 0.013255896 0
0.079639755 -0.23019996 0.016506866 0
0.079064727 -0.23034222 0.01937321 0
0.082266003 -0.23029751 -0.019398179 0
0.082493901 -0.23019999 -0.016200408 0
0.082247302 -0.23019995 -0.013594754 0
0.0826196 -0.23019996 -0.010444901 0
0.08224912 -0.23019999 -0.0076490585 0
0.082705811 -0.23019993 -0.0043962351 0
0.082593754 -0.23019996 -0.0015403907 0
0.08223962 -0.23019996 0.001341924 0
0.082351744 -0.23019995 0.0043352954 0
0.082655959 -0.23019989 0.0076943827 0
0.082584724 -0.23019992 0.010582805 0
0.082577012 -0.23019987 0.01323559 0
0.082476519 -0.23019987 0.016323356 0
0.082334332 -0.23027694 0.019397102 0
0.085539423 -0.23031019 -0.019286217 0
0.085436255 -0.23020002 -0.016292112 0
0.085349321 -0.23019998 -0.013646908 0
0.085528314 -0.23019999 -0.010823381 0
0.085594133 -0.23019999 -0.0077535152 0
0.085562214 -0.23019995 -0.0044653043 0
0.085508183 -0.23019996 -0.0013384012 0
0.085506216 -0.23019992 0.0014164208 0
0.085582592 -0.23019996 0.0046150275 0
0.085610099 -0.23019993 0.007647445 0
0.085591614 -0.23019989 0.010549012 0
0.085731685 -0.23019996 0.013542298 0
0.085382588 -0.23019987 0.016548615 0
0.085385472 -0.23033422 0.019371087 0
0.088578574 -0.23031469 -0.019318996 0
0.088460952 -0.23019999 -0.016568474 0
0.088487074 -0.23019996 -0.013398076 0
0.088250719 -0.23019998 -0.010730398 0
0.088294148 -0.23019993 -0.0074907728 0
0.088645458 -0.23019992 -0.004625055 0
0.088630639 -0.23020001 -0.0010580282 0
0.088499635 -0.23019993 0.0016110722 0
0.088599123 -0.23019992 0.0044149281 0
0.088859051 -0.23019989 0.0073741288 0
0.088315152 -0.23019993 0.010288597 0
0.088583075 -0.23019987 0.013430386 0
0.088507809 -0.2301999 0.016519012 0
0.088548683 -0.23031197 0.019284258 0
0.091465279 -0.23031452 -0.019304506 0
0.091464587 -0.23020001 -0.016545035 0
0.09167368 -0.23020001 -0.013690401 0
0.091724142 -0.23020001 -0.010496869 0
0.091422454 -0.23019998 -0.0075211297 0
0.091442429 -0.23019993 -0.0046538813 0
0.091583967 -0.23019993 -0.0016600209 0
0.091282651 -0.23019993 0.0010588232 0
0.091466084 -0.23019993 0.0046600034 0
0.091261722 -0.2301999 0.0073487782 0
0.091377728 -0.23019989 0.0105026 0
0.091746017 -0.23019986 0.013414179 0
0.091589279 -0.2301999 0.016366789 0
0.091409706 -0.23026201 0.019324319 0
0.094245613 -0.23029755 -0.019298447 0
0.09451893 -0.23020001 -0.016547607 0
0.094573408 -0.23019995 -0.013357692 0
0.094752103 -0.23020001 -0.01066838 0
0.094566755 -0.23019996 -0.0077351774 0
0.09434972 -0.23020001 -0.0042588166 0
0.094576754 -0.2301999 -0.001663978 0
0.09450683 -0.23019993 0.001614488 0
0.09439218 -0.23019993 0.0043167425 0
0.094580933 -0.2301999 0.0073466487 0
0.094715908 -0.23019996 0.010511276 0
0.094907403 -0.23019992 0.01374234 0
0.094394945 -0.23019992 0.016371464 0
0.094472587 -0.23030986 0.019379793 0
0.097425632 -0.2303323 -0.019144014 0
0.097505085 -0.23019998 -0.016750066 0
0.097537078 -0.23019999 -0.013278363 0
0.097530521 -0.23019998 -0.010734622 0
0.097627811 -0.23020001 -0.007713825 0
0.0973325 -0.23020004 -0.0048532682 0
0.097656004 -0.23019993 -0.0016275099 0
0.097377732 -0.23019992 0.0015354386 0
0.097686052 -0.23019995 0.004624004 0
0.097529016 -0.23019992 0.0074294307 0
0.097443923 -0.23019986 0.010720701 0
0.09769506 -0.23019992 0.013699732 0
0.097460888 -0.23019987 0.01666628 0
0.097306266 -0.23029424 0.019127872 0
0.099491514 -0.23037674 -0.019351516 0
0.099680305 -0.23036337 -0.01658204 0
0.099779025 -0.23042387 -0.01370185 0
0.099695049 -0.23026441 -0.010410612 0
0.099638656 -0.23030187 -0.0075422833 0
0.099704802 -0.23029529 -0.0042275046 0
0.099844344 -0.23045744 -0.0013141111 0
0.099629469 -0.23038101 0.0016667404 0
0.099774279 -0.23035207 0.0046875835 0
0.099750899 -0.23030776 0.0076213963 0
0.099806614 -0.23039721 0.010500052 0
0.09978836 -0.23045859 0.013708853 0
0.099751905 -0.23034334 0.016836951 0
0.099766873 -0.23043551 0.01933793 0
-0.0097603332 -0.22640675 -0.0097728698 0
-0.0099999737 -0.22667296 -0.007574514 0
-0.009999983 -0.22646087 -0.0043086535 0
-0.0099999933 -0.22637114 -0.0015907404 0
-0.010000004 -0.22640863 0.0015258829 0
-0.010000017 -0.2264947 0.0045696609 0
-0.010000028 -0.22625498 0.0074506006 0
-0.0098557081 -0.22624186 0.009657301 0
-0.0072473544 -0.22690633 -0.0099992035 0
-0.0075182398 -0.22629657 0.010000793 0
-0.0044908281 -0.22628641 -0.0099991979 0
-0.0046984861 -0.22695647 0.010000804 0
-0.0013259156 -0.22660634 -0.0099991839 0
-0.0015225653 -0.22653551 0.010000814 0
3.4646757e-08 -0.22664155 -0.0095701329 0
2.7994851e-08 -0.2264021 -0.0077325855 0
1.6017243e-08 -0.22647518 -0.0044238446 0
6.2744143e-09 -0.22694328 -0.0017324468 0
-5.3700684e-09 -0.22655262 0.0014842685 0
-1.5873399e-08 -0.22638015 0.0043857484 0
-2.7369701e-08 -0.226207 0.0075615305 0
-3.4049275e-08 -0.22666728 0.0094067231 0
-0.0097327242 -0.22339638 -0.0097838026 0
-0.00999997 -0.22379622 -0.0077505885 0
-0.009999983 -0.22347806 -0.0046103848 0
-0.0099999961 -0.2236384 -0.001323849 0
-0.010000004 -0.22345348 0.0016937287 0
-0.010000016 -0.2236959 0.0046776934 0
-0.010000028 -0.22338676 0.0074589532 0
-0.0098020332 -0.22341487 0.0097747119 0
-0.007687924 -0.22367938 -0.0099992175 0
-0.0074687428 -0.22336507 0.01000078 0
-0.0042499425 -0.22325841 -0.0099992063 0
-0.0044876509 -0.22352773 0.010000792 0
-0.001240756 -0.22370289 -0.0099991951 0
-0.0013461496 -0.22354779 0.010000801 0
3.4528512e-08 -0.22359098 -0.0095374798 0
2.7758428e-08 -0.22356719 -0.0076672859 0
1.5116475e-08 -0.22347352 -0.0041750246 0
5.9815108e-09 -0.22353953 -0.0016515463 0
-6.8343788e-09 -0.22382675 0.0018887654 0
-1.6504769e-08 -0.22335781 0.0045601493 0
-2.7237112e-08 -0.22348253 0.0075248936 0
-3.3972796e-08 -0.22333315 0.0093855839 0
-0.0098243663 -0.22088663 -0.0098864054 0
-0.0099999709 -0.22069508 -0.0075072013 0
-0.009999983 -0.22043371 -0.0044063027 0
-0.0099999942 -0.22024985 -0.001215277 0
-0.010000004 -0.22048636 0.0014407707 0
-0.010000014 -0.22050735 0.0043040635 0
-0.010000028 -0.22040057 0.007333857 0
-0.0096582863 -0.22061472 0.0099119758 0
-0.0073930621 -0.22064887 -0.0099992277 0
-0.0074071898 -0.22040804 0.010000769 0
-0.0043786331 -0.22056924 -0.0099992165 0
-0.0043469532 -0.22054544 0.010000781 0
-0.001517328 -0.22052 -0.0099992063 0
-0.0015149543 -0.22072507 0.010000792 0
3.4289428e-08 -0.2207036 -0.0094714444 0
2.6032145e-08 -0.22063792 -0.0071904212 0
1.7410519e-08 -0.22016352 -0.0048087514 0
5.8963403e-09 -0.22063385 -0.001628029 0
-6.55157e-09 -0.22031853 0.0018106285 0
-1.5961467e-08 -0.22051857 0.004410055 0
-2.6762029e-08 -0.22038783 0.0073936437 0
-3.4453628e-08 -0.22024952 0.0095183998 0
-0.0098679978 -0.21768403 -0.0096279401 0
-0.0099999709 -0.21733983 -0.0075957109 0
-0.0099999839 -0.21770863 -0.0044516376 0
-0.0099999951 -0.2175148 -0.0014318746 0
-0.010000004 -0.21751492 0.0015175181 0
-0.010000017 -0.21751751 0.0046201246 0
-0.010000028 -0.21734725 0.0075829295 0
-0.0096939253 -0.21746466 0.009806701 0
-0.0074978396 -0.21742047 -0.0099992398 0
-0.0073476261 -0.21773055 0.01000076 0
-0.0041332496 -0.21769667 -0.0099992277 0
-0.0046632844 -0.21726799 0.010000767 0
-0.0012786598 -0.21755868 -0.0099992184 0
-0.0016291353 -0.21731625 0.01000078 0
3.3939884e-08 -0.21774705 -0.0093748961 0
2.7402036e-08 -0.21765926 -0.0075688558 0
1.6429841e-08 -0.21738279 -0.0045378553 0
5.8826539e-09 -0.21745393 -0.0016242597 0
-4.5087956e-09 -0.2177173 0.0012463152 0
-1.7393473e-08 -0.21737321 0.0048056268 0
-2.7339782e-08 -0.2176017 0.0075532342 0
-3.4265213e-08 -0.2172742 0.0094663408 0
-0.009764174 -0.21414548 -0.0096998643 0
-0.0099999737 -0.21488968 -0.0076378207 0
-0.0099999839 -0.21438158 -0.0045615337 0
-0.0099999933 -0.21436885 -0.0015356907 0
-0.010000004 -0.21460868 0.001370088 0
-0.010000014 -0.21446338 0.0043516196 0
-0.010000029 -0.21415909 0.0076453094 0
-0.0097605465 -0.21439481 0.0095613943 0
-0.0075503523 -0.21436492 -0.0099992529 0
-0.0077089313 -0.21468033 0.01000075 0
-0.0043948721 -0.21464276 -0.0099992398 0
-0.0044014794 -0.21461001 0.010000761 0
-0.0012425216 -0.21471119 -0.0099992268 0
-0.0017783233 -0.21440516 0.010000767 0
3.4385224e-08 -0.21439725 -0.0094979303 0
2.7955188e-08 -0.21439189 -0.0077216723 0
1.6352597e-08 -0.21476479 -0.0045165266 0
5.1124318e-09 -0.21446763 -0.0014115014 0
-6.0879781e-09 -0.21461909 0.0016825434 0
-1.7073207e-08 -0.2147136 0.0047171456 0
-2.780814e-08 -0.21436366 0.0076826033 0
-3.4099426e-08 -0.21487947 0.0094205337 0
-0.0097090192 -0.21155922 -0.0097881882 0
-0.0099999718 -0.21142945 -0.0074325413 0
-0.009999983 -0.21173488 -0.0043997848 0
-0.0099999951 -0.21167958 -0.0014707203 0
-0.010000004 -0.2116019 0.0016914069 0
-0.010000017 -0.21168835 0.0043704594 0
-0.010000028 -0.21140018 0.0073669325 0
-0.0098604085 -0.2114315 0.0097111436 0
-0.0073960661 -0.2114186 -0.0099992612 0
-0.0075579868 -0.21161044 0.010000739 0
-0.0044478197 -0.21157649 -0.0099992482 0
-0.004369718 -0.21125741 0.010000748 0
-0.0014064969 -0.2111886 -0.0099992417 0
-0.0013452923 -0.21150766 0.010000762 0
3.4126373e-08 -0.21175832 -0.0094264336 0
2.7542956e-08 -0.2112633 -0.0076078074 0
1.59593e-08 -0.21190415 -0.0044078915 0
5.2741229e-09 -0.21130006 -0.0014561792 0
-5.5939733e-09 -0.21166095 0.001546067 0
-1.6544385e-08 -0.21133289 0.0045710499 0
-2.6384692e-08 -0.21163253 0.0072893747 0
-3.4185085e-08 -0.2111849 0.0094441837 0
-0.0096822195 -0.20859958 -0.0098670311 0
-0.0099999718 -0.20841175 -0.0070996508 0
-0.0099999839 -0.20847966 -0.004232394 0
-0.0099999933 -0.2083097 -0.0016028399 0
-0.010000005 -0.20836574 0.0016157341 0
-0.010000015 -0.20842749 0.0044309665 0
-0.010000029 -0.20819576 0.007414957 0
-0.0097552361 -0.20872602 0.0097468365 0
-0.0074524875 -0.20840491 -0.0099992715 0
-0.0075156619 -0.20857944 0.010000725 0
-0.0046116617 -0.20847073 -0.0099992631 0
-0.0043822294 -0.20878048 0.010000741 0
-0.0015357948 -0.20864274 -0.0099992482 0
-0.0013694607 -0.20824239 0.010000747 0
3.4281229e-08 -0.2081921 -0.0094692251 0
2.7016982e-08 -0.20848989 -0.0074625202 0
1.6004872e-08 -0.20816536 -0.0044204942 0
4.5747575e-09 -0.20851535 -0.0012629938 0
-5.2054032e-09 -0.20867154 0.0014387161 0
-1.7272077e-08 -0.20847943 0.0047720596 0
-2.6744459e-08 -0.20849647 0.0073887473 0
-3.4801531e-08 -0.20834726 0.009614463 0
-0.0098395497 -0.20527913 -0.0095781637 0
-0.0099999737 -0.20536715 -0.0077576903 0
-0.0099999858 -0.20540307 -0.0044835857 0
-0.0099999961 -0.20514847 -0.0015248276 0
-0.010000006 -0.20541631 0.0016545737 0
-0.010000017 -0.20515329 0.0043623927 0
-0.010000026 -0.20527843 0.0075328178 0
-0.0098843994 -0.20523253 0.0096895369 0
-0.0076068407 -0.20544459 -0.0099992827 0
-0.0075578005 -0.20514664 0.010000715 0
-0.0045733675 -0.20557031 -0.0099992715 0
-0.0042772377 -0.20557339 0.010000728 0
-0.0016296373 -0.20540719 -0.0099992631 0
-0.0014860434 -0.20529036 0.010000737 0
3.4106286e-08 -0.20503353 -0.009420909 0
2.7512675e-08 -0.20541839 -0.0075994637 0
1.6498243e-08 -0.20537247 -0.0045567942 0
5.9911995e-09 -0.2055293 -0.001654288 0
-6.0612133e-09 -0.2056324 0.0016751172 0
-1.5364904e-08 -0.20547169 0.0042452039 0
-2.663654e-08 -0.20572948 0.007358925 0
-3.3787678e-08 -0.20544942 0.0093343826 0
-0.0095471069 -0.20246091 -0.0098804813 0
-0.0099999737 -0.20250721 -0.007570751 0
-0.0099999839 -0.20267448 -0.0045114718 0
-0.0099999951 -0.20220348 -0.0014810101 0
-0.010000004 -0.20260577 0.001734759 0
-0.010000014 -0.20276396 0.004312769 0
-0.010000029 -0.20257282 0.0074715088 0
-0.0097963773 -0.20251915 0.0096956072 0
-0.0073822397 -0.20247284 -0.0099992938 0
-0.0072658537 -0.20243199 0.010000707 0
-0.0044891485 -0.20232992 -0.0099992817 0
-0.0044417782 -0.20238693 0.010000718 0
-0.0016015023 -0.20239852 -0.0099992733 0
-0.001028696 -0.20271054 0.010000731 0
3.4194446e-08 -0.20261748 -0.0094452715 0
2.8151334e-08 -0.20228076 -0.0077759004 0
1.6973313e-08 -0.20259792 -0.0046880399 0
6.2792394e-09 -0.20235074 -0.0017338687 0
-6.0615473e-09 -0.20256041 0.0016751984 0
-1.5746981e-08 -0.20263714 0.00435074 0
-2.7364448e-08 -0.20233747 0.0075599928 0
-3.4950862e-08 -0.20256637 0.0096556935 0
-0.0098268343 -0.19895287 -0.0097289411 0
-0.0099999746 -0.19940664 -0.0072704479 0
-0.009999983 -0.19959138 -0.004473777 0
-0.0099999914 -0.19948183 -0.0018394163 0
-0.010000006 -0.1997969 0.0014867194 0
-0.010000015 -0.19943596 0.0044121053 0
-0.010000029 -0.19941822 0.0073684873 0
-0.0098997885 -0.19969368 0.0096218009 0
-0.00737075 -0.19917169 -0.0099993059 0
-0.0076354099 -0.19924755 0.010000693 0
-0.0047186804 -0.19959523 -0.0099992948 0
-0.0046794727 -0.19948508 0.010000705 0
-0.0014234678 -0.19980246 -0.0099992808 0
-0.001601195 -0.19953872 0.010000718 0
3.406657e-08 -0.19970131 -0.0094099576 0
2.7699439e-08 -0.19964136 -0.0076510771 0
1.6423677e-08 -0.19982217 -0.0045362166 0
5.6110872e-09 -0.19922099 -0.0015493071 0
-5.588114e-09 -0.19953014 0.0015444043 0
-1.5523781e-08 -0.19936401 0.0042890711 0
-2.6535863e-08 -0.19925141 0.00733109 0
-3.396115e-08 -0.19958371 0.0093822815 0
-0.0097176787 -0.19649975 -0.0097099366 0
-0.0099999737 -0.19670801 -0.0074531999 0
-0.0099999849 -0.1966842 -0.0043074954 0
-0.0099999923 -0.19646057 -0.001568525 0
-0.010000004 -0.19634648 0.0014473714 0
-0.010000014 -0.19641551 0.0046884082 0
-0.010000025 -0.19643493 0.0072300155 0
-0.0098510263 -0.19639347 0.0096988576 0
-0.0075580031 -0.19672202 -0.0099993153 0
-0.0072108852 -0.19651783 0.010000686 0
-0.0043885 -0.19665858 -0.0099993031 0
-0.0045667551 -0.19642125 0.010000695 0
-0.0014870511 -0.19630173 -0.0099992938 0
-0.0017522858 -0.19627677 0.010000703 0
3.4719623e-08 -0.19712691 -0.0095903687 0
2.7284431e-08 -0.19636868 -0.0075364448 0
1.6497699e-08 -0.19653051 -0.0045566764 0
6.0785692e-09 -0.19651513 -0.001678456 0
-4.7895248e-09 -0.19654734 0.0013237883 0
-1.6756692e-08 -0.19630376 0.0046296436 0
-2.6660969e-08 -0.19624747 0.0073656389 0
-3.4574342e-08 -0.19636038 0.0095516592 0
-0.0097850645 -0.1936319 -0.0097930226 0
-0.0099999718 -0.19346341 -0.0074183294 0
-0.0099999821 -0.19346552 -0.0045709144 0
-0.0099999951 -0.19341594 -0.0014632393 0
-0.010000004 -0.19344465 0.0015671648 0
-0.010000017 -0.19347462 0.0044845333 0
-0.01000003 -0.19356516 0.0076507595 0
-0.009703462 -0.19320667 0.0097740451 0
-0.0076626288 -0.19332266 -0.0099993302 0
-0.0072450815 -0.1934543 0.010000676 0
-0.0046780496 -0.19360568 -0.0099993153 0
-0.0044287178 -0.19322973 0.010000684 0
-0.0015299636 -0.19345173 -0.0099993031 0
-0.0015698144 -0.19337903 0.010000694 0
3.3909654e-08 -0.19377623 -0.0093666315 0
2.7026624e-08 -0.19349937 -0.0074652382 0
1.5440742e-08 -0.19319037 -0.0042647105 0
5.3559996e-09 -0.1934028 -0.0014788618 0
-4.7070654e-09 -0.19327827 0.0013009975 0
-1.651112e-08 -0.19342293 0.0045617954 0
-2.8051266e-08 -0.19337288 0.0077496897 0
-3.4477754e-08 -0.19348966 0.0095249675 0
-0.0096704466 -0.19041519 -0.0098446589 0
-0.00999997 -0.19044439 -0.0075808689 0
-0.0099999849 -0.19054073 -0.0044256318 0
-0.0099999961 -0.19040243 -0.0016246141 0
-0.010000006 -0.19064881 0.0016223231 0
-0.010000017 -0.19042771 0.0042495243 0
-0.010000025 -0.19055234 0.0073522376 0
-0.0098088821 -0.1908318 0.0097287642 0
-0.0076439092 -0.19007869 -0.0099993413 0
-0.0074459971 -0.19055502 0.01000066 0
-0.0043443791 -0.19065793 -0.0099993246 0
-0.004497102 -0.19058454 0.010000675 0
-0.0015602981 -0.19078256 -0.0099993162 0
-0.0016937336 -0.19032173 0.010000683 0
3.3895066e-08 -0.19071391 -0.0093626138 0
2.6849493e-08 -0.19022185 -0.0074163186 0
1.548322e-08 -0.19036119 -0.0042764549 0
4.8327342e-09 -0.19048318 -0.0013343235 0
-5.893785e-09 -0.1905216 0.0016288115 0
-1.6267023e-08 -0.19058061 0.0044943551 0
-2.6560658e-08 -0.1906696 0.0073379083 0
-3.4561996e-08 -0.19046293 0.0095482282 0
-0.009650059 -0.18727835 -0.0098305475 0
-0.0099999728 -0.18761829 -0.0078368364 0
-0.0099999802 -0.18756559 -0.0045185592 0
-0.0099999914 -0.18757086 -0.0015244933 0
-0.010000008 -0.18725979 0.001745417 0
-0.010000016 -0.18768021 0.0040981495 0
-0.010000026 -0.18749434 0.0077230167 0
-0.0096462378 -0.18732034 0.0098600443 0
-0.0075977589 -0.18757062 -0.0099993469 0
-0.0075244424 -0.18735304 0.010000651 0
-0.0047072377 -0.18733473 -0.0099993395 0
-0.0044026738 -0.18728997 0.010000663 0
-0.0016342908 -0.18761331 -0.0099993274 0
-0.0013217089 -0.18739687 0.010000672 0
3.4272073e-08 -0.18732893 -0.009466771 0
2.8280454e-08 -0.18761876 -0.0078116218 0
1.6358905e-08 -0.18736489 -0.0045183683 0
5.4895088e-09 -0.18733743 -0.0015157649 0
-5.6297629e-09 -0.18763092 0.0015558666 0
-1.5549887e-08 -0.1874449 0.004296239 0
-2.6954229e-08 -0.18773289 0.0074466192 0
-3.4308403e-08 -0.18796673 0.0094781658 0
-0.0097717391 -0.18404055 -0.0097977761 0
-0.0099999737 -0.18482794 -0.00748858 0
-0.0099999849 -0.18433028 -0.0042690639 0
-0.0099999942 -0.18456373 -0.0016000024 0
-0.010000006 -0.18486224 0.0017133686 0
-0.010000012 -0.18438894 0.0043127779 0
-0.010000029 -0.1844153 0.0076283379 0
-0.0098354155 -0.18434469 0.0097841416 0
-0.0073787295 -0.18452777 -0.009999359 0
-0.0077798646 -0.18444359 0.010000641 0
-0.0043469346 -0.18446022 -0.0099993488 0
-0.0045289136 -0.18466686 0.01000065 0
-0.0015012237 -0.1845322 -0.0099993376 0
-0.0014377442 -0.18474448 0.010000663 0
3.4505785e-08 -0.18440416 -0.0095313434 0
2.7361137e-08 -0.18439342 -0.0075576785 0
1.6701581e-08 -0.18460554 -0.0046130405 0
5.1431504e-09 -0.1845842 -0.0014200954 0
-5.5041895e-09 -0.18433546 0.0015211658 0
-1.5797607e-08 -0.18453741 0.00436466 0
-2.6690557e-08 -0.18453002 0.0073737702 0
-3.4324412e-08 -0.18437734 0.0094825756 0
-0.0097123403 -0.18182899 -0.0097573604 0
-0.0099999737 -0.18129963 -0.0074683065 0
-0.0099999821 -0.18163458 -0.0045324136 0
-0.0099999942 -0.18146589 -0.0014783069 0
-0.010000003 -0.1812918 0.001604219 0
-0.010000017 -0.18141273 0.0045572673 0
-0.010000027 -0.18148652 0.0074558575 0
-0.0097420989 -0.18125264 0.0097334133 0
-0.0075369389 -0.18148716 -0.0099993683 0
-0.0075019547 -0.18135202 0.010000628 0
-0.0046413764 -0.1816128 -0.0099993572 0
-0.0046218648 -0.1819666 0.010000641 0
-0.0016355738 -0.18158591 -0.0099993469 0
-0.0015360661 -0.18170874 0.010000654 0
3.4519626e-08 -0.18118846 -0.0095351785 0
2.6986871e-08 -0.181339 -0.0074543008 0
1.6901719e-08 -0.18134081 -0.0046683392 0
5.3335456e-09 -0.18135098 -0.0014727027 0
-5.1611431e-09 -0.18166943 0.0014263917 0
-1.5966044e-08 -0.18127774 0.0044111777 0
-2.6783724e-08 -0.18165252 0.0073994962 0
-3.4162248e-08 -0.18137987 0.0094377678 0
-0.0097736139 -0.17854139 -0.0097291935 0
-0.0099999737 -0.17846133 -0.007504744 0
-0.0099999849 -0.17866771 -0.0043979357 0
-0.0099999951 -0.17875129 -0.001458163 0
-0.010000006 -0.1784194 0.001461889 0
-0.010000016 -0.17877705 0.0043606991 0
-0.010000029 -0.17840014 0.0075385482 0
-0.0098916376 -0.17841548 0.0097284084 0
-0.0071160011 -0.17835219 -0.0099993823 0
-0.0074289921 -0.17815773 0.010000616 0
-0.0042527253 -0.17843464 -0.0099993693 0
-0.0045332201 -0.17860411 0.010000627 0
-0.0015223873 -0.17876078 -0.009999359 0
-0.0014109394 -0.17829725 0.01000064 0
3.3894811e-08 -0.17808421 -0.0093625886 0
2.7076849e-08 -0.17859505 -0.0074791666 0
1.5882952e-08 -0.17857772 -0.0043869214 0
6.6479506e-09 -0.17850949 -0.0018358092 0
-5.2573679e-09 -0.17861146 0.0014529621 0
-1.6146254e-08 -0.17843734 0.004460949 0
-2.736139e-08 -0.17848377 0.007559062 0
-3.4877125e-08 -0.17830501 0.009635237 0
-0.0097640306 -0.17527242 -0.009775891 0
-0.0099999718 -0.17562877 -0.007394576 0
-0.009999983 -0.17545326 -0.0044511408 0
-0.0099999923 -0.17530879 -0.0015170673 0
-0.010000004 -0.17540331 0.0014561149 0
-0.010000015 -0.17547841 0.0044874577 0
-0.010000029 -0.1755228 0.0076375841 0
-0.0096556609 -0.17527585 0.0097361254 0
-0.0078711296 -0.17560862 -0.0099993944 0
-0.0073983385 -0.17531614 0.010000606 0
-0.0044060247 -0.17558554 -0.0099993786 0
-0.0048548584 -0.17529279 0.010000615 0
-0.0015340322 -0.17578222 -0.0099993683 0
-0.0015544024 -0.17535469 0.010000627 0
3.4900793e-08 -0.17575561 -0.0096404934 0
2.7728133e-08 -0.17545407 -0.0076590907 0
1.5065535e-08 -0.17574559 -0.004161125 0
4.2646033e-09 -0.17517164 -0.0011774363 0
-5.824369e-09 -0.17554381 0.0016095816 0
-1.7616875e-08 -0.17565818 0.0048671896 0
-2.6801555e-08 -0.17578143 0.007404401 0
-3.4418939e-08 -0.17551479 0.0095086554 0
-0.009727791 -0.1726577 -0.0097548701 0
-0.0099999718 -0.17244972 -0.007537473 0
-0.0099999821 -0.17248359 -0.004653764 0
-0.0099999923 -0.17237131 -0.0014024863 0
-0.010000006 -0.17281112 0.0014340968 0
-0.010000017 -0.17263204 0.0046150712 0
-0.010000026 -0.17268686 0.0075513767 0
-0.0098435543 -0.17238334 0.0095768599 0
-0.0075902785 -0.17226134 -0.0099994047 0
-0.0071774335 -0.17256904 0.010000598 0
-0.0046301326 -0.17259923 -0.0099993916 0
-0.0045711547 -0.17259546 0.010000609 0
-0.0014080523 -0.17266499 -0.0099993814 0
-0.0013871815 -0.17265956 0.010000621 0
3.3860562e-08 -0.17232975 -0.0093531478 0
2.6830676e-08 -0.17226478 -0.0074111857 0
1.581342e-08 -0.17260118 -0.0043677352 0
4.643756e-09 -0.17239946 -0.001282185 0
-5.4884195e-09 -0.1726044 0.001516767 0
-1.6264735e-08 -0.17239639 0.004493657 0
-2.6838846e-08 -0.17228395 0.0074146898 0
-3.4142065e-08 -0.1723775 0.0094321594 0
-0.009779539 -0.16928683 -0.0096597653 0
-0.0099999728 -0.16942754 -0.0076667774 0
-0.0099999821 -0.16966464 -0.0042942348 0
-0.0099999942 -0.16972224 -0.0017281679 0
-0.010000006 -0.16946901 0.0015175261 0
-0.010000016 -0.16931401 0.0047762385 0
-0.010000028 -0.16944742 0.0076182387 0
-0.0098711755 -0.1697008 0.0095686167 0
-0.0072189979 -0.16962317 -0.009999413 0
-0.0076872283 -0.16955669 0.010000587 0
-0.004417839 -0.16969879 -0.0099994019 0
-0.0045821825 -0.16933897 0.010000594 0
-0.0013856047 -0.16932592 -0.0099993916 0
-0.0013069261 -0.16951783 0.010000609 0
3.4217809e-08 -0.16982478 -0.0094518447 0
2.7303319e-08 -0.16954264 -0.0075417599 0
1.5801254e-08 -0.16929883 -0.0043643862 0
5.8648193e-09 -0.16957659 -0.0016195064 0
-4.7731086e-09 -0.16948542 0.0013191553 0
-1.7585863e-08 -0.1694902 0.0048586004 0
-2.6772202e-08 -0.16945341 0.0073962696 0
-3.4797409e-08 -0.16944568 0.0096131843 0
-0.0096997041 -0.1667642 -0.0098425429 0
-0.0099999746 -0.16668312 -0.0071572238 0
-0.0099999821 -0.16648142 -0.0042870301 0
-0.0099999933 -0.16657072 -0.0014183162 0
-0.010000007 -0.1664363 0.001602086 0
-0.010000013 -0.16647744 0.0043566534 0
-0.01000003 -0.16651858 0.007690975 0
-0.0097605512 -0.16649137 0.0098183639 0
-0.0075985608 -0.16625299 -0.009999427 0
-0.0074485224 -0.16659684 0.010000574 0
-0.0042688991 -0.16634895 -0.0099994112 0
-0.004472815 -0.16676266 0.01000059 0
-0.0013310922 -0.16642128 -0.0099994009 0
-0.0018105969 -0.16637708 0.010000596 0
3.4090455e-08 -0.16665538 -0.0094166752 0
2.6444123e-08 -0.16669472 -0.007304423 0
1.7645192e-08 -0.16643967 -0.0048737731 0
6.0475824e-09 -0.16657199 -0.0016700045 0
-5.1441229e-09 -0.16660501 0.0014216354 0
-1.5864682e-08 -0.1664657 0.0043831235 0
-2.6650174e-08 -0.16652928 0.0073625497 0
-3.4461184e-08 -0.16652213 0.0095202923 0
-0.0098049575 -0.16345599 -0.0097935526 0
-0.00999997 -0.16353585 -0.0075667882 0
-0.009999983 -0.16361248 -0.0044189091 0
-0.0099999923 -0.16363718 -0.0017095983 0
-0.010000004 -0.16362439 0.0014887074 0
-0.010000014 -0.16353187 0.0046223821 0
-0.01000003 -0.16350779 0.0076275836 0
-0.0098555833 -0.16328073 0.0097753806 0
-0.0077734687 -0.16340223 -0.0099994382 0
-0.0073876893 -0.16329078 0.010000564 0
-0.0047755558 -0.16373491 -0.0099994261 0
-0.0044678063 -0.16335782 0.010000573 0
-0.001248325 -0.16362727 -0.0099994121 0
-0.0015510365 -0.16351019 0.010000587 0
3.4772789e-08 -0.1633729 -0.0096051777 0
2.8090366e-08 -0.16378428 -0.0077591976 0
1.6022199e-08 -0.16353165 -0.0044254418 0
4.8330842e-09 -0.16372356 -0.0013345171 0
-5.1229403e-09 -0.16363913 0.0014157731 0
-1.6622156e-08 -0.16339593 0.0045923595 0
-2.7228056e-08 -0.16374724 0.007522176 0
-3.4683723e-08 -0.16332872 0.0095817558 0
-0.0098031471 -0.1602736 -0.0096747102 0
-0.0099999709 -0.16088052 -0.0076454068 0
-0.0099999839 -0.16079439 -0.0043402319 0
-0.0099999961 -0.16038927 -0.0011894953 0
-0.010000003 -0.16052376 0.0014258963 0
-0.010000016 -0.16087437 0.0042427788 0
-0.010000027 -0.16044916 0.0077065257 0
-0.0098691573 -0.16042234 0.0096696243 0
-0.0074108848 -0.16053501 -0.0099994466 0
-0.0076305186 -0.16018094 0.010000551 0
-0.0044248402 -0.16066024 -0.0099994363 0
-0.0046171462 -0.16059507 0.010000566 0
-0.0015013043 -0.16057317 -0.0099994233 0
-0.0014720163 -0.16046765 0.010000576 0
3.3894334e-08 -0.16067655 -0.0093625188 0
2.7087026e-08 -0.16100998 -0.0074820411 0
1.7695637e-08 -0.16029103 -0.0048877308 0
5.3336233e-09 -0.16045652 -0.0014727998 0
-4.5368806e-09 -0.16041306 0.001253866 0
-1.6889496e-08 -0.16043958 0.0046661999 0
-2.7758858e-08 -0.16033943 0.0076687941 0
-3.4765694e-08 -0.16074879 0.0096043916 0
-0.0097109107 -0.1574228 -0.0097462693 0
-0.0099999728 -0.15737838 -0.0075401166 0
-0.0099999812 -0.15748218 -0.0045377645 0
-0.0099999951 -0.15745333 -0.0012315691 0
-0.010000005 -0.15721287 0.0013385558 0
-0.010000016 -0.15731506 0.0043537514 0
-0.010000028 -0.15747006 0.0073444634 0
-0.0095258886 -0.15741687 0.0098992363 0
-0.0074697738 -0.15765265 -0.0099994531 0
-0.0074890996 -0.15749882 0.010000542 0
-0.0042143245 -0.1573721 -0.0099994456 0
-0.0044252528 -0.15729158 0.010000555 0
-0.001207895 -0.15760984 -0.0099994335 0
-0.0014335613 -0.15760146 0.010000566 0
3.3860239e-08 -0.15744938 -0.0093531124 0
2.6917117e-08 -0.15739915 -0.0074351183 0
1.6390041e-08 -0.15732548 -0.0045270785 0
5.1815845e-09 -0.15751472 -0.0014308107 0
-5.6191523e-09 -0.15738103 0.0015528259 0
-1.6458495e-08 -0.15770827 0.0045471289 0
-2.6609502e-08 -0.15784867 0.0073512825 0
-3.4556422e-08 -0.15706988 0.0095465677 0
-0.0097309984 -0.15450962 -0.0097563853 0
-0.0099999718 -0.15451843 -0.0075724777 0
-0.0099999821 -0.15429248 -0.004295114 0
-0.0099999923 -0.15471902 -0.0013752581 0
-0.010000006 -0.15447946 0.0014474132 0
-0.010000016 -0.15483111 0.0042429329 0
-0.010000028 -0.1540809 0.0074082976 0
-0.0098260278 -0.15471573 0.0097989338 0
-0.0074926508 -0.15459339 -0.0099994633 0
-0.0072888075 -0.15467918 0.010000533 0
-0.0042758733 -0.1544006 -0.0099994587 0
-0.0046437806 -0.15440126 0.010000542 0
-0.0016833654 -0.15453874 -0.0099994447 0
-0.0016353071 -0.15442872 0.01000055 0
3.3962433e-08 -0.15430373 -0.0093813539 0
2.7320125e-08 -0.15432429 -0.0075464575 0
1.7160872e-08 -0.15445349 -0.0047400258 0
6.9855748e-09 -0.15425093 -0.0019291636 0
-5.9117875e-09 -0.15462348 0.0016336547 0
-1.6887904e-08 -0.15445526 0.0046657389 0
-2.7069458e-08 -0.15446314 0.0074783303 0
-3.3989174e-08 -0.15432565 0.0093898587 0
-0.0099584414 -0.15116388 -0.0096899783 0
-0.0099999746 -0.15160836 -0.0075475341 0
-0.009999983 -0.15169139 -0.0044511394 0
-0.0099999951 -0.15169205 -0.0015176447 0
-0.010000007 -0.1517863 0.0017805082 0
-0.010000016 -0.15151235 0.0043983581 0
-0.010000028 -0.15179786 0.0075653968 0
-0.0097332969 -0.15148598 0.0098018814 0
-0.007541806 -0.15164563 -0.0099994773 0
-0.0073173936 -0.15180586 0.010000524 0
-0.0045248806 -0.15171818 -0.0099994652 0
-0.004580732 -0.15163162 0.010000531 0
-0.0015601817 -0.15159583 -0.009999455 0
-0.0016042452 -0.1514423 0.010000543 0
3.4791714e-08 -0.15113185 -0.0096104499 0
2.6551705e-08 -0.15139307 -0.0073341969 0
1.679485e-08 -0.1513094 -0.0046389261 0
5.4981233e-09 -0.15168075 -0.0015182736 0
-5.5162639e-09 -0.15153795 0.0015243825 0
-1.5778335e-08 -0.15158278 0.0043592164 0
-2.6723242e-08 -0.15158781 0.0073826797 0
-3.4644565e-08 -0.15139067 0.0095708957 0
-0.0097301984 -0.14872995 -0.0096558109 0
-0.0099999756 -0.14860654 -0.0071329628 0
-0.0099999839 -0.14849177 -0.004693904 0
-0.0099999942 -0.14835373 -0.0016197342 0
-0.010000005 -0.14839703 0.0016907634 0
-0.010000016 -0.14886053 0.0046697017 0
-0.010000024 -0.14846665 0.0075491932 0
-0.0098130619 -0.14865692 0.0097485175 0
-0.0074660392 -0.14857647 -0.0099994903 0
-0.0072869668 -0.14841746 0.010000513 0
-0.0048670718 -0.1485213 -0.0099994782 0
-0.0044991048 -0.14848322 0.010000519 0
-0.0016306196 -0.14846499 -0.0099994671 0
-0.0012483825 -0.14824168 0.010000532 0
3.4248806e-08 -0.14859447 -0.0094604837 0
2.6968733e-08 -0.14844677 -0.007449409 0
1.6387494e-08 -0.14821255 -0.0045264079 0
5.0005635e-09 -0.14861581 -0.0013808369 0
-5.2809135e-09 -0.14832598 0.0014593567 0
-1.5837525e-08 -0.14820072 0.0043755551 0
-2.6893268e-08 -0.14846084 0.007429637 0
-3.4409336e-08 -0.14852197 0.0095059043 0
-0.0097889826 -0.14544334 -0.0097317295 0
-0.0099999737 -0.14536425 -0.0073995646 0
-0.009999983 -0.14551984 -0.0044230185 0
-0.0099999933 -0.14542744 -0.0014408312 0
-0.010000005 -0.14549035 0.001897911 0
-0.010000016 -0.14545856 0.0044861319 0
-0.010000028 -0.14545532 0.0077899126 0
-0.0097434092 -0.14540057 0.0097273486 0
-0.0074523217 -0.14531265 -0.0099994997 0
-0.0075469445 -0.14524896 0.010000501 0
-0.0044968165 -0.14507195 -0.0099994894 0
-0.0042040115 -0.14526619 0.010000512 0
-0.0014131011 -0.1455577 -0.0099994754 0
-0.001512951 -0.14565474 0.01000052 0
3.4073533e-08 -0.14571416 -0.0094120773 0
2.7057466e-08 -0.14551771 -0.0074739316 0
1.55504e-08 -0.14545809 -0.0042951754 0
6.161367e-09 -0.1452843 -0.0017015138 0
-5.9272085e-09 -0.14544018 0.0016378814 0
-1.5687847e-08 -0.14543961 0.0043341978 0
-2.7312895e-08 -0.14529428 0.0075455448 0
-3.4469689e-08 -0.14553672 0.0095225666 0
-0.0097864149 -0.14265805 -0.009638763 0
-0.0099999728 -0.1425081 -0.0073764334 0
-0.009999983 -0.14215702 -0.0041324296 0
-0.0099999951 -0.14253817 -0.001531146 0
-0.010000003 -0.14233609 0.0012426826 0
-0.010000014 -0.14232279 0.0043766983 0
-0.010000025 -0.14254479 0.0074931253 0
-0.009718121 -0.14235583 0.0097882254 0
-0.0075977342 -0.14235672 -0.0099995146 0
-0.0074492232 -0.14272591 0.010000492 0
-0.0044900323 -0.14222507 -0.0099994987 0
-0.0044106599 -0.14280425 0.010000502 0
-0.001229875 -0.14250582 -0.0099994866 0
-0.0017371929 -0.14245313 0.01000051 0
3.521793e-08 -0.14299068 -0.0097282184 0
2.6504029e-08 -0.14269644 -0.0073210588 0
1.6560728e-08 -0.14244324 -0.0045742835 0
5.0259645e-09 -0.14221302 -0.001387877 0
-4.566493e-09 -0.14268181 0.0012619821 0
-1.6451363e-08 -0.14275151 0.0045451047 0
-2.7470641e-08 -0.14244035 0.0075891111 0
-3.461259e-08 -0.14215173 0.0095620304 0
-0.0098095667 -0.13973965 -0.0096360147 0
-0.0099999709 -0.13965188 -0.0073037031 0
-0.0099999821 -0.13974421 -0.004705321 0
-0.0099999942 -0.13973093 -0.0016893724 0
-0.010000004 -0.13950326 0.001514313 0
-0.010000017 -0.13948992 0.0047576623 0
-0.010000025 -0.13951248 0.0073151407 0
-0.0097682616 -0.1393352 0.0097148037 0
-0.0075001852 -0.13928884 -0.009999522 0
-0.0076405681 -0.13958037 0.010000478 0
-0.0045615723 -0.13930513 -0.0099995146 0
-0.0042779967 -0.13944881 0.010000489 0
-0.0013991053 -0.13945942 -0.0099994978 0
-0.0016327492 -0.139642 0.010000498 0
3.4642895e-08 -0.13929057 -0.0095693823 0
2.6886834e-08 -0.13963343 -0.0074268174 0
1.6211997e-08 -0.13964422 -0.0044779587 0
5.2317626e-09 -0.13964984 -0.0014447367 0
-5.4503229e-09 -0.1393643 0.0015061226 0
-1.5726805e-08 -0.13967098 0.0043449388 0
-2.7698038e-08 -0.13934344 0.0076519167 0
-3.3714919e-08 -0.13957062 0.0093140444 0
-0.0096821366 -0.13624753 -0.0098120859 0
-0.0099999737 -0.13659681 -0.0073943473 0
-0.009999983 -0.13637644 -0.0048532765 0
-0.0099999923 -0.13650133 -0.0016298068 0
-0.010000004 -0.13646339 0.0014539632 0
-0.010000017 -0.13652804 0.0047792629 0
-0.010000028 -0.13654192 0.0078184931 0
-0.0096833548 -0.13627546 0.0097504389 0
-0.0075057852 -0.13687856 -0.0099995313 0
-0.0072823199 -0.13654499 0.010000469 0
-0.0045206989 -0.13654082 -0.0099995192 0
-0.0046424125 -0.13650316 0.010000478 0
-0.0013859571 -0.13633187 -0.009999508 0
-0.001048325 -0.1363818 0.010000492 0
3.4400102e-08 -0.13617808 -0.0095023243 0
2.6860331e-08 -0.13668935 -0.0074195061 0
1.5955289e-08 -0.13677432 -0.0044070552 0
4.388963e-09 -0.13642243 -0.0012119302 0
-5.6924709e-09 -0.13661189 0.0015730046 0
-1.6019314e-08 -0.13633329 0.0044257306 0
-2.6436471e-08 -0.13634878 0.007303406 0
-3.4408099e-08 -0.13672179 0.0095055206 0
-0.0097622806 -0.13383992 -0.0097277714 0
-0.0099999728 -0.13336302 -0.0073392643 0
-0.0099999839 -0.13365903 -0.0045857565 0
-0.0099999923 -0.13354933 -0.0018603012 0
-0.010000006 -0.13357854 0.0013891587 0
-0.010000017 -0.13358666 0.0045819213 0
-0.010000025 -0.13339226 0.0075037857 0
-0.0097100316 -0.13324207 0.0097663198 0
-0.007452237 -0.13357505 -0.0099995425 0
-0.0076126428 -0.13344869 0.010000452 0
-0.0045931661 -0.13379288 -0.0099995313 0
-0.004419764 -0.13354005 0.010000466 0
-0.0013972186 -0.13379158 -0.009999522 0
-0.0014957259 -0.13349792 0.010000478 0
3.419694e-08 -0.13338633 -0.0094462121 0
2.7453082e-08 -0.13358368 -0.0075832615 0
1.6066922e-08 -0.13345212 -0.0044379053 0
5.9874719e-09 -0.13366784 -0.0016535184 0
-5.3558313e-09 -0.13335563 0.0014799982 0
-1.6863593e-08 -0.13340689 0.0046589468 0
-2.6945125e-08 -0.13346946 0.0074439086 0
-3.4556145e-08 -0.13357888 0.0095464056 0
-0.009763103 -0.13030133 -0.0097434074 0
-0.0099999709 -0.13060218 -0.0073488723 0
-0.0099999839 -0.13065837 -0.004746153 0
-0.0099999933 -0.13049664 -0.0014605063 0
-0.010000004 -0.13046616 0.0015547748 0
-0.010000014 -0.13032149 0.0043291748 0
-0.010000026 -0.13019094 0.0071103056 0
-0.0097396849 -0.13030477 0.0098051354 0
-0.0074400767 -0.13050979 -0.0099995555 0
-0.0076104272 -0.13060439 0.010000443 0
-0.0046226988 -0.1304802 -0.0099995425 0
-0.0044102464 -0.13055329 0.010000455 0
-0.0015204926 -0.13052773 -0.0099995323 0
-0.0013658877 -0.13061024 0.01000047 0
