# .PCD v0.7 - Point Cloud Data file format
VERSION 0.7
FIELDS x y z rgb
SIZE 4 4 4 4
TYPE F F F F
COUNT 1 1 1 1
WIDTH 1182
HEIGHT 1
VIEWPOINT 0 0 0 1 0 0 0
POINTS 1182
DATA ascii
0.034475308 -0.23019992 -0.0015174233 0
0.034525126 -0.23019995 0.0014955892 0
0.034155633 -0.2301999 0.0046592713 0
0.03450549 -0.23019992 0.0074243457 0
0.03433951 -0.2301999 0.01062604 0
0.034510188 -0.23019989 0.013521694 0
0.034459919 -0.2301999 0.01617825 0
0.034627546 -0.23019987 0.019316159 0
0.034469534 -0.23019989 0.022427078 0
0.034527335 -0.23019986 0.025355309 0
0.034481857 -0.23025753 0.028511979 0
0.037506826 -0.23027962 -0.02876454 0
0.037710063 -0.23020007 -0.025105327 0
0.037507758 -0.23020005 -0.022183044 0
0.037393697 -0.23020001 -0.0196344 0
0.037626795 -0.23020002 -0.016594363 0
0.037368242 -0.23019995 -0.01362397 0
0.037294887 -0.23019999 -0.010404169 0
0.03763362 -0.23019996 -0.0075275614 0
0.03721654 -0.23019995 -0.0043376829 0
0.037331793 -0.23019993 -0.0012866011 0
0.037290543 -0.23019998 0.0015048875 0
0.037612978 -0.23019995 0.0047160569 0
0.037569337 -0.23019993 0.0075976383 0
0.037275556 -0.23019989 0.010457117 0
0.037575323 -0.23019992 0.013318522 0
0.037880428 -0.23019992 0.016331822 0
0.037247576 -0.23019989 0.019593352 0
0.037453927 -0.2301999 0.022493308 0
0.037735365 -0.23019984 0.025709152 0
0.037555128 -0.23026472 0.028744778 0
0.04054362 -0.23034523 -0.028776215 0
0.040523045 -0.23020002 -0.02560138 0
0.040329296 -0.23019999 -0.022462768 0
0.040447723 -0.23020005 -0.019253809 0
0.040453367 -0.23019999 -0.01641972 0
0.040616997 -0.23019999 -0.013769042 0
0.040441301 -0.23020001 -0.010577438 0
0.040555552 -0.23019996 -0.0076750652 0
0.04035959 -0.23019996 -0.0049602627 0
0.040612403 -0.23019996 -0.0015585739 0
0.040649239 -0.23019996 0.0015946069 0
0.040941752 -0.23019993 0.0045702327 0
0.040594377 -0.23019995 0.007927686 0
0.040617168 -0.23019987 0.010299799 0
0.040230751 -0.2301999 0.013619279 0
0.040376168 -0.23019993 0.016366471 0
0.040403843 -0.23019986 0.019728918 0
0.040655095 -0.23019989 0.022369524 0
0.040282037 -0.23019987 0.025143949 0
0.040569104 -0.23027866 0.02892643 0
0.043516643 -0.2303284 -0.028697023 0
0.043423921 -0.23020001 -0.025533816 0
0.043232109 -0.23020008 -0.02250406 0
0.043474134 -0.23020004 -0.019556513 0
0.043473151 -0.23020001 -0.016435146 0
0.043477699 -0.23019998 -0.013451561 0
0.043650106 -0.23019998 -0.010933059 0
0.043126155 -0.23020001 -0.0076498813 0
0.043479823 -0.23019998 -0.0045937807 0
0.043452483 -0.23019995 -0.00137095 0
0.04367274 -0.23019993 0.001582123 0
0.043548882 -0.23019996 0.0045645018 0
0.043761894 -0.2301999 0.007523316 0
0.043287635 -0.23019993 0.010503271 0
0.043234732 -0.2301999 0.013604855 0
0.043799635 -0.23019993 0.016478827 0
0.043338653 -0.23019989 0.019329494 0
0.0432612 -0.23019989 0.022371626 0
0.043393947 -0.23019987 0.025393182 0
0.043463927 -0.2302866 0.028677359 0
0.046428781 -0.23030657 -0.028459147 0
0.046313483 -0.23020001 -0.02533057 0
0.046495497 -0.23019999 -0.02240004 0
0.046786569 -0.23020004 -0.019235263 0
0.046415869 -0.23019996 -0.016508002 0
0.046918701 -0.23019996 -0.013495761 0
0.046494093 -0.23020001 -0.010343433 0
0.046457756 -0.23019995 -0.0075894208 0
0.046184842 -0.23019998 -0.004409322 0
0.046431459 -0.23019999 -0.0013451984 0
0.046539608 -0.23019993 0.0014731874 0
0.046258729 -0.2301999 0.0045140227 0
0.046811815 -0.23019989 0.0072292099 0
0.046598993 -0.23019992 0.010477436 0
0.04637745 -0.23019986 0.013518641 0
0.046680678 -0.23019993 0.016375175 0
0.046470147 -0.23019989 0.019556981 0
0.046024784 -0.23019987 0.022723064 0
0.046473268 -0.23019986 0.025658926 0
0.046601601 -0.23033245 0.028352126 0
0.049339712 -0.23027502 -0.028394561 0
0.049467891 -0.23020005 -0.025223592 0
0.049628794 -0.23020004 -0.022234255 0
0.049461212 -0.23020005 -0.019352337 0
0.049017895 -0.23020005 -0.016463879 0
0.049303699 -0.23020004 -0.0135861 0
0.049672503 -0.23019998 -0.010772431 0
0.049287491 -0.23019998 -0.007485854 0
0.049374625 -0.23019998 -0.0047047082 0
0.049601875 -0.23019995 -0.0015782919 0
0.049388509 -0.23019993 0.0012627491 0
0.049388211 -0.23019995 0.0044600377 0
0.049256373 -0.23019998 0.0076140375 0
0.049651686 -0.23019998 0.010446943 0
0.049715944 -0.23019992 0.013533832 0
0.049460109 -0.23019992 0.016510546 0
0.049363978 -0.23019986 0.019665478 0
0.049493451 -0.23019989 0.022649311 0
0.049412284 -0.2301998 0.025541371 0
0.049402896 -0.23028412 0.028386936 0
0.052660409 -0.23037519 -0.028362213 0
0.05278872 -0.23020007 -0.025759164 0
0.052527033 -0.23020001 -0.022385716 0
0.052510381 -0.23020004 -0.01945764 0
0.052442987 -0.23019999 -0.01625587 0
0.052332323 -0.23020001 -0.013279491 0
0.052343253 -0.23019998 -0.010598655 0
0.052442636 -0.23020001 -0.0074703046 0
0.052415598 -0.23019998 -0.0045858184 0
0.052605327 -0.23019995 -0.0014165638 0
0.052531872 -0.23019995 0.0014877454 0
0.052467342 -0.23019995 0.0044248244 0
0.052441873 -0.2301999 0.007615881 0
0.052799385 -0.23019989 0.010584714 0
0.052355286 -0.23019992 0.013525485 0
0.052455977 -0.23019987 0.016369684 0
0.052656978 -0.23019989 0.01964483 0
0.052846786 -0.23019983 0.022654431 0
0.052226964 -0.23019987 0.025770832 0
0.052610368 -0.23039432 0.028310429 0
0.055250969 -0.23025608 -0.028104028 0
0.05509771 -0.23020005 -0.025701948 0
0.055779722 -0.23020005 -0.022639314 0
0.055498142 -0.23019999 -0.019760732 0
0.055690795 -0.23020002 -0.016518781 0
0.055208933 -0.23020004 -0.01384743 0
0.055382691 -0.23020002 -0.01039771 0
0.055704273 -0.23019998 -0.007507442 0
0.055426981 -0.23019993 -0.004297724 0
0.055386599 -0.23019993 -0.0015186445 0
0.055282455 -0.23019998 0.0014200542 0
0.055597197 -0.23019992 0.0043836893 0
0.055611759 -0.23019995 0.007366946 0
0.055664361 -0.23019993 0.010287733 0
0.055463385 -0.23019987 0.013337329 0
0.05541876 -0.23019992 0.016420515 0
0.055502322 -0.23019987 0.019672705 0
0.055179913 -0.23019987 0.022432184 0
0.055682 -0.23019984 0.025825039 0
0.055632547 -0.23033093 0.028087366 0
0.058319539 -0.23036356 -0.027564624 0
0.058684513 -0.23020004 -0.025510618 0
0.058463968 -0.23020004 -0.022558236 0
0.058758635 -0.23020002 -0.019552851 0
0.058372658 -0.23020007 -0.016435672 0
0.058458921 -0.23019998 -0.013352668 0
0.058592774 -0.23020002 -0.010761019 0
0.058525469 -0.23019998 -0.0074226428 0
0.058359418 -0.23019993 -0.0043145204 0
0.05843861 -0.23019996 -0.0015075055 0
0.058609486 -0.23019996 0.0017368841 0
0.05824545 -0.23019996 0.0043374989 0
0.058363188 -0.2301999 0.0075175036 0
0.05838497 -0.23019992 0.010644659 0
0.058294404 -0.23019993 0.01351165 0
0.058740407 -0.2301999 0.016485643 0
0.058228109 -0.23019989 0.01922206 0
0.058373034 -0.23019989 0.022551244 0
0.058450382 -0.23019984 0.025652001 0
0.05809905 -0.23059505 0.027648641 0
0.06069117 -0.23043525 -0.027248777 0
0.061585397 -0.23024555 -0.025707461 0
0.061719023 -0.23020011 -0.022326756 0
0.061467879 -0.23020004 -0.01949532 0
0.061438404 -0.23019999 -0.016583389 0
0.061438102 -0.23020001 -0.013440194 0
0.061284646 -0.23020007 -0.010516481 0
0.061676994 -0.23020002 -0.0074201073 0
0.061508399 -0.23019998 -0.004031138 0
0.06142769 -0.23019996 -0.0016542374 0
0.061330374 -0.23019993 0.0014590523 0
0.061706964 -0.23019992 0.0044064997 0
0.061368182 -0.23019989 0.0075860787 0
0.061536543 -0.23019989 0.010407412 0
0.061656844 -0.23019993 0.013278832 0
0.061234225 -0.23019987 0.016402822 0
0.06156864 -0.23019984 0.019648669 0
0.061442412 -0.23019984 0.022487747 0
0.061662987 -0.23024692 0.025754673 0
0.060733289 -0.23051493 0.027178776 0
0.064426795 -0.23031491 -0.025531443 0
0.064201772 -0.23020004 -0.022410221 0
0.064395323 -0.23020002 -0.019362731 0
0.06451904 -0.23019995 -0.016589213 0
0.064561911 -0.23019998 -0.013537282 0
0.064538881 -0.23019999 -0.010979743 0
0.064434253 -0.23019998 -0.0072808545 0
0.064196773 -0.23019998 -0.0041833832 0
0.0644354 -0.23019996 -0.0014195496 0
0.064643353 -0.23019998 0.0017356812 0
0.064321391 -0.23019998 0.0048178337 0
0.064416736 -0.23019999 0.0078005646 0
0.064370655 -0.23019992 0.010472357 0
0.064338371 -0.23019986 0.013606749 0
0.064782128 -0.23019986 0.016384626 0
0.064312145 -0.23019987 0.019481536 0
0.06434118 -0.23019986 0.022448275 0
0.064458303 -0.23032641 0.025526615 0
0.067299619 -0.23035406 -0.024953181 0
0.067427382 -0.23020005 -0.022731915 0
0.067342952 -0.23020001 -0.019317226 0
0.067349896 -0.23020002 -0.016407937 0
0.067785971 -0.23020004 -0.013597718 0
0.067170992 -0.23019999 -0.010455728 0
0.067500219 -0.23019995 -0.007409628 0
0.067613989 -0.23019998 -0.0047090445 0
0.067622527 -0.23019995 -0.0016571532 0
0.067306049 -0.23019996 0.00140962 0
0.067399457 -0.23019992 0.0045188572 0
0.06771294 -0.2301999 0.0072767129 0
0.06749633 -0.23019992 0.01027409 0
0.067536905 -0.23019989 0.013573944 0
0.067617729 -0.2301999 0.016584653 0
0.067206003 -0.23019992 0.019805558 0
0.067785919 -0.23019989 0.022202404 0
0.067400359 -0.23028256 0.024935173 0
0.070456088 -0.23025206 -0.024347309 0
0.070576996 -0.23031957 -0.022712193 0
0.070728019 -0.23020001 -0.019402629 0
0.070521407 -0.23020001 -0.01646666 0
0.070714921 -0.23019995 -0.013510911 0
0.070308559 -0.23019998 -0.010779108 0
0.070745632 -0.23019996 -0.0076377317 0
0.070640415 -0.23020001 -0.0045419428 0
0.070471272 -0.23019993 -0.0015725755 0
0.070701681 -0.23019996 0.0013407303 0
0.070767745 -0.23019995 0.0045757722 0
0.070341937 -0.23019992 0.0075776735 0
0.07054776 -0.23019987 0.010574054 0
0.070567302 -0.23019987 0.013773779 0
0.070467792 -0.23019987 0.016499357 0
0.07049033 -0.23019989 0.019354617 0
0.07053706 -0.2302608 0.022567533 0
0.070085719 -0.23038438 0.024377547 0
0.073351204 -0.23041433 -0.022214465 0
0.073453084 -0.23020002 -0.019556377 0
0.073297948 -0.23020001 -0.016432811 0
0.073703475 -0.23020001 -0.013611819 0
0.073514417 -0.23019996 -0.010516223 0
0.073333696 -0.23020001 -0.0073816571 0
0.073633149 -0.23019995 -0.0043935138 0
0.073212184 -0.23019993 -0.0015750938 0
0.073442183 -0.23019993 0.0016294774 0
0.073372953 -0.23019993 0.0046175085 0
0.073401317 -0.23019993 0.0076089771 0
0.073574647 -0.23019989 0.010546793 0
0.07330174 -0.23019992 0.013478802 0
0.073544569 -0.23019986 0.016513042 0
0.073273033 -0.23019992 0.019558411 0
0.07325343 -0.23040806 0.022303402 0
0.076212615 -0.23050533 -0.021495733 0
0.076567143 -0.23021367 -0.019285785 0
0.076299056 -0.23019999 -0.016476434 0
0.076496765 -0.23020002 -0.013451152 0
0.076800562 -0.23019998 -0.010520672 0
0.076042898 -0.23019999 -0.0075705382 0
0.076554097 -0.23019995 -0.0046951314 0
0.076395392 -0.23019996 -0.0012593553 0
0.076655567 -0.23019996 0.0016313182 0
0.076490723 -0.23019992 0.0044250223 0
0.076432228 -0.2301999 0.0075785848 0
0.07660912 -0.23019989 0.010380202 0
0.076343544 -0.23019987 0.013413739 0
0.076341376 -0.2301999 0.016351627 0
0.076785639 -0.23035547 0.019674454 0
0.076473162 -0.23038387 0.021591626 0
0.079194866 -0.23026657 -0.019352822 0
0.079559259 -0.23023549 -0.016471989 0
0.07948266 -0.23020005 -0.013420222 0
0.079298317 -0.23020001 -0.010647357 0
0.079388939 -0.23019999 -0.0075319512 0
0.079419114 -0.23019998 -0.0043494385 0
0.079038307 -0.23019996 -0.0016216929 0
0.079277039 -0.23019996 0.0015454114 0
0.079351008 -0.23019992 0.0044450993 0
0.079646856 -0.23019992 0.0075726453 0
0.079501294 -0.23019989 0.010654182 0
0.07974267 -0.23019989 0.013353856 0
0.079506733 -0.23029232 0.016845698 0
0.079356067 -0.23030822 0.019217096 0
0.081496917 -0.23037431 -0.018039212 0
0.082461514 -0.23036082 -0.016399108 0
0.082740776 -0.23020002 -0.013730802 0
0.082725249 -0.23019996 -0.010537674 0
0.082789786 -0.23019998 -0.007440336 0
0.082621284 -0.23019993 -0.0043856017 0
0.082699277 -0.23019999 -0.0011986643 0
0.082294345 -0.23019993 0.001369258 0
0.082536466 -0.2301999 0.0045790896 0
0.082583822 -0.2301999 0.007605691 0
0.082740135 -0.23019996 0.010432029 0
0.082723513 -0.23022273 0.013674526 0
0.082420699 -0.23034556 0.016425628 0
0.08137767 -0.23027779 0.018171348 0
0.084613763 -0.23030362 -0.015410607 0
0.085300706 -0.23040685 -0.013623751 0
0.085603461 -0.23036645 -0.010703256 0
0.085708596 -0.23024318 -0.0076594404 0
0.08526212 -0.23019999 -0.004722191 0
0.085598499 -0.23025684 -0.001364733 0
0.085402556 -0.23019995 0.001570537 0
0.085503928 -0.23019992 0.0043152398 0
0.085422829 -0.2301999 0.0076461756 0
0.085635193 -0.23033831 0.010574736 0
0.085426524 -0.23036991 0.01346686 0
0.084666468 -0.23027582 0.01518093 0
0.087279126 -0.2302303 -0.012309865 0
0.087920316 -0.23028734 -0.010077151 0
0.088435099 -0.23039345 -0.0073200418 0
0.088617392 -0.23035657 -0.0043810988 0
0.088404313 -0.23040365 -0.0014214697 0
0.088341966 -0.23039351 0.0013722989 0
0.088638999 -0.23036794 0.0043889508 0
0.088553213 -0.23037954 0.0076227067 0
0.087735049 -0.23027545 0.010368288 0
0.087200835 -0.23020682 0.01244784 0
0.090084575 -0.23020002 -0.0072703478 0
0.090004884 -0.23019996 0.0069702389 0
-0.0096215783 -0.22680373 -0.0098515134 0
-0.0099999737 -0.22653842 -0.0072926208 0
-0.0099999821 -0.22643514 -0.0042809662 0
-0.0099999933 -0.22618286 -0.0012874632 0
-0.010000006 -0.22669674 0.0013602867 0
-0.010000017 -0.22645393 0.004749978 0
-0.010000025 -0.2268057 0.0075374548 0
-0.009760567 -0.22643845 0.0097897174 0
-0.0071303705 -0.22673014 -0.0099992063 0
-0.0075849988 -0.22661239 0.010000795 0
-0.0044761882 -0.22645316 -0.009999196 0
-0.0046869619 -0.22669277 0.010000804 0
-0.0012192789 -0.22670743 -0.0099026924 0
-0.00039126878 -0.22657293 -0.00768968 0
-0.00039067655 -0.2263214 -0.0045965179 0
-0.00039175391 -0.22676595 -0.0016449295 0
-0.00039105632 -0.22647059 0.0014323432 0
-0.00039104873 -0.22646306 0.0043033855 0
-0.00039101011 -0.22644207 0.00751446 0
-0.0010794813 -0.22651708 0.0097845476 0
-0.0098640984 -0.22341238 -0.0096317511 0
-0.0099999737 -0.22375113 -0.0075113489 0
-0.0099999839 -0.22358871 -0.004538863 0
-0.009999997 -0.22306728 -0.0013933257 0
-0.010000007 -0.22353728 0.0015470922 0
-0.010000017 -0.22342724 0.0046366393 0
-0.010000026 -0.22353733 0.0076390659 0
-0.0096705705 -0.22367974 0.0097446814 0
-0.0075143394 -0.22363345 -0.0099992165 0
-0.0073434487 -0.2238411 0.010000782 0
-0.0043888539 -0.22357331 -0.0099992063 0
-0.0047590863 -0.22353806 0.010000792 0
-0.001094366 -0.2236138 -0.0098310476 0
-0.00038391326 -0.22350752 -0.0077219582 0
-0.00038436818 -0.22369181 -0.0042015542 0
-0.00038407644 -0.22356644 -0.0017310267 0
-0.00038435293 -0.22367647 0.0017255743 0
-0.00038348208 -0.2233094 0.0044636126 0
-0.00038401273 -0.22352578 0.0076148692 0
-0.0013236174 -0.22357959 0.0097930003 0
-0.0097327977 -0.22071178 -0.0097762542 0
-0.0099999746 -0.22063425 -0.0073580449 0
-0.0099999839 -0.22010076 -0.0046054637 0
-0.0099999933 -0.22069633 -0.0011819578 0
-0.010000005 -0.22053249 0.0013048889 0
-0.010000017 -0.22040775 0.004747197 0
-0.010000027 -0.22039416 0.0076462007 0
-0.0097397286 -0.22026445 0.0097808922 0
-0.0073470226 -0.22075514 -0.0099992286 0
-0.0074295951 -0.22074367 0.010000773 0
-0.0044190222 -0.2207035 -0.0099992156 0
-0.0046534636 -0.22019027 0.010000781 0
-0.0014018718 -0.22056586 -0.009841091 0
-0.00037728265 -0.22074322 -0.0070742993 0
-0.00037596587 -0.22019123 -0.0049302392 0
-0.00037686675 -0.22056179 -0.0016949868 0
-0.00037653174 -0.22041707 0.001670563 0
-0.00037667155 -0.22047123 0.0044100727 0
-0.00037662144 -0.22044559 0.0075298492 0
-0.0011842401 -0.2203172 0.0098596001 0
-0.0097288741 -0.21760356 -0.0097684534 0
-0.0099999737 -0.21747416 -0.0078692771 0
-0.0099999858 -0.21782093 -0.0040696058 0
-0.0099999942 -0.2175387 -0.0014945421 0
-0.010000006 -0.21794888 0.0014468143 0
-0.010000015 -0.21767066 0.0044041914 0
-0.010000027 -0.21745934 0.0074684024 0
-0.0095935846 -0.21725227 0.0097808577 0
-0.0074328417 -0.21744066 -0.0099992417 0
-0.007301786 -0.21765918 0.010000761 0
-0.0043999352 -0.2176206 -0.0099992286 0
-0.0044568623 -0.21744208 0.01000077 0
-0.0010240081 -0.21756546 -0.0097289998 0
-0.00036934478 -0.21743611 -0.0077312393 0
-0.00036912193 -0.21733853 -0.0046262941 0
-0.00036967569 -0.21756466 -0.0015422216 0
-0.0003697254 -0.21758151 0.0010310225 0
-0.00036926655 -0.21738492 0.0045496873 0
-0.00037000209 -0.21768722 0.0073848823 0
-0.0012956081 -0.21737482 0.0098521635 0
-0.009781396 -0.21431717 -0.0096626347 0
-0.0099999718 -0.21440467 -0.0075292583 0
-0.0099999849 -0.21420923 -0.0046818112 0
-0.0099999933 -0.21462633 -0.0014597197 0
-0.010000005 -0.21462142 0.001696718 0
-0.010000017 -0.21462202 0.0045382385 0
-0.010000029 -0.21443282 0.0075704716 0
-0.0098240143 -0.21451677 0.0097522167 0
-0.007767058 -0.21434903 -0.009999251 0
-0.0076130624 -0.21435842 0.010000746 0
-0.0044982685 -0.21467055 -0.0099992407 0
-0.0044865562 -0.21447082 0.010000763 0
-0.0012378475 -0.21467702 -0.0098998901 0
-0.00036159562 -0.2142064 -0.0075664115 0
-0.00036279034 -0.21469957 -0.0043955809 0
-0.00036210738 -0.2144099 -0.0011231529 0
-0.00036271068 -0.21465753 0.0014284686 0
-0.00036267741 -0.21463893 0.0045554591 0
-0.00036268772 -0.21463896 0.007361772 0
-0.0014605777 -0.21447611 0.0098902564 0
-0.00985339 -0.21191894 -0.009626017 0
-0.0099999728 -0.21147405 -0.0076458096 0
-0.0099999849 -0.21146542 -0.0046987119 0
-0.0099999933 -0.21125938 -0.0014672279 0
-0.010000004 -0.21150637 0.0012960425 0
-0.010000016 -0.21169958 0.0046239276 0
-0.010000028 -0.2116584 0.0072203674 0
-0.0098244231 -0.21118116 0.0097317481 0
-0.0076560713 -0.21131328 -0.0099992622 0
-0.0075466773 -0.21107312 0.010000737 0
-0.0045545981 -0.21138804 -0.0099992501 0
-0.0045527439 -0.21143878 0.010000748 0
-0.0011166551 -0.21136837 -0.0097922347 0
-0.00035495037 -0.21143697 -0.0075459965 0
-0.00035592736 -0.21183926 -0.0043194355 0
-0.00035423436 -0.21112928 -0.0013931321 0
-0.00035553251 -0.21166618 0.0013159307 0
-0.00035443562 -0.21120414 0.0045485427 0
-0.00035511932 -0.21148495 0.0072868592 0
-0.0013599691 -0.21171327 0.0098441774 0
-0.009795554 -0.20861705 -0.0097208321 0
-0.0099999737 -0.20865916 -0.0073568802 0
-0.0099999812 -0.20849861 -0.0044375872 0
-0.0099999923 -0.2083696 -0.0017163377 0
-0.010000004 -0.20837641 0.0014694021 0
-0.010000017 -0.20864064 0.0045275283 0
-0.010000026 -0.2086211 0.0075338325 0
-0.0097705927 -0.2083995 0.0097701354 0
-0.0077366051 -0.2083835 -0.0099992724 0
-0.0073800716 -0.20844501 0.010000726 0
-0.0046506054 -0.20865102 -0.0099992622 0
-0.004737353 -0.20850688 0.010000737 0
-0.0013581646 -0.2084313 -0.0098400339 0
-0.0003478752 -0.20848827 -0.0074597523 0
-0.00034728172 -0.20823652 -0.0045324611 0
-0.00034769598 -0.20840423 -0.0012675183 0
-0.00034843708 -0.20870912 0.001340677 0
-0.00034755468 -0.20833609 0.0048374026 0
-0.00034790806 -0.20847979 0.0072246119 0
-0.0012174959 -0.20843567 0.0098691657 0
-0.0098791709 -0.20545992 -0.0098113641 0
-0.0099999737 -0.20576094 -0.0073706559 0
-0.0099999849 -0.20547067 -0.0046349294 0
-0.0099999942 -0.20542672 -0.0017049981 0
-0.010000003 -0.20547578 0.0014299318 0
-0.010000017 -0.20550819 0.0046049631 0
-0.010000026 -0.20550875 0.0075193155 0
-0.009831259 -0.20533431 0.0097737946 0
-0.0076948488 -0.20539814 -0.0099992836 0
-0.0073003024 -0.20526871 0.010000715 0
-0.0046750209 -0.20551978 -0.0099992715 0
-0.0043835989 -0.2057724 0.010000729 0
-0.0010839839 -0.20562667 -0.0098710209 0
-0.00034029369 -0.20532891 -0.0076178224 0
-0.00034046319 -0.20539509 -0.0046614958 0
-0.00034097247 -0.20560263 -0.0015598044 0
-0.0003413152 -0.20574062 0.00162926 0
-0.00034107166 -0.20563518 0.0042780233 0
-0.00034142108 -0.20577605 0.0074077197 0
-0.0015729981 -0.20542665 0.0099067129 0
-0.0097874673 -0.20207196 -0.009663376 0
-0.0099999718 -0.20281315 -0.0076107928 0
-0.009999983 -0.2025151 -0.0044926726 0
-0.0099999933 -0.20253648 -0.0017133721 0
-0.010000007 -0.20268412 0.0017212643 0
-0.010000017 -0.20259131 0.0045537534 0
-0.010000028 -0.20269758 0.0074203918 0
-0.0097657852 -0.20243673 0.0097399196 0
-0.0075227283 -0.20248459 -0.009999292 0
-0.0075433329 -0.20255131 0.010000707 0
-0.0045838128 -0.20220228 -0.0099992817 0
-0.0045794663 -0.20248644 0.010000717 0
-0.0011305388 -0.20271902 -0.0098366365 0
-0.00033376669 -0.20260911 -0.0078186719 0
-0.0003332569 -0.20239191 -0.0046768803 0
-0.00033370627 -0.20257469 -0.0017364369 0
-0.00033384329 -0.20262678 0.0016222545 0
-0.00033407198 -0.20271774 0.0044558365 0
-0.00033353423 -0.20248871 0.0076967492 0
-0.0013167231 -0.20242606 0.0098591968 0
-0.0097461725 -0.19931661 -0.0098192468 0
-0.0099999746 -0.19933055 -0.0072371666 0
-0.0099999839 -0.19958171 -0.0046598073 0
-0.0099999923 -0.1992611 -0.0014047606 0
-0.010000006 -0.19954047 0.0018133739 0
-0.010000015 -0.19925977 0.0043754051 0
-0.010000029 -0.19938122 0.0077111064 0
-0.0098003149 -0.19955568 0.0097138099 0
-0.0074855438 -0.19961201 -0.0099993059 0
-0.0075270031 -0.19979882 0.010000695 0
-0.0046106679 -0.19966418 -0.0099992957 0
-0.0046006558 -0.19941731 0.010000704 0
-0.0013758432 -0.19972135 -0.0098537197 0
-0.00032650895 -0.19958398 -0.0074908519 0
-0.00032666835 -0.19964579 -0.004451544 0
-0.00032616829 -0.19943272 -0.001381326 0
-0.00032611698 -0.199407 0.0014906693 0
-0.00032616587 -0.19942278 0.0045209061 0
-0.00032652175 -0.19956677 0.0073801284 0
-0.0012777589 -0.19960745 0.0098808222 0
-0.0097183865 -0.196438 -0.0097546 0
-0.00999997 -0.19621521 -0.0075893812 0
-0.0099999839 -0.19654495 -0.0045447513 0
-0.0099999961 -0.19634758 -0.0015111832 0
-0.010000004 -0.19645593 0.001762869 0
-0.010000017 -0.19631529 0.0045964224 0
-0.010000028 -0.19669782 0.0075773974 0
-0.0097896438 -0.19646592 0.0095848786 0
-0.0076393061 -0.19662182 -0.0099993153 0
-0.007651865 -0.19653934 0.010000682 0
-0.0045985794 -0.1966856 -0.0099993041 0
-0.0042589563 -0.19646247 0.010000695 0
-0.0014443625 -0.19660048 -0.0098882988 0
-0.00031898162 -0.19644685 -0.0074645462 0
-0.00031890004 -0.19640844 -0.0045134206 0
-0.0003191198 -0.19649564 -0.0016306513 0
-0.00031925269 -0.19654648 0.0013702977 0
-0.00031859998 -0.19626965 0.0045516575 0
-0.00031839265 -0.19617878 0.0075118686 0
-0.0012715271 -0.19643623 0.0098893587 0
-0.0097671086 -0.19375138 -0.009770765 0
-0.0099999737 -0.19358096 -0.0074836188 0
-0.0099999821 -0.19351618 -0.004531295 0
-0.0099999961 -0.19341427 -0.0012808891 0
-0.010000006 -0.19360708 0.001634314 0
-0.010000013 -0.19339062 0.004463831 0
-0.010000026 -0.19350702 0.0074544037 0
-0.0097586075 -0.19372715 0.0097885318 0
-0.0074706627 -0.19331729 -0.0099993274 0
-0.007497875 -0.19349988 0.010000673 0
-0.004402318 -0.19401628 -0.0099993153 0
-0.004447157 -0.19335705 0.010000685 0
-0.001264292 -0.19347695 -0.0098247752 0
-0.00031153488 -0.19334349 -0.0074973027 0
-0.00031174815 -0.19342767 -0.0043601152 0
-0.00031169099 -0.19339894 -0.0011290881 0
-0.00031193683 -0.19349766 0.0013402984 0
-0.00031169676 -0.19339283 0.004498722 0
-0.00031147612 -0.19329581 0.0078653665 0
-0.0010881581 -0.19333975 0.0098291878 0
-0.0096414657 -0.19058742 -0.0099110426 0
-0.0099999728 -0.19041628 -0.0074479617 0
-0.009999983 -0.19070555 -0.004358504 0
-0.0099999961 -0.19053701 -0.0016514033 0
-0.010000004 -0.1905608 0.0015342634 0
-0.010000018 -0.19053143 0.00492755 0
-0.010000026 -0.19029288 0.0073391814 0
-0.0097085349 -0.19052756 0.0097218119 0
-0.0074764132 -0.19022019 -0.0099993395 0
-0.0075473958 -0.19066077 0.010000665 0
-0.0043593645 -0.19059844 -0.0099993236 0
-0.0045027495 -0.19042636 0.010000674 0
-0.0011664819 -0.19076055 -0.0097255148 0
-0.0003042717 -0.19031648 -0.0074537853 0
-0.00030450927 -0.19041115 -0.0045644273 0
-0.00030525823 -0.19071855 -0.0014436798 0
-0.00030493329 -0.19057857 0.0015610355 0
-0.00030420313 -0.19026995 0.0044552456 0
-0.00030514129 -0.19065642 0.0074100839 0
-0.0012968286 -0.19045678 0.0098662656 0
-0.0098575205 -0.18744446 -0.0096412059 0
-0.0099999728 -0.18765561 -0.0070966338 0
-0.0099999849 -0.18747398 -0.0042797737 0
-0.0099999951 -0.18751316 -0.0010884291 0
-0.010000004 -0.18747413 0.0015657663 0
-0.010000015 -0.18742466 0.0047217393 0
-0.010000029 -0.18738669 0.0075963531 0
-0.009829903 -0.18763298 0.009712751 0
-0.007449761 -0.18758045 -0.009999346 0
-0.0075096935 -0.18790522 0.010000654 0
-0.004670532 -0.18733342 -0.0099993395 0
-0.0046649249 -0.18755144 0.010000664 0
-0.0015811282 -0.18763424 -0.0099155316 0
-0.00029778952 -0.18761563 -0.0078418721 0
-0.0002972683 -0.1873934 -0.0045043291 0
-0.00029738524 -0.18743737 -0.0013706542 0
-0.00029716859 -0.18734278 0.0014907114 0
-0.00029763134 -0.18753132 0.0043351925 0
-0.00029835317 -0.1878275 0.0074170637 0
-0.0012231689 -0.1875529 0.0098524932 0
-0.009729946 -0.18451235 -0.0097948983 0
-0.0099999718 -0.1844501 -0.007373346 0
-0.009999983 -0.18419163 -0.0047756587 0
-0.0099999933 -0.18460736 -0.0016397177 0
-0.010000005 -0.18411985 0.0012443624 0
-0.010000016 -0.18448199 0.0046057273 0
-0.010000029 -0.18485981 0.0075668702 0
-0.0098389592 -0.18434502 0.0097330241 0
-0.0075005214 -0.18439253 -0.00999936 0
-0.007511124 -0.18441398 0.010000639 0
-0.004272324 -0.18436381 -0.0099993497 0
-0.0046238941 -0.18423198 0.010000648 0
-0.001307148 -0.184543 -0.0098460913 0
-0.00028964435 -0.18422057 -0.0074636657 0
-0.00029080507 -0.18469994 -0.0045842305 0
-0.00029071225 -0.18465637 -0.0013594201 0
-0.0002898816 -0.18430538 0.0018474893 0
-0.00029070134 -0.18464319 0.0043668202 0
-0.00029014985 -0.18440831 0.0076976344 0
-0.0009845515 -0.18443406 0.0098635964 0
-0.0099007068 -0.18156081 -0.0096573522 0
-0.0099999728 -0.18126307 -0.0075966264 0
-0.0099999812 -0.18145385 -0.0047221552 0
-0.0099999951 -0.18150394 -0.0014555678 0
-0.010000005 -0.18125832 0.0015598892 0
-0.010000017 -0.18115669 0.0046282751 0
-0.010000026 -0.1813259 0.0073668826 0
-0.0096893022 -0.18135354 0.0098154852 0
-0.0076067671 -0.18163073 -0.0099993683 0
-0.0074729091 -0.18150902 0.010000628 0
-0.0047716391 -0.18142369 -0.009999359 0
-0.0043752212 -0.18146871 0.010000641 0
-0.0014227494 -0.18147452 -0.0098792706 0
-0.00028289983 -0.18140969 -0.007359908 0
-0.00028294796 -0.18142554 -0.0046089422 0
-0.00028285402 -0.18138148 -0.0014123541 0
-0.00028382253 -0.18178099 0.0013611835 0
-0.00028283382 -0.18136464 0.0042334525 0
-0.00028366048 -0.18170427 0.0074328957 0
-0.0014601707 -0.18152136 0.009856008 0
-0.0098383324 -0.17837781 -0.0098087369 0
-0.0099999718 -0.17839143 -0.0075644213 0
-0.0099999839 -0.17868008 -0.0046458775 0
-0.0099999951 -0.17826346 -0.0015071322 0
-0.010000006 -0.17888479 0.0015473947 0
-0.010000016 -0.17802994 0.0045467317 0
-0.01000003 -0.17854422 0.0076351748 0
-0.009876295 -0.17821458 0.0096989311 0
-0.0070249289 -0.17834701 -0.0099993804 0
-0.0076627973 -0.17861658 0.010000617 0
-0.0040774797 -0.17866679 -0.0099993702 0
-0.0043938342 -0.17838594 0.010000629 0
-0.0013875985 -0.17867039 -0.0098250266 0
-0.00027598528 -0.1785282 -0.0074949325 0
-0.00027615094 -0.17859246 -0.0043432717 0
-0.00027606185 -0.17855139 -0.0017434817 0
-0.00027582626 -0.17844835 0.0014869783 0
-0.00027581071 -0.17843731 0.0045022536 0
-0.00027601828 -0.17851911 0.0076155523 0
-0.001378107 -0.17872934 0.0098954467 0
-0.0096148271 -0.17551012 -0.0098022157 0
-0.0099999718 -0.17540982 -0.0075213164 0
-0.009999983 -0.17581628 -0.004699965 0
-0.0099999933 -0.1752819 -0.0016882665 0
-0.010000004 -0.17544241 0.0011832404 0
-0.010000016 -0.17532201 0.0045228405 0
-0.010000027 -0.17564586 0.007071679 0
-0.0097716842 -0.17543301 0.0097862473 0
-0.0076771341 -0.17571221 -0.0099993926 0
-0.0074571357 -0.17548777 0.010000607 0
-0.0043355869 -0.17545523 -0.0099993795 0
-0.0043134545 -0.17578773 0.010000618 0
-0.0012804436 -0.17584488 -0.0098961964 0
-0.00026862984 -0.17546302 -0.0076213786 0
-0.0002687517 -0.1755085 -0.0041091735 0
-0.00026803731 -0.17520663 -0.0013673604 0
-0.00026967094 -0.17588286 0.0016534223 0
-0.00026893421 -0.17557102 0.0048487969 0
-0.00026930455 -0.17572159 0.0073174727 0
-0.001329556 -0.17542018 0.0098211551 0
-0.0096470006 -0.1725361 -0.0097853141 0
-0.0099999709 -0.17251767 -0.0076222136 0
-0.0099999812 -0.17280959 -0.0045755357 0
-0.0099999933 -0.17261451 -0.0016523706 0
-0.010000007 -0.17249951 0.0017022291 0
-0.010000016 -0.17254171 0.004639518 0
-0.010000025 -0.17258844 0.0071568801 0
-0.0097566927 -0.17195508 0.0097553609 0
-0.0075017503 -0.17237809 -0.0099994047 0
-0.0077404594 -0.17232588 0.010000597 0
-0.0045935852 -0.17279613 -0.0099993916 0
-0.004446554 -0.17229964 0.010000607 0
-0.0011081563 -0.17250806 -0.0098489253 0
-0.00026104436 -0.17230137 -0.0073727984 0
-0.00026212723 -0.17274816 -0.0044088243 0
-0.00026138584 -0.17243434 -0.001192279 0
-0.00026120996 -0.17235683 0.0016179902 0
-0.00026148718 -0.17246789 0.0045709936 0
-0.00026137184 -0.17241576 0.0072333794 0
-0.0012749888 -0.17274795 0.0099203382 0
-0.009754193 -0.16961975 -0.0097957905 0
-0.0099999709 -0.16909248 -0.0074162325 0
-0.0099999812 -0.16954163 -0.0046820748 0
-0.0099999951 -0.16970213 -0.0015853341 0
-0.010000004 -0.16931576 0.0013722373 0
-0.010000015 -0.16945492 0.0044826982 0
-0.010000025 -0.16926385 0.0074751731 0
-0.009739616 -0.16951509 0.0097564058 0
-0.0071683563 -0.1695143 -0.009999414 0
-0.007559326 -0.16941966 0.010000585 0
-0.0042913957 -0.16945288 -0.0099994028 0
-0.0042644204 -0.16943669 0.0100006 0
-0.0010059595 -0.16952822 -0.0098769171 0
-0.00025445153 -0.169554 -0.0074954154 0
-0.0002539253 -0.16932969 -0.0041854102 0
-0.00025432036 -0.16949041 -0.0015859994 0
-0.00025478721 -0.16968028 0.0015205956 0
-0.00025378892 -0.16925955 0.0046117231 0
-0.00025439259 -0.16950692 0.0074033216 0
-0.0012838983 -0.16931754 0.0099096475 0
-0.0097463876 -0.1661724 -0.0096355109 0
-0.0099999718 -0.1663738 -0.0075672641 0
-0.0099999849 -0.16645372 -0.0042948206 0
-0.0099999951 -0.16663264 -0.0016086083 0
-0.010000004 -0.16645534 0.0015315466 0
-0.010000017 -0.16655461 0.0047240644 0
-0.010000027 -0.16665174 0.0074861227 0
-0.0097653437 -0.16688991 0.009744538 0
-0.0076748687 -0.16644055 -0.0099994252 0
-0.0074743866 -0.16644292 0.010000573 0
-0.0042794487 -0.16636458 -0.0099994112 0
-0.0043842387 -0.16646954 0.010000586 0
-0.0011641886 -0.16649969 -0.0098508149 0
-0.00024790573 -0.16682552 -0.00713793 0
-0.0002471256 -0.16649655 -0.0045811972 0
-0.00024755285 -0.16667037 -0.0018198141 0
-0.0002472146 -0.16652445 0.001486261 0
-0.00024699391 -0.16642822 0.0042895195 0
-0.00024760139 -0.16667657 0.0074828854 0
-0.0011381904 -0.16666764 0.0098821633 0
-0.0096419491 -0.16357188 -0.0098002981 0
-0.0099999746 -0.16335784 -0.0072988351 0
-0.0099999839 -0.1635379 -0.0045826877 0
-0.0099999942 -0.16346756 -0.0013527857 0
-0.010000004 -0.16345294 0.0015420429 0
-0.010000016 -0.1632968 0.0045002485 0
-0.010000027 -0.16349198 0.007505497 0
-0.0099071264 -0.16373202 0.0096176621 0
-0.0077419928 -0.16339079 -0.0099994354 0
-0.0076739774 -0.16325171 0.010000563 0
-0.0048698052 -0.16389841 -0.0099994242 0
-0.0042949747 -0.16351847 0.010000576 0
-0.0010727696 -0.16346084 -0.0098796617 0
-0.00024073482 -0.16383767 -0.007568202 0
-0.00024023438 -0.16362442 -0.0044597723 0
-0.00024036907 -0.16367611 -0.0015410361 0
-0.00024030978 -0.16364685 0.0014969411 0
-0.00023962933 -0.16335878 0.0044485745 0
-0.00024022206 -0.16360112 0.0075908531 0
-0.0011021058 -0.16338025 0.0098912166 0
-0.0097402902 -0.1602723 -0.0097340783 0
-0.0099999709 -0.16026874 -0.0075131734 0
-0.0099999839 -0.16083004 -0.0043473206 0
-0.009999997 -0.16042265 -0.0012701134 0
-0.010000005 -0.16046363 0.0015484269 0
-0.010000013 -0.16051991 0.0040470022 0
-0.010000028 -0.16034795 0.0076693594 0
-0.0096016778 -0.16058418 0.0098721962 0
-0.0072205942 -0.1604121 -0.0099994466 0
-0.0071494109 -0.16041254 0.010000553 0
-0.0043629124 -0.16052525 -0.0099994354 0
-0.0044623758 -0.16053611 0.010000565 0
-0.0013243138 -0.16042919 -0.0098470049 0
-0.0002331982 -0.16069695 -0.0076680253 0
-0.00023277442 -0.16051583 -0.0046905167 0
-0.00023267296 -0.16046858 -0.0013905097 0
-0.00023277687 -0.16050774 0.001327464 0
-0.00023330726 -0.16072367 0.0047039241 0
-0.00023238602 -0.16033573 0.0073647494 0
-0.0012305899 -0.16081953 0.0098564159 0
-0.0097321877 -0.15751985 -0.00967154 0
-0.0099999718 -0.15710014 -0.0077095036 0
-0.009999983 -0.15724602 -0.0044125463 0
-0.0099999942 -0.15760724 -0.0016037173 0
-0.010000006 -0.15753503 0.001281937 0
-0.010000018 -0.1576566 0.0046230368 0
-0.010000024 -0.15737867 0.0075459029 0
-0.0098548513 -0.15757173 0.0097067533 0
-0.0073866425 -0.15749981 -0.009999454 0
-0.0076360111 -0.15749855 0.010000544 0
-0.0047417609 -0.15758708 -0.0099994447 0
-0.0043827794 -0.157519 0.010000555 0
-0.0010093898 -0.15754575 -0.0098267067 0
-0.00022539306 -0.15744385 -0.007462637 0
-0.00022522155 -0.15736765 -0.0043562888 0
-0.0002254561 -0.15746112 -0.0015199947 0
-0.00022591473 -0.15764779 0.0014491297 0
-0.00022631076 -0.15780815 0.0045332611 0
-0.00022613164 -0.15772888 0.0075871288 0
-0.001222632 -0.15750606 0.0098954691 0
-0.0096303588 -0.15416509 -0.00991912 0
-0.00999997 -0.15446007 -0.0074275914 0
-0.009999983 -0.15441154 -0.0044791573 0
-0.0099999933 -0.15470448 -0.0016981303 0
-0.010000005 -0.15460441 0.0014779671 0
-0.010000017 -0.15495592 0.0043981518 0
-0.010000029 -0.15471092 0.0076830676 0
-0.0098057138 -0.15459411 0.0097783571 0
-0.0075867502 -0.15470579 -0.0099994643 0
-0.0075409496 -0.15434167 0.010000532 0
-0.0041597364 -0.15444206 -0.0099994568 0
-0.0046005771 -0.15471429 0.010000545 0
-0.0013379543 -0.15446907 -0.0098081632 0
-0.00021807842 -0.15439543 -0.00742228 0
-0.00021821774 -0.15444899 -0.0044541117 0
-0.00021815319 -0.15441824 -0.0019088089 0
-0.0002188244 -0.15469287 0.001458728 0
-0.00021806038 -0.15436983 0.0045211855 0
-0.00021829626 -0.15446353 0.0075451443 0
-0.0011982159 -0.15444313 0.0098553449 0
-0.009898304 -0.15098204 -0.0094796838 0
-0.00999997 -0.1514906 -0.0075977389 0
-0.0099999839 -0.15148109 -0.004681576 0
-0.0099999951 -0.15106194 -0.0015713689 0
-0.010000005 -0.15124516 0.0015063963 0
-0.010000015 -0.15161808 0.0044036149 0
-0.010000024 -0.15136944 0.0075277849 0
-0.00986287 -0.15162396 0.009678632 0
-0.0074198046 -0.15159999 -0.0099994792 0
-0.0074413968 -0.15184903 0.010000519 0
-0.0046407762 -0.15165889 -0.0099994671 0
-0.0046216301 -0.15202355 0.010000534 0
-0.0013584387 -0.15157844 -0.00983625 0
-0.00021071547 -0.15132675 -0.0073168417 0
-0.00021035309 -0.15117164 -0.0046292716 0
-0.00021103672 -0.15145206 -0.0016570685 0
-0.00021105407 -0.15145454 0.0014804434 0
-0.00021143838 -0.15161024 0.0044244044 0
-0.0002113861 -0.15158412 0.0073207137 0
-0.0012360305 -0.15156643 0.0099394443 0
-0.0096390173 -0.14860427 -0.0097750239 0
-0.0099999746 -0.14864084 -0.0075771175 0
-0.0099999839 -0.14854783 -0.0044793752 0
-0.0099999961 -0.14862838 -0.0014237975 0
-0.010000004 -0.14864777 0.0014743671 0
-0.010000017 -0.14849567 0.0045265933 0
-0.010000029 -0.14852977 0.0074252845 0
-0.0098127034 -0.14854866 0.0097376825 0
-0.0075052399 -0.14858826 -0.0099994903 0
-0.0075601107 -0.14834754 0.010000511 0
-0.0047282958 -0.14871411 -0.0099994773 0
-0.0045637614 -0.14863396 0.01000052 0
-0.0014520265 -0.14841269 -0.0098720379 0
-0.00020357152 -0.14834952 -0.0073363809 0
-0.00020342926 -0.14828572 -0.0043487814 0
-0.00020444782 -0.14870569 -0.0013705045 0
-0.00020364643 -0.14836735 0.0015279036 0
-0.00020353742 -0.14831728 0.0045876331 0
-0.00020326581 -0.14820018 0.0071631712 0
-0.0010872517 -0.14826328 0.0098574962 0
-0.0097001074 -0.14562888 -0.0098428633 0
-0.0099999728 -0.14538977 -0.0077100825 0
-0.0099999839 -0.14534466 -0.0045496379 0
-0.0099999961 -0.14505556 -0.0013297487 0
-0.010000004 -0.14520019 0.0014564437 0
-0.010000018 -0.14531296 0.0045707333 0
-0.010000026 -0.14553958 0.0075377659 0
-0.0097042574 -0.14531232 0.0097994283 0
-0.0074954797 -0.14523488 -0.0099995015 0
-0.0075805751 -0.14554046 0.010000501 0
-0.004493922 -0.14518209 -0.0099994913 0
-0.004653824 -0.14565727 0.010000508 0
-0.0012430695 -0.14547709 -0.0099094082 0
-0.00019645802 -0.1453855 -0.0076859491 0
-0.00019696081 -0.14558999 -0.0043273657 0
-0.00019626862 -0.14529741 -0.0016173837 0
-0.0001967579 -0.14549622 0.0017474642 0
-0.00019669266 -0.14546494 0.0044525792 0
-0.00019633413 -0.14531089 0.0075193988 0
-0.0014711176 -0.14551184 0.0098807067 0
-0.00982947 -0.14268395 -0.0095623871 0
-0.0099999737 -0.1423917 -0.0073715434 0
-0.009999983 -0.14243278 -0.0045180614 0
-0.0099999933 -0.1424534 -0.0016264772 0
-0.010000007 -0.14233525 0.0018186609 0
-0.010000017 -0.1423164 0.0044146711 0
-0.010000027 -0.14247237 0.0076388214 0
-0.0097025158 -0.14246796 0.009786061 0
-0.0077334209 -0.14220731 -0.0099995146 0
-0.0075876452 -0.14245935 0.010000489 0
-0.0045062602 -0.1421472 -0.0099995006 0
-0.0040445304 -0.14240585 0.010000502 0
-0.0010774613 -0.14245594 -0.009914509 0
-0.00019040839 -0.14286377 -0.0073254658 0
-0.00018980561 -0.14260831 -0.0045249914 0
-0.00018909511 -0.14230761 -0.0014629598 0
-0.00018938708 -0.1424251 0.0012941487 0
-0.00019005017 -0.14269656 0.0045335614 0
-0.0001891719 -0.14232606 0.0074886479 0
-0.0014103928 -0.14263614 0.0099504758 0
-0.0098124882 -0.13933392 -0.0096970312 0
-0.0099999746 -0.13999806 -0.0072451988 0
-0.009999983 -0.13953362 -0.0047927219 0
-0.009999997 -0.13941586 -0.0012960932 0
-0.010000005 -0.13946952 0.0016075491 0
-0.010000015 -0.13956441 0.004448873 0
-0.010000026 -0.13951996 0.0077174525 0
-0.0096595865 -0.13991359 0.0098560061 0
-0.0076493123 -0.13935956 -0.009999522 0
-0.0076648821 -0.1398055 0.010000476 0
-0.0047072051 -0.13936938 -0.0099995127 0
-0.0044614892 -0.13956001 0.010000488 0
-0.0012363682 -0.13951199 -0.0098948907 0
-0.00018247645 -0.1395582 -0.0073711048 0
-0.00018247946 -0.13955532 -0.0046302844 0
-0.00018243662 -0.13953289 -0.0016079794 0
-0.0001818746 -0.13929375 0.001652927 0
-0.00018275797 -0.13965763 0.0044613387 0
-0.00018215642 -0.13940196 0.0077294898 0
-0.001411951 -0.13936687 0.0098837195 0
-0.0097789271 -0.13647626 -0.0097567076 0
-0.0099999718 -0.1364156 -0.0075341878 0
-0.0099999839 -0.13632347 -0.0048856912 0
-0.0099999933 -0.13642313 -0.0016084631 0
-0.010000005 -0.1365774 0.0016378266 0
-0.010000017 -0.1365955 0.004571477 0
-0.010000028 -0.13649543 0.0075774021 0
-0.0097131105 -0.13633767 0.0097733727 0
-0.0074848169 -0.13680129 -0.0099995295 0
-0.0077445009 -0.13658565 0.010000466 0
-0.0044947402 -0.13652307 -0.0099995192 0
-0.004588251 -0.13638236 0.010000475 0
-0.0010866961 -0.13623521 -0.0098926965 0
-0.0001754142 -0.13661498 -0.0073599736 0
-0.00017537343 -0.13659368 -0.0045090583 0
-0.00017498748 -0.13642806 -0.0013291507 0
-0.00017547164 -0.13662563 0.0014455534 0
-0.0001749433 -0.13640058 0.0046556424 0
-0.00017456125 -0.13623767 0.0071009826 0
-0.001298045 -0.13654648 0.0098516149 0
-0.0098034069 -0.13341568 -0.0097045181 0
-0.0099999737 -0.13366219 -0.0078395428 0
-0.0099999849 -0.13378784 -0.0046473267 0
-0.0099999942 -0.13333221 -0.0012428083 0
-0.010000004 -0.13352664 0.0016044253 0
-0.010000016 -0.13346858 0.0043636602 0
-0.010000024 -0.13334329 0.0075175213 0
-0.0098733874 -0.13355227 0.009759061 0
-0.007432376 -0.13351654 -0.0099995416 0
-0.0077341036 -0.13341239 0.010000454 0
-0.0046177749 -0.13389948 -0.0099995313 0
-0.0046122726 -0.13355456 0.010000465 0
-0.0010442276 -0.13359256 -0.0098179504 0
-0.00016845904 -0.13371687 -0.0076347701 0
-0.0001679829 -0.13351393 -0.0046552457 0
-0.00016788194 -0.13346712 -0.001542025 0
-0.00016796225 -0.13349602 0.0014878437 0
-0.00016802594 -0.13351765 0.0047369674 0
-0.00016769012 -0.1333735 0.0075074229 0
-0.0011499261 -0.13354443 0.0098795164 0
-0.0097784046 -0.13046016 -0.0097639253 0
-0.0099999737 -0.13061863 -0.0074360911 0
-0.009999983 -0.130622 -0.0046613454 0
-0.0099999933 -0.13070269 -0.0015172343 0
-0.010000004 -0.13077495 0.0014176513 0
-0.010000016 -0.13049319 0.0046123015 0
-0.010000028 -0.13077599 0.0075754244 0
-0.0097163031 -0.13048086 0.0097973207 0
-0.0073981215 -0.13072136 -0.0099995555 0
-0.0074101323 -0.13058296 0.010000448 0
-0.004555604 -0.13063921 -0.0099995434 0
-0.0044918358 -0.13069987 0.010000458 0
-0.001264861 -0.13064522 -0.009871576 0
-0.00016012284 -0.13024259 -0.0075336471 0
-0.00016035722 -0.13033555 -0.004423995 0
-0.00016083971 -0.13053244 -0.0016439537 0
-0.00016033123 -0.13031559 0.0016299675 0
-0.00016063162 -0.13043635 0.0045403447 0
-0.0001611706 -0.1306567 0.0073649073 0
-0.0013161964 -0.13052778 0.0098748645 0
-0.0095999893 -0.12759711 -0.0097303102 0
-0.0099999737 -0.12749447 -0.0073602009 0
-0.0099999849 -0.1274547 -0.0044619828 0
-0.0099999933 -0.12749858 -0.0016405967 0
-0.010000006 -0.12758651 0.0016235731 0
-0.010000018 -0.12762123 0.0045594634 0
-0.010000027 -0.12753266 0.0071986122 0
-0.0097866021 -0.12739922 0.0097507229 0
-0.0077171046 -0.12725854 -0.0099995667 0
-0.007707708 -0.12757762 0.010000436 0
-0.0046671489 -0.1276257 -0.0099995555 0
-0.0042629493 -0.12748139 0.010000443 0
-0.0011421398 -0.12733343 -0.009879156 0
-0.00015369221 -0.12756266 -0.0075504114 0
-0.00015329839 -0.12739432 -0.0047604265 0
-0.00015343186 -0.12744503 -0.0015274091 0
-0.00015356005 -0.12749371 0.0016111096 0
-0.00015358134 -0.12749834 0.0044194092 0
-0.00015346205 -0.12744358 0.0077560348 0
-0.0011902755 -0.12770122 0.0098363636 0
-0.009706893 -0.12391505 -0.0097222449 0
-0.0099999728 -0.12474637 -0.007537025 0
-0.009999983 -0.1246445 -0.0043678954 0
-0.0099999961 -0.12443573 -0.0012079744 0
-0.010000006 -0.12458478 0.0016241515 0
-0.010000016 -0.12448121 0.0045710243 0
-0.010000028 -0.12431522 0.0070919055 0
-0.0097997934 -0.1244817 0.0097827343 0
-0.0076051317 -0.12459388 -0.0099995779 0
-0.0074679046 -0.12447795 0.010000424 0
-0.004410116 -0.12420358 -0.0099995639 0
-0.0044309264 -0.12448787 0.010000437 0
-0.0015340878 -0.12455019 -0.0099017927 0
-0.00014700336 -0.12477469 -0.0072850506 0
-0.00014586121 -0.12429511 -0.0049219807 0
-0.00014646976 -0.12454344 -0.0014260764 0
-0.00014692711 -0.12472932 0.0016948177 0
-0.00014647747 -0.12453742 0.0046790526 0
-0.00014647191 -0.12453087 0.0074789352 0
-0.0011583687 -0.12419441 0.0099207889 0
-0.0096832942 -0.12113138 -0.0097334944 0
-0.0099999728 -0.12155104 -0.0075008729 0
-0.0099999849 -0.1214963 -0.004558329 0
-0.0099999933 -0.12158963 -0.0014482423 0
-0.010000003 -0.12161161 0.0015559669 0
-0.010000018 -0.12152099 0.004719459 0
-0.010000029 -0.1213972 0.0074504078 0
-0.009577523 -0.12164874 0.009829483 0
-0.0072789872 -0.12162907 -0.0099995835 0
-0.007514393 -0.12136582 0.010000411 0
-0.0046091699 -0.12148865 -0.009999577 0
-0.0045550722 -0.12162732 0.010000423 0
-0.0010727479 -0.12172504 -0.0097748032 0
-0.00013940522 -0.12160837 -0.007429719 0
-0.00013892964 -0.12140585 -0.0045859576 0
-0.00013901936 -0.12143816 -0.0012209535 0
-0.00013988983 -0.12179668 0.0016062543 0
-0.00013922804 -0.1215168 0.0042834636 0
-0.00013932549 -0.12155283 0.0073201982 0
-0.0011135659 -0.12147009 0.0098596681 0
-0.0097624445 -0.11882117 -0.009763387 0
-0.0099999728 -0.11861361 -0.0074868654 0
-0.009999983 -0.11859337 -0.0044287965 0
-0.0099999923 -0.11874959 -0.0015090003 0
-0.010000007 -0.11872033 0.001544781 0
-0.010000017 -0.11878435 0.0043308325 0
-0.010000029 -0.11838391 0.0076526823 0
-0.0095625669 -0.1189388 0.0098442016 0
-0.0075307596 -0.11856646 -0.0099995965 0
-0.0076568737 -0.1186164 0.010000401 0
-0.0044475426 -0.11878866 -0.0099995872 0
-0.0042975727 -0.1185171 0.010000411 0
-0.00087191077 -0.1187037 -0.0098836608 0
-0.00013149442 -0.11831131 -0.0072751469 0
-0.00013173667 -0.11840813 -0.0045530237 0
-0.00013221151 -0.1186013 -0.0014167398 0
-0.00013146347 -0.1182854 0.0013227869 0
-0.00013209753 -0.11854503 0.0043721055 0
-0.00013188136 -0.11845019 0.0075226352 0
-0.0014755519 -0.11838409 0.0099541163 0
-0.0098338723 -0.11544586 -0.0096058762 0
-0.0099999728 -0.11561354 -0.0073764073 0
-0.0099999812 -0.11534604 -0.0047094543 0
-0.0099999933 -0.11547429 -0.0019446604 0
-0.010000005 -0.11527212 0.0014556004 0
-0.010000016 -0.11547845 0.0045595244 0
-0.010000029 -0.11523189 0.0075550009 0
-0.0097739603 -0.11587825 0.0097606434 0
-0.0072703143 -0.11533539 -0.0099996077 0
-0.0075655975 -0.1157008 0.010000393 0
-0.0044684247 -0.11544881 -0.0099995956 0
-0.0045040743 -0.11541779 0.010000398 0
-0.0010306336 -0.11568966 -0.0098812561 0
-0.00012465632 -0.11546151 -0.0072646742 0
-0.00012474955 -0.115496 -0.0043940037 0
-0.00012443768 -0.11536205 -0.0017489282 0
-0.00012402434 -0.11518509 0.0013641441 0
-0.00012454664 -0.11539815 0.0044144616 0
-0.00012501099 -0.11558688 0.0075638047 0
-0.0012287059 -0.11560278 0.0099307708 0
-0.009684612 -0.11282938 -0.0098019456 0
-0.0099999718 -0.11239497 -0.0077143973 0
-0.009999983 -0.11251886 -0.0044815023 0
-0.0099999942 -0.11246198 -0.0013781658 0
-0.010000006 -0.11262757 0.0016527512 0
-0.010000017 -0.11261857 0.004797583 0
-0.010000029 -0.11236759 0.0073799868 0
-0.0096254461 -0.11268199 0.0098906793 0
-0.0075906101 -0.11234844 -0.0099996198 0
-0.0075006322 -0.11266899 0.01000038 0
-0.0045504686 -0.11242498 -0.0099996105 0
-0.0043636481 -0.11245384 0.01000039 0
-0.0009327266 -0.11255012 -0.00984082 0
-0.00011776386 -0.11258909 -0.0072588217 0
-0.00011725866 -0.11237417 -0.0043785083 0
-0.00011753374 -0.11248457 -0.001568093 0
-0.00011714456 -0.11231761 0.0015840061 0
-0.0001180441 -0.11268771 0.0047481824 0
-0.00011785294 -0.11260393 0.0074709454 0
-0.0011791915 -0.11278732 0.0098967385 0
-0.0098272571 -0.10921983 -0.0098054418 0
-0.0099999718 -0.1092457 -0.007580407 0
-0.0099999849 -0.10948694 -0.0045272852 0
-0.0099999942 -0.10976437 -0.0016272774 0
-0.010000008 -0.10966361 0.0017637596 0
-0.010000017 -0.10976271 0.0045082709 0
-0.010000029 -0.10926246 0.0073676626 0
-0.0096765654 -0.1094497 0.0098588085 0
-0.0073338654 -0.10945716 -0.009999631 0
-0.0073755109 -0.10946453 0.01000037 0
-0.0046665538 -0.10956622 -0.0099996207 0
-0.0045796991 -0.10935197 0.010000378 0
-0.0011747429 -0.10960121 -0.0098200087 0
-0.00011073778 -0.10966074 -0.0071141515 0
-0.0001101344 -0.10940515 -0.0043821903 0
-0.0001101197 -0.10939414 -0.0011490034 0
-0.00011078272 -0.10966671 0.0013130807 0
-0.00010990842 -0.10929752 0.004505361 0
-0.00011038182 -0.10949016 0.0075779846 0
-0.0015488636 -0.10950432 0.0098166876 0
-0.0096859597 -0.1067303 -0.0098015871 0
-0.0099999737 -0.10670795 -0.0073224986 0
-0.009999983 -0.10674922 -0.0043907976 0
-0.0099999933 -0.10659793 -0.0014441322 0
-0.010000004 -0.10671486 0.0014105266 0
-0.010000016 -0.10619436 0.0045250207 0
-0.010000026 -0.10643335 0.0074321013 0
-0.0096475976 -0.10655446 0.0098510347 0
-0.0075623044 -0.10622489 -0.0099996431 0
-0.0074150478 -0.10648637 0.010000357 0
-0.0045396429 -0.10634302 -0.0099996328 0
-0.0045592594 -0.10651848 0.010000367 0
-0.0012728395 -0.10622726 -0.0098870536 0
-0.00010283524 -0.10636812 -0.0076215006 0
-0.00010427512 -0.10696369 -0.0046453685 0
-0.00010303588 -0.10644262 -0.0015900336 0
-0.00010331808 -0.10655535 0.0016378127 0
-0.00010306682 -0.106446 0.0047048125 0
-0.00010271534 -0.10629503 0.0076597552 0
-0.0011317786 -0.10650475 0.0099591799 0
-0.009757543 -0.10367959 -0.009779634 0
-0.0099999709 -0.10326361 -0.0076716882 0
-0.009999983 -0.1035895 -0.0041182842 0
-0.0099999951 -0.1034465 -0.0016081261 0
-0.010000006 -0.10362532 0.001526154 0
-0.010000018 -0.10366864 0.004693944 0
-0.010000027 -0.10344822 0.0076668472 0
-0.0099532399 -0.10360346 0.0096978983 0
-0.0075590247 -0.10368409 -0.0099996487 0
-0.0077409935 -0.10361059 0.010000345 0
-0.0046696761 -0.10324938 -0.0099996421 0
-0.0044704042 -0.10342784 0.010000357 0
-0.0012057559 -0.10369947 -0.0098511893 0
-9.5549454e-05 -0.10333159 -0.0075061885 0
-9.5420706e-05 -0.10327342 -0.0045290883 0
-9.6141986e-05 -0.1035696 -0.0015945437 0
-9.6239535e-05 -0.1036057 0.0013954256 0
-9.6445292e-05 -0.10368717 0.0042374199 0
-9.6183001e-05 -0.10357255 0.0077469717 0
-0.0012746019 -0.10358901 0.0098917931 0
-0.0097633135 -0.10052741 -0.0097042574 0
-0.0099999737 -0.10021267 -0.0075884438 0
-0.009999983 -0.10059997 -0.0044407607 0
-0.0099999961 -0.10048886 -0.0012956748 0
-0.010000005 -0.10052422 0.0013883144 0
-0.010000017 -0.10050472 0.0043884977 0
-0.010000029 -0.10058828 0.0076270662 0
-0.0097469483 -0.10041364 0.0097145969 0
-0.0077548213 -0.10039065 -0.0099996636 0
-0.0073835626 -0.10063706 0.010000335 0
-0.004556186 -0.10042731 -0.0099996543 0
-0.0043628681 -0.10047727 0.01000035 0
-0.0011972605 -0.10043508 -0.0098775215 0
