# .PCD v0.7 - Point Cloud Data file format
VERSION 0.7
FIELDS x y z rgb
SIZE 4 4 4 4
TYPE F F F F
COUNT 1 1 1 1
WIDTH 1225
HEIGHT 1
VIEWPOINT 0 0 0 1 0 0 0
POINTS 1225
DATA ascii
-0.0076174126 -0.23999995 -0.0075428975 0
-0.0073884195 -0.23999999 -0.0045251739 0
-0.0076102326 -0.23999992 -0.0012676856 0
-0.0073527498 -0.23999999 0.0015128715 0
-0.0074630994 -0.23999998 0.0045734197 0
-0.0074772392 -0.23999996 0.0078475457 0
-0.0075952169 -0.23878579 0.0098210918 0
-0.0046101296 -0.23895311 -0.0098260082 0
-0.0046665194 -0.23999992 -0.0073756925 0
-0.0042612813 -0.23999994 -0.0046488503 0
-0.0042974218 -0.23999991 -0.001551624 0
-0.0043850732 -0.23999994 0.0014335822 0
-0.0045490586 -0.23999996 0.0044140373 0
-0.0040888283 -0.23999994 0.0075078066 0
-0.0044112047 -0.23885146 0.0098733436 0
-0.0014171974 -0.2386324 -0.0099396706 0
-0.0019040871 -0.23999995 -0.0074317064 0
-0.0013714852 -0.24000001 -0.004600924 0
-0.0014464934 -0.23999999 -0.0014501141 0
-0.001445308 -0.23999998 0.0017448752 0
-0.0015359831 -0.23999996 0.0047477558 0
-0.0017430532 -0.23999995 0.0075760637 0
-0.0014812686 -0.23881593 0.0098464852 0
0.0014122248 -0.23861286 -0.0098974006 0
0.0015663055 -0.23999994 -0.0075381557 0
0.0020171925 -0.23999999 -0.0043094815 0
0.0016213903 -0.23999998 -0.0015382662 0
0.0013022108 -0.23999989 0.0016509974 0
0.0017042001 -0.23999992 0.0047635962 0
0.0013498536 -0.23999992 0.0074239755 0
0.0014864274 -0.23881072 0.0098761749 0
0.0046282155 -0.23879358 -0.0099191274 0
0.0045319153 -0.23999995 -0.0075477539 0
0.004395532 -0.24000002 -0.0046888776 0
0.0044985926 -0.23999995 -0.0013826467 0
0.0045221755 -0.23999995 0.0013990041 0
0.0042224163 -0.23999996 0.0041115177 0
0.0042151785 -0.23999996 0.0074816197 0
0.0044382713 -0.23895143 0.0097958194 0
0.0074401405 -0.2390383 -0.0099066161 0
0.007308898 -0.23999998 -0.0077587985 0
0.0071412832 -0.23999995 -0.0044407649 0
0.0075529492 -0.23999999 -0.0018144065 0
0.0074139521 -0.23999998 0.0017143247 0
0.0075950329 -0.23999992 0.0043389932 0
0.0074919895 -0.23999996 0.0078347148 0
0.0074266959 -0.2390292 0.0099170655 0
0.010151532 -0.23875804 -0.0099534467 0
0.010778008 -0.24000001 -0.0074784416 0
0.010522087 -0.24000002 -0.0044635739 0
0.010320211 -0.23999998 -0.0011538905 0
0.010187719 -0.23999999 0.0017627469 0
0.0107136 -0.23999991 0.0045906566 0
0.010531845 -0.23999995 0.0073098568 0
0.01032995 -0.23886631 0.0098675601 0
0.013632962 -0.23907302 -0.009891184 0
0.013367979 -0.23999995 -0.0075108418 0
0.013190289 -0.23999998 -0.0041162367 0
0.013532242 -0.24000001 -0.0012599131 0
0.013474531 -0.23999995 0.0014738722 0
0.013389803 -0.23999999 0.0046496755 0
0.013297843 -0.23999991 0.0076089608 0
0.01336833 -0.23883061 0.009940885 0
0.016416401 -0.23877974 -0.0098599931 0
0.016782338 -0.24000001 -0.0070753447 0
0.016642898 -0.23999995 -0.0046469304 0
0.016181922 -0.23999999 -0.0016524981 0
0.016531717 -0.23999999 0.0011296286 0
0.016480844 -0.23999998 0.0045674602 0
0.016471414 -0.23999986 0.0075554433 0
0.016601674 -0.23849012 0.009965511 0
0.019695207 -0.23896514 -0.009854828 0
0.01958793 -0.23999998 -0.0076433229 0
0.019693468 -0.23999998 -0.0046214834 0
0.019320983 -0.23999994 -0.0016046483 0
0.019461853 -0.23999994 0.001815528 0
0.01940478 -0.23999988 0.0046079978 0
0.01945113 -0.23999989 0.0074012619 0
0.01950152 -0.23906282 0.0098263975 0
0.022440277 -0.23906162 -0.0098355003 0
0.022260292 -0.23999998 -0.0071644252 0
0.022324726 -0.23999994 -0.0046613389 0
0.022396429 -0.23999999 -0.001728404 0
0.022589829 -0.23999998 0.0014465178 0
0.022521598 -0.23999996 0.0046039838 0
0.022323815 -0.23999989 0.0073416894 0
0.022519927 -0.23869424 0.0099716401 0
0.025524287 -0.23915172 -0.0098410258 0
0.025302989 -0.23999998 -0.0073761404 0
0.025372831 -0.23999996 -0.0044902214 0
0.025599957 -0.23999999 -0.0016669586 0
0.025050612 -0.23999999 0.0013447445 0
0.025371585 -0.23999996 0.0043059844 0
0.025775574 -0.23999992 0.0073700645 0
0.025659343 -0.23881163 0.0099378135 0
0.028356306 -0.23862028 -0.0099408496 0
0.02836651 -0.24000004 -0.0074996562 0
0.028270591 -0.24000001 -0.0044772853 0
0.028682033 -0.23999999 -0.0012562186 0
0.028667763 -0.23999999 0.001723673 0
0.028241755 -0.23999998 0.0046822331 0
0.028495843 -0.23999996 0.0077331024 0
0.02839447 -0.23879574 0.009957511 0
0.031101612 -0.23870231 -0.00992948 0
0.031499114 -0.23999996 -0.0075661545 0
0.031397689 -0.23999999 -0.00455262 0
0.031576257 -0.23999999 -0.0015833576 0
0.031991463 -0.23999999 0.0014054222 0
0.031090518 -0.23999998 0.0049200035 0
0.031621218 -0.23999996 0.0078935931 0
0.031278744 -0.2388068 0.0098931491 0
0.034213383 -0.23849073 -0.0099759977 0
0.034759514 -0.24000002 -0.0078271348 0
0.03441171 -0.23999995 -0.0044489922 0
0.034417372 -0.23999999 -0.0014958644 0
0.034497086 -0.23999996 0.0013012146 0
0.034310218 -0.23999996 0.0045190491 0
0.034520783 -0.23999995 0.0075891735 0
0.034375317 -0.23859127 0.0099223619 0
0.037424702 -0.23888171 -0.0098775644 0
0.037618879 -0.23999998 -0.0072156759 0
0.037711952 -0.23999999 -0.004688967 0
0.037441663 -0.24000001 -0.0018549232 0
0.037549514 -0.23999999 0.00094047247 0
0.037412703 -0.23999996 0.0046656327 0
0.03757342 -0.23999989 0.0076681525 0
0.037327226 -0.23853999 0.0099383602 0
0.040520251 -0.23880896 -0.0099279312 0
0.040430341 -0.24000001 -0.0072354171 0
0.040434826 -0.24000001 -0.0047915708 0
0.040441714 -0.23999999 -0.0013684122 0
0.040845785 -0.23999999 0.0012601455 0
0.040119287 -0.23999996 0.0046313568 0
0.040396858 -0.23999995 0.0075157038 0
0.040451076 -0.23863029 0.009919202 0
0.043639969 -0.23867419 -0.0099499244 0
0.043569099 -0.23999995 -0.0075360066 0
0.043752838 -0.24000002 -0.0042957673 0
0.043469451 -0.23999996 -0.0015022504 0
0.043117736 -0.24000001 0.0015808695 0
0.043496154 -0.23999999 0.0045918273 0
0.043365378 -0.23999996 0.0076749381 0
0.043524951 -0.23876628 0.0098279538 0
0.046527222 -0.23856828 -0.009949591 0
0.046508037 -0.24000002 -0.0075385496 0
0.046366502 -0.24000002 -0.0046067187 0
0.046312835 -0.23999999 -0.001522831 0
0.046074226 -0.23999999 0.0011984824 0
0.04654631 -0.23999996 0.0046863477 0
0.046687569 -0.23999995 0.0076575126 0
0.046474393 -0.23858126 0.0099863345 0
0.049618796 -0.23879281 -0.0098765623 0
0.04948654 -0.23999996 -0.0075161718 0
0.049243651 -0.23999999 -0.0049862172 0
0.049278744 -0.24000001 -0.0010972669 0
0.04953805 -0.23999994 0.0016918028 0
0.049568344 -0.23999996 0.0047011185 0
0.049735777 -0.23999995 0.0075184964 0
0.049463954 -0.23897323 0.0099189281 0
0.052614082 -0.23921269 -0.0098042116 0
0.052576166 -0.24000002 -0.0077152485 0
0.052320249 -0.23999999 -0.0043522352 0
0.052369788 -0.23999999 -0.0014257536 0
0.052531142 -0.23999994 0.0016320406 0
0.0526115 -0.23999996 0.0047678384 0
0.052926935 -0.23999995 0.0077201193 0
0.052444305 -0.23866631 0.0099425921 0
0.055267937 -0.23894767 -0.0098032001 0
0.05530367 -0.23999999 -0.007683991 0
0.055778835 -0.23999998 -0.0044389698 0
0.055439871 -0.24000001 -0.00164368 0
0.055508181 -0.23999995 0.0015877793 0
0.05586208 -0.23999996 0.0043525808 0
0.055518001 -0.23999994 0.0076050595 0
0.05547791 -0.23898891 0.0099039841 0
0.058712035 -0.23895784 -0.0098464675 0
0.058560327 -0.23999995 -0.0079022162 0
0.058623794 -0.23999999 -0.0044209184 0
0.058424436 -0.23999994 -0.0014638781 0
0.058489449 -0.23999994 0.0012456479 0
0.058161281 -0.23999991 0.0047878684 0
0.05835424 -0.23999994 0.0077397004 0
0.058538858 -0.23878281 0.0099198101 0
0.061470505 -0.23871137 -0.0098159211 0
0.061273217 -0.23999995 -0.0074851699 0
0.061716426 -0.24000002 -0.0044024186 0
0.062046763 -0.23999995 -0.0016221169 0
0.061528616 -0.23999999 0.0011128392 0
0.061266195 -0.23999992 0.0046659252 0
0.061523404 -0.23999989 0.0074624391 0
0.061496358 -0.23896591 0.0098926742 0
0.064444095 -0.23898178 -0.0098664863 0
0.064622827 -0.23999998 -0.0077321013 0
0.064553753 -0.24000001 -0.0044256896 0
0.064261921 -0.24000001 -0.0015218415 0
0.064172164 -0.23999999 0.0014082557 0
0.064518698 -0.23999998 0.0048248582 0
0.06474825 -0.23999996 0.0072243041 0
0.064373396 -0.23895468 0.0099114627 0
0.067328952 -0.23881887 -0.0098484242 0
0.067780025 -0.23999998 -0.0072628343 0
0.06743522 -0.24000002 -0.0047400463 0
0.067148782 -0.24000001 -0.0015123043 0
0.067446299 -0.23999998 0.0018632901 0
0.067473523 -0.23999998 0.0043627718 0
0.067588776 -0.23999996 0.0074390536 0
0.067393996 -0.23927695 0.0098497476 0
0.070658252 -0.23886305 -0.0098474799 0
0.0706046 -0.23999992 -0.0074614733 0
0.070456266 -0.23999995 -0.0046279826 0
0.070575163 -0.23999991 -0.0015622989 0
0.070226461 -0.23999995 0.0015896582 0
0.070516266 -0.23999991 0.004380771 0
0.070509642 -0.23999992 0.0072303778 0
0.070176423 -0.23878165 0.0099177184 0
0.073563822 -0.23873454 -0.0099271098 0
0.073410541 -0.24000002 -0.0073137078 0
0.073318593 -0.23999999 -0.0046426598 0
0.073445432 -0.24000001 -0.001487371 0
0.073532581 -0.23999998 0.0013905974 0
0.07353729 -0.23999992 0.0046622595 0
0.073561579 -0.23999992 0.0074499529 0
0.073718913 -0.23854887 0.009951774 0
0.076430105 -0.23826763 -0.0099491859 0
0.076591171 -0.24000002 -0.0072354567 0
0.076668367 -0.24000001 -0.0042978856 0
0.076251782 -0.23999998 -0.0013879932 0
0.076610081 -0.23999999 0.0013870127 0
0.076480456 -0.23999991 0.0047055846 0
0.076508731 -0.23999989 0.0074306955 0
0.076475605 -0.23872626 0.0098739937 0
0.079555407 -0.23886174 -0.009880051 0
0.079485394 -0.24000002 -0.0073315208 0
0.079707183 -0.24000001 -0.0047140168 0
0.079332978 -0.23999992 -0.0017017092 0
0.079075485 -0.23999999 0.0017944386 0
0.079599872 -0.23999998 0.0048585176 0
0.079458408 -0.23999998 0.0076124454 0
0.079365127 -0.23861755 0.0099160876 0
0.082536668 -0.23873045 -0.0098812953 0
0.082270101 -0.24000002 -0.0074582179 0
0.082484588 -0.23999996 -0.0044130506 0
0.082290292 -0.23999998 -0.0014681144 0
0.082816601 -0.23999998 0.0015794713 0
0.082750753 -0.23999994 0.0048489776 0
0.082319863 -0.23999995 0.0077026575 0
0.082226105 -0.23881501 0.0098663103 0
0.085478596 -0.23919544 -0.0098759867 0
0.085917778 -0.23999998 -0.0074716113 0
0.085304543 -0.24000002 -0.0047045238 0
0.08530546 -0.23999996 -0.0015271221 0
0.085227162 -0.23999998 0.0012344824 0
0.085359141 -0.23999999 0.0043807006 0
0.085367002 -0.23999996 0.0071165813 0
0.085258245 -0.23888028 0.0098921591 0
0.088373348 -0.23879249 -0.0098786214 0
0.088490508 -0.23999998 -0.0076446189 0
0.088814348 -0.24000002 -0.0044306819 0
0.088467591 -0.23999999 -0.0014428843 0
0.088281266 -0.24000001 0.0014368322 0
0.088720314 -0.23999999 0.0045604333 0
0.088672437 -0.23999996 0.0077816043 0
0.088388093 -0.23846719 0.0099280169 0
0.091773652 -0.23875467 -0.0098881871 0
0.091559879 -0.23999998 -0.0077408804 0
0.091309644 -0.23999999 -0.0045358581 0
0.091248482 -0.24000001 -0.0015455018 0
0.091569073 -0.23999999 0.0015679892 0
0.091316782 -0.23999999 0.0043817963 0
0.091420606 -0.23999996 0.0075462265 0
0.091575541 -0.23881558 0.0098986719 0
0.094405405 -0.23899645 -0.0098695736 0
0.094385006 -0.23999999 -0.0075451965 0
0.094721802 -0.23999996 -0.0046254359 0
0.094432876 -0.23999995 -0.0012661484 0
0.094366603 -0.23999998 0.0018004939 0
0.094806969 -0.23999996 0.0045701899 0
0.094661064 -0.23999988 0.0077316146 0
0.094921254 -0.23850834 0.0099374279 0
0.097403638 -0.23868302 -0.0099611199 0
0.097283512 -0.24000002 -0.0078130709 0
0.097345032 -0.24000002 -0.0042669447 0
0.097558148 -0.23999998 -0.0014795343 0
0.097711943 -0.23999994 0.0014504349 0
0.097404346 -0.23999996 0.0042719636 0
0.097437456 -0.23999995 0.0071901437 0
0.09747842 -0.23902248 0.0098782144 0
0.1005054 -0.23848695 -0.0099635459 0
0.10015834 -0.23999998 -0.0073587238 0
0.10017279 -0.23999994 -0.0047709756 0
0.10049365 -0.23999999 -0.0018587323 0
0.10068583 -0.24000001 0.0015028452 0
0.1003812 -0.23999995 0.0044908049 0
0.10052937 -0.23999995 0.0079340423 0
0.10071756 -0.23849133 0.0099073788 0
0.10341452 -0.23860009 -0.0099518653 0
0.10325575 -0.23999998 -0.0076303147 0
0.10311964 -0.23999998 -0.0044795214 0
0.10347452 -0.23999999 -0.0011162511 0
0.10319563 -0.23999999 0.0013680537 0
0.10339058 -0.23999992 0.0044939416 0
0.10369428 -0.23999991 0.0074276584 0
0.10360504 -0.23880211 0.0099372659 0
0.10655573 -0.23873055 -0.0099399341 0
0.10654718 -0.24000002 -0.0077139237 0
0.10647003 -0.24000002 -0.0044226483 0
0.10658583 -0.23999995 -0.00140321 0
0.10657647 -0.23999996 0.0018334365 0
0.10644574 -0.23999999 0.0041080932 0
0.1063174 -0.23999996 0.0076164878 0
0.10650493 -0.23870876 0.0098762717 0
0.10940844 -0.23880182 -0.0098849265 0
0.10950258 -0.23999994 -0.0075466912 0
0.10939437 -0.23999999 -0.0042336918 0
0.10965782 -0.23999995 -0.0015214774 0
0.10961077 -0.23999995 0.0013683565 0
0.10929029 -0.23999999 0.0045737047 0
0.10948309 -0.23999995 0.0075631468 0
0.10899729 -0.23897018 0.0097793601 0
0.11227296 -0.23876381 -0.0098688826 0
0.11253147 -0.24000001 -0.0073678717 0
0.11246909 -0.24000002 -0.0049760025 0
0.11279146 -0.23999995 -0.0012245016 0
0.11262123 -0.23999995 0.0014380098 0
0.11274163 -0.23999995 0.0043163528 0
0.1125683 -0.23999994 0.0076095723 0
0.1126487 -0.2389805 0.0098198922 0
0.11567064 -0.23879638 -0.0098895291 0
0.11521626 -0.24000004 -0.0074832742 0
0.11547065 -0.24000001 -0.0043222238 0
0.11571468 -0.23999999 -0.0018240282 0
0.11550321 -0.23999999 0.0013018857 0
0.11524925 -0.23999992 0.0044891182 0
0.11509117 -0.23999994 0.0074498393 0
0.11526535 -0.23900864 0.0098739788 0
0.11871187 -0.23878083 -0.009905342 0
0.11857576 -0.24000001 -0.0074772369 0
0.11875273 -0.23999999 -0.0050762612 0
0.11845306 -0.23999995 -0.0017177616 0
0.11852701 -0.23999992 0.0014025075 0
0.11846016 -0.23999992 0.0041864384 0
0.11850211 -0.23999996 0.0077689108 0
0.11878537 -0.23894879 0.0098293014 0
0.12129518 -0.23898289 -0.00989109 0
0.1212338 -0.23999998 -0.0074253953 0
0.12149586 -0.24000002 -0.0044558663 0
0.12169392 -0.23999999 -0.0012933266 0
0.12150441 -0.23999998 0.0014154572 0
0.12148233 -0.23999994 0.0044976887 0
0.12123175 -0.23999991 0.0073620821 0
0.12185246 -0.23877452 0.0098804822 0
0.12439135 -0.2385471 -0.0099340361 0
0.1245649 -0.24000002 -0.0076861535 0
0.12467025 -0.23999996 -0.0047694226 0
0.12463829 -0.23999998 -0.0017922159 0
0.12431815 -0.23999994 0.0012897917 0
0.12399264 -0.23999994 0.00481094 0
0.12430572 -0.23999991 0.0076049967 0
0.12462196 -0.23897234 0.0099012572 0
0.12761745 -0.23886269 -0.0099079823 0
0.12760709 -0.23999995 -0.0074796528 0
0.12724842 -0.23999995 -0.0046128025 0
0.12739407 -0.23999995 -0.0012118379 0
0.12750877 -0.23999996 0.0015342429 0
0.12757304 -0.23999995 0.0045288899 0
0.12741922 -0.23999989 0.0075209639 0
0.12759401 -0.2391627 0.0098325387 0
0.12973247 -0.2386598 -0.0095872236 0
0.12983526 -0.23922764 -0.0075574988 0
0.12989005 -0.23890391 -0.0043722759 0
0.12989722 -0.23853752 -0.0015569223 0
0.12986456 -0.23891491 0.0010956767 0
0.12987775 -0.23899144 0.0042465893 0
0.12990461 -0.23902014 0.0073331357 0
0.12960906 -0.23873243 0.0097979661 0
-0.0098164491 -0.23562193 -0.0096485419 0
-0.0099999718 -0.23549618 -0.0076905722 0
-0.0099999839 -0.23559639 -0.0044058501 0
-0.0099999961 -0.23546846 -0.0012876664 0
-0.010000007 -0.23546365 0.0014412299 0
-0.010000017 -0.23539662 0.0045570037 0
-0.010000028 -0.23555176 0.0075500025 0
-0.009700614 -0.23484139 0.0097006634 0
-0.0074061346 -0.23563099 -0.0099991746 0
-0.0073893657 -0.23565325 0.010000827 0
-0.0044617299 -0.23579191 -0.0099991607 0
-0.0039986419 -0.23531255 0.010000837 0
-0.001334618 -0.23548111 -0.0099991541 0
-0.0016509066 -0.23565139 0.010000846 0
0.0016391752 -0.23556738 -0.0099991392 0
0.0016021518 -0.23531845 0.010000858 0
0.0046282001 -0.23557061 -0.0099991299 0
0.0043363017 -0.23543558 0.010000868 0
0.0075605684 -0.23527838 -0.0099991206 0
0.0076142345 -0.23574665 0.010000881 0
0.010669491 -0.23595472 -0.0099991094 0
0.010846464 -0.2356977 0.010000893 0
0.013581434 -0.23537846 -0.0099991001 0
0.013800791 -0.23567903 0.010000904 0
0.016643886 -0.23533066 -0.0099990861 0
0.016642429 -0.2357451 0.010000915 0
0.019585809 -0.2355773 -0.0099990778 0
0.019482613 -0.23548645 0.010000924 0
0.022669401 -0.23536389 -0.0099990675 0
0.022374287 -0.23564184 0.010000933 0
0.025610169 -0.2354195 -0.0099990545 0
0.025479449 -0.23538277 0.010000943 0
0.028610598 -0.23558185 -0.0099990424 0
0.02825922 -0.23581868 0.010000957 0
0.031431779 -0.23553452 -0.009999034 0
0.031607151 -0.2354566 0.010000966 0
0.034336548 -0.23561771 -0.0099990228 0
0.034552407 -0.23521562 0.010000974 0
0.037622865 -0.23561262 -0.0099990116 0
0.037381206 -0.23569287 0.01000099 0
0.040523823 -0.23558213 -0.0099990014 0
0.040891275 -0.23537223 0.010001002 0
0.043576613 -0.23560147 -0.0099989902 0
0.043310773 -0.23560686 0.010001011 0
0.046462979 -0.23526865 -0.0099989809 0
0.046287317 -0.23568276 0.010001022 0
0.049426071 -0.2355139 -0.0099989679 0
0.049266025 -0.2355991 0.010001031 0
0.052859042 -0.23549722 -0.0099989558 0
0.052547485 -0.23555155 0.010001044 0
0.055658296 -0.23557764 -0.0099989455 0
0.055566311 -0.23536947 0.010001054 0
0.058649566 -0.23551606 -0.0099989362 0
0.058397811 -0.23520568 0.010001063 0
0.061409988 -0.23537967 -0.0099989232 0
0.061619848 -0.2353235 0.010001076 0
0.064557754 -0.23562256 -0.009998912 0
0.064444102 -0.23523335 0.010001086 0
0.067437254 -0.23553951 -0.0099989045 0
0.067265071 -0.23518364 0.010001095 0
0.070707314 -0.23535502 -0.0099988934 0
0.070496276 -0.23548223 0.010001107 0
0.07387425 -0.23555321 -0.0099988813 0
0.073606417 -0.23550759 0.010001119 0
0.076634221 -0.23567332 -0.009998871 0
0.076502249 -0.23540884 0.010001128 0
0.079601265 -0.23543112 -0.0099988608 0
0.079431124 -0.23521262 0.010001139 0
0.082504168 -0.23539753 -0.0099988496 0
0.082591213 -0.23537134 0.010001153 0
0.085233174 -0.23540069 -0.0099988412 0
0.085163571 -0.23556706 0.010001162 0
0.088524893 -0.23575135 -0.0099988282 0
0.088373207 -0.23566288 0.010001174 0
0.09146259 -0.23589768 -0.0099988151 0
0.09139391 -0.2354718 0.010001183 0
0.094471388 -0.23545295 -0.0099988068 0
0.094608113 -0.2356355 0.010001195 0
0.097408228 -0.23520611 -0.0099987937 0
0.097585224 -0.2353342 0.010001205 0
0.10077132 -0.23549041 -0.0099987825 0
0.10077597 -0.23545226 0.010001216 0
0.10374017 -0.23591907 -0.0099987723 0
0.10351184 -0.23528451 0.010001228 0
0.10656772 -0.23532875 -0.009998762 0
0.10652512 -0.23557308 0.010001239 0
0.10937227 -0.23538093 -0.0099987527 0
0.10968211 -0.23553944 0.01000125 0
0.11264814 -0.23549391 -0.0099987406 0
0.1125285 -0.23549768 0.01000126 0
0.11553723 -0.23533107 -0.0099987285 0
0.11532455 -0.23539221 0.010001271 0
0.11841006 -0.23564991 -0.0099987192 0
0.11845689 -0.23578906 0.010001283 0
0.12133266 -0.23586228 -0.0099987062 0
0.12140942 -0.23559554 0.010001293 0
0.12421193 -0.23549414 -0.0099986987 0
0.12452541 -0.23556595 0.010001305 0
0.12734431 -0.23536991 -0.0099986875 0
0.12769642 -0.23575737 0.010001317 0
0.12974599 -0.23573694 -0.0097455513 0
0.13000007 -0.23543541 -0.0072015077 0
0.13000007 -0.23547736 -0.0042379224 0
0.13000007 -0.23550554 -0.0013547166 0
0.13000004 -0.23550491 0.0013307658 0
0.13000003 -0.2353151 0.0044859983 0
0.13000003 -0.23568407 0.007145768 0
0.12985983 -0.23559597 0.0097082248 0
-0.0098010004 -0.23281839 -0.0098148035 0
-0.0099999728 -0.23231803 -0.0075574159 0
-0.0099999858 -0.23243658 -0.0042530126 0
-0.0099999961 -0.23228423 -0.0014614039 0
-0.010000004 -0.23258395 0.0013459804 0
-0.010000016 -0.23274517 0.0044036531 0
-0.010000028 -0.23217276 0.0076322518 0
-0.0097453026 -0.23213556 0.0097100614 0
-0.0077738366 -0.23228857 -0.0099991858 0
-0.0074204812 -0.23255385 0.010000814 0
-0.0043195463 -0.23251414 -0.0099991737 0
-0.0044018296 -0.23245491 0.010000828 0
-0.0016576023 -0.23255099 -0.0099991616 0
-0.0015094085 -0.23247512 0.010000836 0
0.0015891708 -0.23237576 -0.0099991541 0
0.001473596 -0.23257516 0.010000848 0
0.0045385063 -0.23278004 -0.0099991411 0
0.0042421329 -0.23234673 0.010000857 0
0.0072118244 -0.23254146 -0.0099991327 0
0.0073118801 -0.2325525 0.010000866 0
0.01046534 -0.23266283 -0.0099991197 0
0.010802275 -0.23277523 0.010000883 0
0.013502195 -0.23263696 -0.0099991085 0
0.013519665 -0.23239848 0.010000889 0
0.016562128 -0.23211199 -0.0099991011 0
0.01597413 -0.23255847 0.010000901 0
0.019628495 -0.23267648 -0.0099990871 0
0.019508772 -0.23258597 0.010000913 0
0.022535004 -0.23254269 -0.0099990768 0
0.022537731 -0.23261842 0.010000925 0
0.02545698 -0.23241299 -0.0099990647 0
0.025337813 -0.23204246 0.010000933 0
0.028411351 -0.23287705 -0.0099990554 0
0.028634654 -0.23239097 0.010000945 0
0.031615011 -0.23278062 -0.0099990405 0
0.03162767 -0.23265138 0.010000958 0
0.034382015 -0.23250049 -0.009999034 0
0.034584522 -0.23255353 0.010000968 0
0.037560847 -0.2324871 -0.00999902 0
0.03717288 -0.23229823 0.010000976 0
0.040618528 -0.23248367 -0.0099990088 0
0.040673546 -0.23246574 0.01000099 0
0.043452423 -0.23239142 -0.0099990005 0
0.043536097 -0.23250318 0.010000998 0
0.046498727 -0.23263715 -0.0099989893 0
0.046325162 -0.23267302 0.010001008 0
0.049481746 -0.23251118 -0.009998979 0
0.049735229 -0.23221269 0.010001021 0
0.052464698 -0.23248446 -0.0099989688 0
0.052845143 -0.23258184 0.010001034 0
0.055641294 -0.23211026 -0.0099989586 0
0.055666577 -0.23242302 0.010001041 0
0.058570858 -0.23227079 -0.0099989474 0
0.058345292 -0.23227248 0.010001053 0
0.06137342 -0.23255219 -0.0099989353 0
0.061385669 -0.23256576 0.010001063 0
0.064567149 -0.23234771 -0.009998926 0
0.064438336 -0.23262079 0.010001073 0
0.067591593 -0.23235343 -0.0099989148 0
0.06757126 -0.23251554 0.010001088 0
0.070271045 -0.23251849 -0.0099989027 0
0.070614621 -0.23248012 0.010001097 0
0.073484771 -0.23268937 -0.0099988924 0
0.073612407 -0.23264721 0.01000111 0
0.076335445 -0.23269093 -0.0099988803 0
0.076421902 -0.2324716 0.010001117 0
0.079298832 -0.23230588 -0.009998871 0
0.079402529 -0.23238745 0.010001129 0
0.082353286 -0.23230828 -0.0099988617 0
0.08231438 -0.23265353 0.010001142 0
0.085499376 -0.23243079 -0.0099988477 0
0.085423574 -0.23269245 0.010001152 0
0.088558592 -0.23263821 -0.0099988384 0
0.08844813 -0.23251309 0.010001164 0
0.091565616 -0.23252784 -0.0099988235 0
0.091308922 -0.23246738 0.010001172 0
0.094359018 -0.23251468 -0.009998817 0
0.094536237 -0.23273575 0.010001186 0
0.097482458 -0.23236553 -0.0099988077 0
0.097569391 -0.23245369 0.010001197 0
0.10060885 -0.232361 -0.0099987937 0
0.10063324 -0.23245329 0.010001205 0
0.10329919 -0.23250739 -0.0099987844 0
0.10359919 -0.23229399 0.010001217 0
0.1065928 -0.2324381 -0.0099987732 0
0.10659336 -0.23251793 0.010001229 0
0.10939426 -0.23235397 -0.0099987648 0
0.10924913 -0.23254843 0.010001238 0
0.11247518 -0.23248155 -0.0099987527 0
0.11268019 -0.23234655 0.010001251 0
0.11553456 -0.23273654 -0.0099987397 0
0.1156722 -0.23249072 0.010001261 0
0.11859467 -0.23238608 -0.0099987304 0
0.11825468 -0.23257789 0.010001272 0
0.12114529 -0.23259529 -0.0099987211 0
0.12138909 -0.23267807 0.010001283 0
0.12447862 -0.23275451 -0.0099987052 0
0.12458036 -0.23276447 0.010001294 0
0.12772551 -0.23245752 -0.009998695 0
0.12724867 -0.23263751 0.010001304 0
0.12972842 -0.23260608 -0.00990023 0
0.13000008 -0.23245431 -0.0073909867 0
0.13000005 -0.2325401 -0.0045403498 0
0.13000004 -0.23257944 -0.0014653198 0
0.13000004 -0.23253356 0.00128815 0
0.13000003 -0.23281853 0.0045491396 0
0.13000001 -0.23236082 0.0073695695 0
0.12976509 -0.23271708 0.0097779511 0
-0.0098246718 -0.2291763 -0.0095942095 0
-0.0099999728 -0.22910425 -0.0076066456 0
-0.0099999839 -0.22926551 -0.0046491721 0
-0.009999997 -0.22953242 -0.0013945814 0
-0.010000004 -0.22945845 0.00158642 0
-0.010000018 -0.22959425 0.0046684281 0
-0.01000003 -0.22961907 0.0076175919 0
-0.0097966017 -0.22956899 0.0098628122 0
-0.0075134165 -0.22941191 -0.0099991951 0
-0.0077090752 -0.22949894 0.010000804 0
-0.0044092694 -0.22951367 -0.0099991849 0
-0.0044689071 -0.2293434 0.010000815 0
-0.0012572384 -0.22923893 -0.0099991737 0
-0.0018357837 -0.2296557 0.010000826 0
0.0014584051 -0.22959988 -0.0099991653 0
0.0012875437 -0.2292929 0.010000836 0
0.0041094278 -0.2293572 -0.009999156 0
0.0046953247 -0.22954299 0.010000846 0
0.0072831451 -0.22952189 -0.0099991439 0
0.0077216909 -0.22929895 0.010000858 0
0.01034476 -0.22944389 -0.0099991309 0
0.010676992 -0.22954543 0.01000087 0
0.013479191 -0.22943187 -0.0099991215 0
0.013473705 -0.22937761 0.010000877 0
0.016289486 -0.22950387 -0.0099991113 0
0.016330212 -0.22943829 0.010000889 0
0.019248711 -0.22936983 -0.0099991001 0
0.019418489 -0.22953875 0.010000902 0
0.022789197 -0.22941001 -0.009999088 0
0.022493202 -0.22956435 0.010000912 0
0.025394004 -0.22930422 -0.0099990787 0
0.025675438 -0.22947058 0.010000925 0
0.028423941 -0.22980139 -0.0099990666 0
0.028569983 -0.22945182 0.010000935 0
0.031516388 -0.22940768 -0.0099990536 0
0.031468607 -0.22941589 0.010000945 0
0.034865472 -0.22959776 -0.0099990442 0
0.034480449 -0.22944993 0.010000957 0
0.037536412 -0.229555 -0.0099990331 0
0.037322763 -0.22972512 0.010000968 0
0.040232293 -0.22989191 -0.009999021 0
0.040628508 -0.2297923 0.010000978 0
0.043485969 -0.22991528 -0.0099990107 0
0.043492407 -0.22934121 0.010000989 0
0.046307188 -0.22950633 -0.0099990014 0
0.046595179 -0.22955577 0.010001 0
0.049520042 -0.22959438 -0.0099989893 0
0.04940746 -0.22954893 0.010001011 0
0.052564878 -0.22998251 -0.0099989781 0
0.052511152 -0.22946161 0.01000102 0
0.055828966 -0.22964557 -0.0099989669 0
0.055415675 -0.22939835 0.010001029 0
0.058668893 -0.22955996 -0.0099989576 0
0.058522902 -0.22941685 0.010001041 0
0.061174762 -0.22977783 -0.0099989465 0
0.061554227 -0.22944117 0.010001053 0
0.064425074 -0.22929156 -0.0099989362 0
0.064400777 -0.2294156 0.010001064 0
0.067443185 -0.22931708 -0.009998926 0
0.067423351 -0.22943595 0.010001074 0
0.070411406 -0.22966021 -0.009998912 0
0.069938667 -0.22948366 0.010001085 0
0.073342606 -0.22935417 -0.0099989055 0
0.073289178 -0.22964765 0.010001097 0
0.076550506 -0.22922906 -0.0099988934 0
0.076463088 -0.22929734 0.010001108 0
0.079414651 -0.22954784 -0.0099988794 0
0.079498559 -0.22976026 0.010001119 0
0.082390063 -0.22940503 -0.0099988719 0
0.082696073 -0.22935361 0.010001129 0
0.085487999 -0.22914401 -0.0099988617 0
0.085397474 -0.22947066 0.010001139 0
0.088476136 -0.22945762 -0.0099988496 0
0.088638172 -0.22931328 0.010001152 0
0.091480821 -0.22920811 -0.0099988393 0
0.091503449 -0.22953837 0.01000116 0
0.094640382 -0.2296546 -0.0099988254 0
0.094280146 -0.22940113 0.010001172 0
0.097323567 -0.22948287 -0.0099988179 0
0.097617216 -0.2294504 0.010001185 0
0.10047666 -0.2296132 -0.009998804 0
0.10046462 -0.22973455 0.010001193 0
0.10350294 -0.22925615 -0.0099987956 0
0.10353702 -0.22939785 0.010001207 0
0.10624453 -0.22952661 -0.0099987835 0
0.10660823 -0.22954243 0.010001217 0
0.10954934 -0.22925824 -0.0099987732 0
0.10953701 -0.22962907 0.010001227 0
0.11237827 -0.2296599 -0.009998762 0
0.11245597 -0.22950919 0.010001238 0
0.11555757 -0.22948444 -0.009998749 0
0.11543306 -0.22924723 0.01000125 0
0.1184615 -0.22921357 -0.0099987416 0
0.11863074 -0.22968951 0.010001262 0
0.12167457 -0.22939137 -0.0099987295 0
0.12161998 -0.22946231 0.01000127 0
0.12435025 -0.22962749 -0.0099987164 0
0.1245741 -0.22947398 0.010001282 0
0.12719537 -0.22945549 -0.009998709 0
0.12736861 -0.22943096 0.010001292 0
0.12975566 -0.22974041 -0.0097036716 0
0.13000008 -0.2296944 -0.0073670186 0
0.13000008 -0.22914301 -0.0045457282 0
0.13000005 -0.22965935 -0.0012759231 0
0.13000004 -0.22931415 0.0016871329 0
0.13000005 -0.22936903 0.0046055689 0
0.13000004 -0.22944956 0.0077165086 0
0.12970358 -0.22928089 0.0097326087 0
-0.0097715035 -0.22643977 -0.0096801184 0
-0.0099999737 -0.22657669 -0.0076114666 0
-0.0099999839 -0.22640042 -0.004566187 0
-0.0099999961 -0.22627926 -0.001324487 0
-0.010000005 -0.22668241 0.0014003393 0
-0.010000016 -0.22623065 0.0043804925 0
-0.010000029 -0.22644833 0.007750113 0
-0.0097013889 -0.22658573 0.0097762123 0
-0.0075012334 -0.22663556 -0.0099992063 0
-0.0071931672 -0.22667962 0.010000795 0
-0.0043985671 -0.22637528 -0.009999197 0
-0.0045777368 -0.22673255 0.010000804 0
-0.001739669 -0.22641259 -0.0099991877 0
-0.0013901409 -0.2266406 0.010000817 0
0.0016932255 -0.22617869 -0.0099991756 0
0.0015314354 -0.22670507 0.010000827 0
0.0049189804 -0.22645935 -0.0099991625 0
0.0046676639 -0.22660308 0.010000838 0
0.0073978752 -0.22645612 -0.0099991541 0
0.0073802415 -0.22653742 0.010000846 0
0.010489292 -0.22609131 -0.0099991439 0
0.010292796 -0.22676654 0.010000859 0
0.013531654 -0.22659571 -0.0099991309 0
0.013354765 -0.226346 0.010000869 0
0.016601173 -0.22651885 -0.0099991206 0
0.016362781 -0.22707723 0.010000883 0
0.01964003 -0.22651237 -0.0099991076 0
0.019433456 -0.22654641 0.010000888 0
0.022438314 -0.22655083 -0.0099991001 0
0.022392986 -0.22657025 0.010000902 0
0.025527269 -0.22658651 -0.0099990861 0
0.025858687 -0.22654016 0.010000915 0
0.028443569 -0.22651131 -0.0099990759 0
0.028776346 -0.22621049 0.010000925 0
0.031313587 -0.22693105 -0.0099990666 0
0.031563271 -0.22697984 0.010000937 0
0.034187771 -0.22642754 -0.0099990545 0
0.034773856 -0.22626066 0.010000946 0
0.037723605 -0.22678585 -0.0099990405 0
0.037593167 -0.22651656 0.010000957 0
0.040201701 -0.22652671 -0.0099990368 0
0.040392518 -0.22656502 0.010000964 0
0.043596055 -0.22653627 -0.0099990228 0
0.043035962 -0.22635709 0.010000976 0
0.046459645 -0.22641823 -0.0099990107 0
0.04683584 -0.22635482 0.010000989 0
0.049351685 -0.22662489 -0.0099990014 0
0.049447212 -0.22679177 0.010001001 0
0.052434966 -0.22688404 -0.0099989893 0
0.052478354 -0.22656818 0.010001007 0
0.055343788 -0.22638044 -0.0099989809 0
0.05545269 -0.22655265 0.010001021 0
0.058412492 -0.22661076 -0.0099989688 0
0.058134191 -0.22661461 0.010001032 0
0.061441768 -0.22662546 -0.0099989548 0
0.061330259 -0.22663008 0.010001043 0
0.064457737 -0.226408 -0.0099989483 0
0.064439267 -0.22657283 0.010001055 0
0.067663014 -0.22662359 -0.0099989362 0
0.067807026 -0.22679795 0.010001069 0
0.070660219 -0.22646165 -0.009998926 0
0.070521377 -0.2266618 0.010001076 0
0.073910251 -0.22641529 -0.0099989139 0
0.073629819 -0.22647576 0.010001088 0
0.076549381 -0.22675957 -0.0099989027 0
0.076460563 -0.22655112 0.010001099 0
0.079584934 -0.22647555 -0.0099988934 0
0.079658441 -0.22670461 0.01000111 0
0.082463995 -0.2266508 -0.0099988813 0
0.082697734 -0.22660588 0.010001118 0
0.085336693 -0.2267475 -0.0099988692 0
0.085507996 -0.22690926 0.010001131 0
0.088304952 -0.22647335 -0.0099988608 0
0.088505119 -0.22670576 0.010001139 0
0.091595389 -0.22647998 -0.0099988496 0
0.091528408 -0.22651038 0.010001151 0
0.094453491 -0.22629954 -0.0099988393 0
0.094477393 -0.22640549 0.01000116 0
0.097369604 -0.22646336 -0.0099988272 0
0.09751153 -0.22649238 0.010001171 0
0.10058448 -0.22626224 -0.0099988161 0
0.10066827 -0.22626969 0.010001183 0
0.10337754 -0.22656241 -0.0099988058 0
0.10330364 -0.22656952 0.010001196 0
0.10665254 -0.22644521 -0.0099987928 0
0.10632379 -0.22643013 0.010001205 0
0.10960015 -0.22641355 -0.0099987844 0
0.10925036 -0.22642398 0.010001217 0
0.11245067 -0.22631364 -0.0099987742 0
0.11263258 -0.22683287 0.010001231 0
0.11548303 -0.22628359 -0.0099987611 0
0.11565962 -0.22645476 0.010001238 0
0.11859497 -0.226437 -0.0099987499 0
0.11853398 -0.22666501 0.010001251 0
0.12145983 -0.22660181 -0.0099987406 0
0.12143494 -0.22693577 0.010001263 0
0.12463256 -0.22626531 -0.0099987295 0
0.12446529 -0.22671525 0.010001272 0
0.12747721 -0.22661109 -0.0099987192 0
0.12751873 -0.22644496 0.010001283 0
0.12984166 -0.2268513 -0.009702649 0
0.13000008 -0.22654888 -0.0074540614 0
0.13000007 -0.22643119 -0.0045578969 0
0.13000005 -0.22645788 -0.001290863 0
0.13000005 -0.22640607 0.0015778118 0
0.13000001 -0.22661372 0.0047126715 0
0.13 -0.22613949 0.0073855822 0
0.12978551 -0.22629473 0.0097526927 0
-0.0098446961 -0.22367114 -0.0096872542 0
-0.0099999737 -0.22354792 -0.0074221166 0
-0.0099999839 -0.22345415 -0.0043072617 0
-0.0099999933 -0.22345896 -0.0016405133 0
-0.010000006 -0.22355066 0.0015256718 0
-0.010000017 -0.22351968 0.004412957 0
-0.010000028 -0.22360651 0.0075142309 0
-0.0096683269 -0.2236225 0.0098096244 0
-0.007332209 -0.22357307 -0.0099992193 0
-0.0073945844 -0.22368816 0.010000783 0
-0.0045128749 -0.22375962 -0.0099992082 0
-0.004545806 -0.22346959 0.010000793 0
-0.0016611046 -0.22352332 -0.0099991951 0
-0.0013438251 -0.22355989 0.010000805 0
0.0013118056 -0.2236025 -0.0099991867 0
0.0015322634 -0.22376521 0.010000815 0
0.0044404515 -0.22370072 -0.0099991737 0
0.0046397275 -0.22364166 0.010000828 0
0.0075046895 -0.22344767 -0.0099991634 0
0.0073846108 -0.22357245 0.010000835 0
0.010515629 -0.22317567 -0.0099991532 0
0.010365644 -0.22344871 0.010000844 0
0.013371496 -0.22348836 -0.009999142 0
0.013403821 -0.22389606 0.010000858 0
0.016272675 -0.22354293 -0.0099991309 0
0.016566494 -0.22367784 0.010000871 0
0.019638348 -0.22347066 -0.0099991206 0
0.019683775 -0.22331704 0.010000878 0
0.022307457 -0.22329867 -0.0099991104 0
0.022446828 -0.2232724 0.010000891 0
0.025487468 -0.2233226 -0.0099991001 0
0.025488649 -0.22366858 0.010000902 0
0.028543558 -0.22365142 -0.0099990843 0
0.02862424 -0.22348532 0.010000914 0
0.031683307 -0.22368601 -0.009999075 0
0.031364325 -0.22328362 0.010000924 0
0.034749307 -0.22332211 -0.0099990666 0
0.034423091 -0.2233967 0.010000933 0
0.037507582 -0.22397475 -0.0099990536 0
0.037725721 -0.22367856 0.010000945 0
0.040481042 -0.22371586 -0.0099990442 0
0.040392231 -0.22354998 0.010000955 0
0.043714743 -0.22364403 -0.0099990321 0
0.043488547 -0.22364859 0.010000968 0
0.046253122 -0.22356592 -0.0099990247 0
0.046035979 -0.22348198 0.010000978 0
0.049648736 -0.22311945 -0.0099990135 0
0.049397204 -0.22346497 0.01000099 0
0.052514751 -0.22337468 -0.0099990005 0
0.052562352 -0.2232818 0.010000999 0
0.055665199 -0.22352038 -0.0099989902 0
0.055568844 -0.22345421 0.010001012 0
0.058619216 -0.22332716 -0.00999898 0
0.058344472 -0.22355515 0.010001021 0
0.061748687 -0.22360681 -0.0099989688 0
0.061425891 -0.22358865 0.010001033 0
0.064621583 -0.22363162 -0.0099989586 0
0.064512834 -0.22320594 0.010001043 0
0.067336664 -0.22370555 -0.0099989465 0
0.067285433 -0.22361656 0.010001055 0
0.07060197 -0.22361189 -0.0099989343 0
0.070430487 -0.22336212 0.010001062 0
0.073173665 -0.22320956 -0.0099989278 0
0.073496968 -0.22364119 0.010001075 0
0.076542057 -0.2235824 -0.0099989148 0
0.076715209 -0.22336204 0.010001087 0
0.079306327 -0.22364567 -0.0099989036 0
0.079594597 -0.22365637 0.010001099 0
0.082767271 -0.22329722 -0.0099988906 0
0.082337253 -0.22353378 0.010001108 0
0.085516088 -0.22358109 -0.0099988794 0
0.085674912 -0.2236717 0.010001121 0
0.088357873 -0.22381982 -0.0099988701 0
0.088557161 -0.22322845 0.01000113 0
0.091732651 -0.22358084 -0.0099988589 0
0.091483392 -0.22323087 0.010001139 0
0.094568312 -0.22317664 -0.0099988515 0
0.094523743 -0.22348344 0.010001153 0
0.097378075 -0.22343172 -0.0099988366 0
0.097268142 -0.2234391 0.010001161 0
0.10028664 -0.22335523 -0.00999883 0
0.10052462 -0.22336587 0.010001174 0
0.10358471 -0.22344182 -0.0099988151 0
0.10338958 -0.22365287 0.010001184 0
0.10627494 -0.22332197 -0.0099988058 0
0.10651053 -0.22354142 0.010001196 0
0.10922085 -0.22353373 -0.0099987946 0
0.10964148 -0.22360469 0.010001208 0
0.11245697 -0.22345051 -0.0099987844 0
0.11233936 -0.22328617 0.010001215 0
0.11552301 -0.22361962 -0.0099987704 0
0.11554664 -0.22356981 0.010001228 0
0.11806763 -0.22340985 -0.0099987658 0
0.11860734 -0.22358842 0.010001238 0
0.12166024 -0.22346963 -0.0099987509 0
0.12144886 -0.22332701 0.010001249 0
0.12437695 -0.22381245 -0.0099987406 0
0.12445496 -0.22365631 0.010001259 0
0.12752756 -0.22375682 -0.0099987276 0
0.12730871 -0.22371072 0.010001273 0
0.12976034 -0.22361639 -0.0097658494 0
0.13000005 -0.22385609 -0.0078978809 0
0.13000007 -0.22372247 -0.0045775566 0
0.13000004 -0.22335383 -0.0017257925 0
0.13000005 -0.22334512 0.0013820025 0
0.13000001 -0.22340824 0.0046353452 0
0.13 -0.22385488 0.007261605 0
0.12974077 -0.22353111 0.0096511999 0
-0.0097812293 -0.22029322 -0.0097249746 0
-0.0099999756 -0.22036752 -0.0073276563 0
-0.0099999849 -0.22053459 -0.0044849785 0
-0.0099999942 -0.22052816 -0.0017578175 0
-0.010000006 -0.22078191 0.0016740308 0
-0.010000017 -0.2203415 0.004285661 0
-0.010000027 -0.22045882 0.0075631202 0
-0.0097369133 -0.22051726 0.0097686499 0
-0.0072399825 -0.22051375 -0.0099992268 0
-0.007511829 -0.22038242 0.010000771 0
-0.0048228037 -0.22067901 -0.0099992184 0
-0.0046432707 -0.2206195 0.010000781 0
-0.0015308582 -0.2205862 -0.0099992044 0
-0.0015441672 -0.22041693 0.01000079 0
0.0019562531 -0.22034103 -0.009999196 0
0.0014777659 -0.22074673 0.010000805 0
0.0043058167 -0.22065374 -0.0099991839 0
0.0044698608 -0.22053424 0.010000815 0
0.0074513396 -0.22034724 -0.0099991756 0
0.0079021975 -0.22039422 0.010000827 0
0.010454533 -0.2204182 -0.0098719522 0
0.010788449 -0.2199937 -0.0074288151 0
0.010569587 -0.21995048 -0.0045837676 0
0.010436618 -0.21991 -0.0015513946 0
0.010808839 -0.22003201 0.0012947863 0
0.010415929 -0.219937 0.0044288198 0
0.010642827 -0.21997947 0.0077262116 0
0.010392167 -0.22086973 0.0099327592 0
0.013640638 -0.22081275 -0.0098201204 0
0.01348247 -0.22020005 -0.0076635042 0
0.013532109 -0.22020006 -0.0043763933 0
0.01342478 -0.22020005 -0.0015307644 0
0.013037669 -0.22020005 0.0015057835 0
0.013268053 -0.22020003 0.0043912171 0
0.013598837 -0.22020003 0.0075039007 0
0.013462434 -0.22077972 0.0097292904 0
0.016337572 -0.22070004 -0.0097985845 0
0.016597675 -0.22020009 -0.007629686 0
0.016545147 -0.22020003 -0.0045818477 0
0.016438665 -0.22020005 -0.0014290151 0
0.016392883 -0.22020005 0.0014259884 0
0.016585406 -0.22020003 0.0046400763 0
0.016668081 -0.22020002 0.0074625793 0
0.01660368 -0.2207296 0.009717199 0
0.019630464 -0.22076529 -0.0097481124 0
0.019276923 -0.22020008 -0.0074465284 0
0.019345498 -0.22020008 -0.0045785033 0
0.019318327 -0.22020005 -0.0014953942 0
0.019595604 -0.22020005 0.0016168221 0
0.019441426 -0.22020003 0.0043438212 0
0.019410633 -0.22020003 0.007744336 0
0.019463891 -0.22071576 0.0097798137 0
0.022372482 -0.22081301 -0.0098763881 0
0.022256939 -0.22020008 -0.0076456848 0
0.022204071 -0.22020008 -0.0045379447 0
0.022413781 -0.22020005 -0.001505651 0
0.022294672 -0.22020005 0.0014384757 0
0.022400025 -0.22020005 0.0045947656 0
0.022367539 -0.22020002 0.0073384363 0
0.022586532 -0.22073378 0.0098501416 0
0.025568593 -0.22074598 -0.0098565398 0
0.02603006 -0.22020008 -0.0072961506 0
0.025742663 -0.22020006 -0.0043138727 0
0.02576109 -0.22020005 -0.0016115868 0
0.025376903 -0.22020003 0.00168536 0
0.025408193 -0.22020003 0.0043465164 0
0.025394239 -0.22020002 0.0074260016 0
0.025700837 -0.22098388 0.0098966667 0
0.028588321 -0.22080615 -0.0098330192 0
0.028279964 -0.22020008 -0.0073917429 0
0.028502366 -0.22020005 -0.0044760075 0
0.02848145 -0.22020005 -0.0017307795 0
0.028435221 -0.22020003 0.0017331991 0
0.028528642 -0.22020002 0.0047128992 0
0.027845493 -0.22020002 0.0073064589 0
0.028556768 -0.2209999 0.0098643433 0
0.031322967 -0.22086361 -0.0098941475 0
0.031414472 -0.22020008 -0.0077533368 0
0.03135895 -0.22020006 -0.0043388703 0
0.031565078 -0.22020005 -0.0014339628 0
0.031854015 -0.22020005 0.0011813246 0
0.031487677 -0.22020003 0.0044430178 0
0.031199459 -0.22020003 0.00765891 0
0.031510122 -0.22051938 0.0097610848 0
0.034385782 -0.2205866 -0.0098066209 0
0.034540113 -0.22020008 -0.0073298463 0
0.034749087 -0.22020006 -0.0046431595 0
0.034527611 -0.22020005 -0.0014302882 0
0.034548931 -0.22020005 0.0015402084 0
0.03427792 -0.22020003 0.0045429766 0
0.034140151 -0.22020002 0.0075267898 0
0.034472592 -0.22084686 0.0098250611 0
0.037520774 -0.22085615 -0.0098805847 0
0.037617341 -0.22020006 -0.0075448295 0
0.037737887 -0.22020006 -0.0045534982 0
0.037701905 -0.22020003 -0.0016373856 0
0.037582085 -0.22020005 0.0016281803 0
0.037256096 -0.22020003 0.0042511551 0
0.037338968 -0.22020002 0.0074435375 0
0.037336946 -0.22071348 0.0097663989 0
0.040620454 -0.22070821 -0.0098625021 0
0.040612143 -0.22020008 -0.007297589 0
0.040391088 -0.22020006 -0.0047200173 0
0.040530872 -0.22020005 -0.0016046321 0
0.040368859 -0.22020003 0.0018284044 0
0.040598545 -0.22020003 0.00461902 0
0.040526696 -0.22020002 0.007540179 0
0.040325202 -0.2205667 0.0096722869 0
0.043795116 -0.22101951 -0.0098606478 0
0.043500658 -0.22020008 -0.0076635354 0
0.043331932 -0.22020006 -0.0042720065 0
0.043785669 -0.22020005 -0.0014585886 0
0.043412935 -0.22020005 0.0015858698 0
0.043334343 -0.22020003 0.0045922212 0
0.043495771 -0.22020002 0.0073074498 0
0.043519415 -0.22086784 0.0098760035 0
0.046431389 -0.22063161 -0.0098112738 0
0.046465062 -0.22020008 -0.0071595097 0
0.046454556 -0.22020005 -0.0045420635 0
0.046132304 -0.22020005 -0.0017356975 0
0.046532024 -0.22020005 0.0013170247 0
0.0464442 -0.22020003 0.0046032812 0
0.046618152 -0.22020002 0.007523573 0
0.046482723 -0.22067717 0.0098483264 0
0.049782276 -0.22059946 -0.0097408965 0
0.049397312 -0.22020008 -0.0076013436 0
0.0498714 -0.22020008 -0.0047276947 0
0.049532324 -0.22020006 -0.0014719875 0
0.049751967 -0.22020003 0.0014595883 0
0.049709164 -0.22020005 0.0046751332 0
0.049481682 -0.22020002 0.007525289 0
0.049649909 -0.22060122 0.0097050648 0
0.052179538 -0.22069305 -0.0098512238 0
0.052486666 -0.22020008 -0.0075464966 0
0.052246787 -0.22020006 -0.0044775684 0
0.052558511 -0.22020006 -0.0016024048 0
0.052439988 -0.22020005 0.0012319174 0
0.052559838 -0.22020003 0.0046182889 0
0.052533615 -0.22020002 0.0077138562 0
0.052404314 -0.22057001 0.0097293817 0
0.055336311 -0.22069646 -0.0097554736 0
0.055591647 -0.22020008 -0.0072490331 0
0.05531165 -0.22020006 -0.0042181164 0
0.05527449 -0.22020005 -0.0017100134 0
0.05546356 -0.22020005 0.0016878997 0
0.055576142 -0.22020003 0.0048170113 0
0.055786017 -0.22020002 0.007274061 0
0.055499312 -0.22078906 0.0098064048 0
0.058493264 -0.22074898 -0.0098569365 0
0.058427557 -0.22020009 -0.0076347021 0
0.058361534 -0.22020008 -0.0045423666 0
0.058458492 -0.22020005 -0.0016682168 0
0.058105774 -0.22020003 0.0014839908 0
0.058332056 -0.22020003 0.0045874254 0
0.058567338 -0.22020002 0.0074285055 0
0.058154158 -0.22065212 0.0097180316 0
0.061795771 -0.22075152 -0.0098394221 0
0.0616249 -0.22020008 -0.0077752932 0
0.061587278 -0.22020006 -0.0042401408 0
0.061462048 -0.22020005 -0.0015330523 0
0.061551455 -0.22020003 0.0014635833 0
0.061636426 -0.22020003 0.0045549716 0
0.061859693 -0.22020002 0.0077053448 0
0.061646663 -0.22097449 0.0098804412 0
0.064546429 -0.22068194 -0.0097741559 0
0.064560093 -0.22020008 -0.0075582303 0
0.064250872 -0.22020006 -0.0044618514 0
0.064743914 -0.22020003 -0.0013116449 0
0.064872824 -0.22020005 0.0016378373 0
0.064596638 -0.22020005 0.0045029758 0
0.064567171 -0.22020002 0.0075845476 0
0.064586617 -0.22090006 0.0099287676 0
0.067353398 -0.22072156 -0.0098353326 0
0.06731566 -0.22020008 -0.0076430622 0
0.067392446 -0.22020005 -0.0045791524 0
0.067735299 -0.22020005 -0.0017509072 0
0.067142174 -0.22020005 0.0012536892 0
0.067592464 -0.22020003 0.0043570716 0
0.067709714 -0.22020002 0.0076958523 0
0.067415811 -0.22080417 0.009709822 0
0.070709161 -0.22092454 -0.0099211428 0
0.070396595 -0.22020008 -0.0071275118 0
0.070578292 -0.22020006 -0.0045786249 0
0.07054735 -0.22020005 -0.0014262822 0
0.070225999 -0.22020003 0.0014488914 0
0.07055217 -0.22020003 0.0044488003 0
0.070680663 -0.22020002 0.0074125766 0
0.070721388 -0.2207057 0.0098094707 0
0.073546544 -0.22066154 -0.0097605335 0
0.073432125 -0.22020008 -0.0075111883 0
0.073554493 -0.22020005 -0.0050209132 0
0.073301718 -0.22020005 -0.0017491351 0
0.073690206 -0.22020005 0.001374778 0
0.073589996 -0.22020005 0.0046893787 0
0.073264346 -0.22020002 0.0075669833 0
0.073721543 -0.22076847 0.0098008327 0
0.076397821 -0.22093759 -0.0099004311 0
0.076157004 -0.22020009 -0.0075090984 0
0.07612627 -0.22020008 -0.0042636641 0
0.076560125 -0.22020005 -0.0016083436 0
0.076597005 -0.22020006 0.0015068906 0
0.076617047 -0.22020005 0.0045792353 0
0.076410778 -0.22020003 0.0074866898 0
0.076412804 -0.2208356 0.0099009853 0
0.079309128 -0.2206317 -0.0096994387 0
0.079556182 -0.22020008 -0.0076406412 0
0.079758652 -0.22020006 -0.0047048507 0
0.079983748 -0.22020005 -0.0017926341 0
0.079488412 -0.22020005 0.0014601287 0
0.079531297 -0.22020003 0.0044653285 0
0.079411089 -0.22020002 0.0075309831 0
0.07958515 -0.22044018 0.009754532 0
0.082639389 -0.22074972 -0.0098557891 0
0.082260609 -0.22020008 -0.0076138303 0
0.082546324 -0.22020006 -0.0043123709 0
0.082572035 -0.22020005 -0.0015464684 0
0.08250536 -0.22020005 0.001704265 0
0.082474232 -0.22020003 0.0044674342 0
0.082444362 -0.22020003 0.0074629406 0
0.082747668 -0.22080591 0.0097873192 0
0.08508344 -0.22088049 -0.0099343695 0
0.085507587 -0.22020008 -0.0075617977 0
0.085523091 -0.22020006 -0.0044471929 0
0.085687391 -0.22020005 -0.0016006794 0
0.085364468 -0.22020005 0.0015104377 0
0.085538454 -0.22020002 0.0042440174 0
0.085309364 -0.22020002 0.0073255138 0
0.085629292 -0.22075793 0.0098777991 0
0.088778414 -0.2207126 -0.0097037731 0
0.088671841 -0.22020008 -0.0074485843 0
0.088676497 -0.22020006 -0.0046572946 0
0.088481992 -0.22020005 -0.0014812071 0
0.088308766 -0.22020005 0.0012941234 0
0.088077627 -0.22020002 0.0046503213 0
0.08883775 -0.22020002 0.0075516743 0
0.088741392 -0.22077525 0.0098936725 0
0.091284566 -0.22086437 -0.0097954376 0
0.091365986 -0.22020009 -0.007407906 0
0.091477826 -0.22020006 -0.0047333981 0
0.091610812 -0.22020005 -0.0012840546 0
0.091214314 -0.22020005 0.0017487138 0
0.091639854 -0.22020003 0.0045923372 0
0.091327742 -0.22020002 0.0072696512 0
0.09138862 -0.22082646 0.0098245693 0
0.094330162 -0.22079991 -0.009811108 0
0.094118066 -0.22020008 -0.0077179847 0
0.094232537 -0.22020005 -0.0048234775 0
0.094782054 -0.22020005 -0.0013296158 0
0.094651952 -0.22020005 0.0015599441 0
0.094533093 -0.22020003 0.0044121235 0
0.094345234 -0.22020002 0.0073995711 0
0.094596654 -0.22082745 0.0097914608 0
0.097681649 -0.22077733 -0.0098341508 0
0.097527079 -0.22020008 -0.0076086582 0
0.097504303 -0.22020006 -0.0045660385 0
0.097607881 -0.22020006 -0.0013649053 0
0.097305305 -0.22020003 0.001370315 0
0.097859368 -0.22020005 0.0045628836 0
0.097647488 -0.22020002 0.0078224503 0
0.097542651 -0.22063944 0.0097978814 0
0.10047728 -0.22103827 -0.0099586332 0
0.1004231 -0.22020008 -0.0074915015 0
0.10071634 -0.22020006 -0.0047630202 0
0.10060316 -0.22020006 -0.0016305972 0
0.10058421 -0.2202 0.0014256052 0
0.10085672 -0.22020005 0.0044442741 0
0.1005963 -0.2202 0.0077183195 0
0.10025852 -0.22076908 0.0098394053 0
0.10344329 -0.22114071 -0.0099360524 0
0.10364671 -0.22020008 -0.007450622 0
0.10344463 -0.22020006 -0.0046616714 0
0.10347819 -0.22020003 -0.0011394422 0
0.10340624 -0.22020005 0.0017215563 0
0.10317946 -0.22020003 0.0043481942 0
0.10348392 -0.2202 0.0074021085 0
0.10340155 -0.22077674 0.009836711 0
0.10623556 -0.22056229 -0.0097977985 0
0.10662474 -0.22020008 -0.0073666442 0
0.10649789 -0.22020006 -0.0046040141 0
0.10626674 -0.22020005 -0.0013581619 0
0.10656808 -0.22020006 0.0012834406 0
0.1065003 -0.22020003 0.0044294554 0
0.10644182 -0.22020002 0.0077707656 0
0.10624241 -0.22066171 0.0097643686 0
0.1093885 -0.22061908 -0.0098892087 0
0.10944194 -0.21994834 -0.007451741 0
0.10933814 -0.22005105 -0.0045478637 0
0.10956114 -0.21994223 -0.0014475215 0
0.10952924 -0.21995193 0.0013996656 0
0.10913961 -0.22009611 0.0045355218 0
0.1094447 -0.22001782 0.0076677273 0
0.10934293 -0.22053851 0.0098243067 0
0.11237634 -0.22038394 -0.0099987965 0
0.11233933 -0.22022107 0.010001203 0
0.11546147 -0.22043088 -0.0099987835 0
0.11533501 -0.22061917 0.010001215 0
0.11832235 -0.22053482 -0.0099987714 0
0.11873521 -0.22036655 0.010001229 0
0.12139758 -0.22036801 -0.009998762 0
0.12161794 -0.2201255 0.010001238 0
0.12466538 -0.22019956 -0.0099987499 0
0.12417822 -0.2202525 0.010001248 0
0.12727989 -0.22035064 -0.0099987388 0
0.12757491 -0.22048113 0.010001262 0
0.12979379 -0.22056055 -0.0097992532 0
0.13000008 -0.22043996 -0.007193129 0
0.13000005 -0.2203763 -0.0041617649 0
0.13000004 -0.22034228 -0.0014074706 0
0.13000004 -0.22052066 0.0013575963 0
0.13000003 -0.22060686 0.0044852318 0
