# .PCD v0.7 - Point Cloud Data file format
VERSION 0.7
FIELDS x y z rgb
SIZE 4 4 4 4
TYPE F F F F
COUNT 1 1 1 1
WIDTH 1166
HEIGHT 1
VIEWPOINT 0 0 0 1 0 0 0
POINTS 1166
DATA ascii
0.085257217 -0.17235945 -0.0099990666 0
0.085440174 -0.17263673 0.010000931 0
0.088433094 -0.17244792 -0.0099990517 0
0.088576458 -0.17253476 0.010000942 0
0.090000056 -0.17278278 -0.0095837871 0
0.090000004 -0.17245916 -0.0075428262 0
0.089999989 -0.17247857 -0.0043674861 0
0.089999996 -0.17255542 -0.0016957951 0
0.089999981 -0.17278461 0.001650826 0
0.089999974 -0.17256574 0.0046883323 0
0.089999944 -0.17256057 0.0075250249 0
0.089999981 -0.17247528 0.009407646 0
-0.0053472831 -0.1696537 -0.005068101 0
-0.005999994 -0.1695796 -0.0013347869 0
-0.0060000066 -0.16949497 0.0014508221 0
-0.0060000154 -0.16938481 0.0046424633 0
-0.0045370422 -0.16941507 0.0060005956 0
-0.0013849871 -0.16958648 -0.005999391 0
-0.0013275445 -0.16964372 0.0060006091 0
0.0014098793 -0.16958016 -0.0059993798 0
0.0012383336 -0.17007945 0.0060006198 0
0.0010953227 -0.16952506 0.0060006166 0
0.0046661007 -0.16944669 -0.0059276088 0
0.0049831513 -0.16956981 0.0060006315 0
0.0042918078 -0.16951817 0.0060006287 0
0.0060000145 -0.16964068 -0.0043706731 0
0.0060000042 -0.16954024 -0.001542497 0
0.0059999931 -0.16973981 0.0015465777 0
0.0059999824 -0.16941659 0.0044424962 0
0.080341145 -0.16938658 -0.0098389573 0
0.080000013 -0.16956222 -0.0076103108 0
0.080000006 -0.16933201 -0.0046634004 0
0.079999983 -0.16947052 -0.001413142 0
0.079999961 -0.16959108 0.0013733904 0
0.079999954 -0.1694763 0.0043693511 0
0.079999954 -0.16940692 0.0075271367 0
0.080252349 -0.16916709 0.0098068779 0
0.082316883 -0.16966066 -0.0099990852 0
0.082500547 -0.16944833 0.01000091 0
0.085674323 -0.16924682 -0.0099990731 0
0.085535042 -0.16942735 0.010000921 0
0.088629745 -0.1696211 -0.0099990638 0
0.088588424 -0.16942418 0.01000093 0
0.090000048 -0.16977383 -0.0095660994 0
0.090000004 -0.16951352 -0.007325009 0
0.090000004 -0.16971886 -0.0045972117 0
0.089999981 -0.16959262 -0.0012722603 0
0.089999966 -0.16952614 0.0014597477 0
0.089999959 -0.16966039 0.0044577075 0
0.089999944 -0.16971236 0.0076462384 0
0.089999981 -0.16901958 0.0095254192 0
-0.0059999959 -0.16793194 -0.0013236244 0
-0.0054366281 -0.16638325 -0.0052852943 0
-0.0059999935 -0.16642797 -0.0014422203 0
-0.0060000047 -0.16616049 0.0015303589 0
-0.0060000145 -0.16673094 0.0045131384 0
-0.0044552931 -0.16663256 0.0060005863 0
-0.0014375001 -0.16645196 -0.0059994017 0
-0.0016911642 -0.16653007 0.0060005956 0
0.0015989783 -0.16639161 -0.0059993905 0
0.0018381729 -0.16515145 0.006000604 0
0.0014691382 -0.16642275 0.0060006063 0
0.0044362461 -0.16640252 -0.0059648035 0
0.0060000042 -0.1656701 -0.0013127901 0
0.0038338022 -0.16669005 0.0060006171 0
0.0045822426 -0.16678104 0.0060006194 0
0.006000015 -0.16647352 -0.0044836793 0
0.0060000033 -0.16643485 -0.0013395221 0
0.0059999931 -0.16629989 0.0014291268 0
0.0059999828 -0.16648112 0.0044271513 0
0.080195986 -0.16634949 -0.0096462164 0
0.080000013 -0.16662438 -0.0074488181 0
0.080000006 -0.16651605 -0.0048008747 0
0.079999991 -0.16642897 -0.0013317507 0
0.079999976 -0.16661105 0.0016393547 0
0.079999954 -0.16664326 0.0045366017 0
0.079999946 -0.16639896 0.0074880323 0
0.080283932 -0.1661865 0.0097062699 0
0.082439363 -0.16639312 -0.0099990992 0
0.082479469 -0.16644038 0.010000898 0
0.085477084 -0.16668256 -0.0099990843 0
0.085514292 -0.16658069 0.010000909 0
0.088450216 -0.16618106 -0.0099990759 0
0.088263489 -0.16628671 0.010000917 0
0.090000063 -0.16658743 -0.0094616404 0
0.090000018 -0.16634518 -0.0074095526 0
0.089999996 -0.16660185 -0.0046822838 0
0.089999989 -0.16643472 -0.0014225466 0
0.089999959 -0.16642316 0.0013919716 0
0.089999959 -0.16640718 0.0046143602 0
0.089999951 -0.16653728 0.0074219955 0
0.089999974 -0.16658251 0.0095033953 0
-0.0060000014 -0.16219907 0.00028162697 0
-0.0052802251 -0.16339689 -0.005228838 0
-0.0059999926 -0.16345802 -0.0016181364 0
-0.0060000033 -0.16356026 0.0013404218 0
-0.006000015 -0.16322818 0.0045192451 0
-0.0046215486 -0.16354108 0.0060005747 0
-0.0012327044 -0.16349195 -0.0059994115 0
-0.00081477716 -0.16490756 0.0060005938 0
-0.0013124848 -0.16351023 0.0060005859 0
0.0024169635 -0.16287906 -0.0059994021 0
0.0015793127 -0.16352125 -0.0059994021 0
0.0012882246 -0.16353254 0.0060005952 0
0.0045163492 -0.16319151 -0.0059622978 0
0.0060000001 -0.16369873 -0.00017906413 0
0.0046316115 -0.16334933 0.0060006068 0
0.0060000145 -0.16341238 -0.0043910951 0
0.0060000047 -0.16376282 -0.0016508797 0
0.0059999931 -0.16360137 0.0015642029 0
0.0059999824 -0.16336054 0.0044717714 0
0.080212928 -0.16345963 -0.009756878 0
0.080000006 -0.16347812 -0.0075312527 0
0.079999998 -0.16343659 -0.0046643158 0
0.079999976 -0.16351111 -0.001278277 0
0.079999961 -0.16346508 0.0013340366 0
0.079999991 -0.16351081 0.0046641007 0
0.079999946 -0.1636562 0.0076261726 0
0.080292456 -0.16351202 0.0097611537 0
0.08268021 -0.16354313 -0.0099991066 0
0.082604572 -0.16358083 0.010000888 0
0.085279413 -0.16352008 -0.0099990955 0
0.085410476 -0.16357766 0.010000897 0
0.088352501 -0.16373688 -0.0099990899 0
0.088620551 -0.16353996 0.01000091 0
0.090000056 -0.16333 -0.0094080623 0
0.089999996 -0.16327319 -0.0074541797 0
0.089999996 -0.16362543 -0.0043938938 0
0.089999989 -0.16351162 -0.0018086402 0
0.089999966 -0.1636439 0.0015149767 0
0.089999974 -0.16343088 0.0043672011 0
0.089999959 -0.16349769 0.0075382288 0
0.089999974 -0.16291372 0.0095645711 0
-0.0051434455 -0.16052854 -0.0052315225 0
-0.0059999959 -0.16050345 -0.0013092938 0
-0.0060000028 -0.16041575 0.0012093183 0
-0.0060000154 -0.16049188 0.0044170632 0
-0.0045080106 -0.16061908 0.006000564 0
-0.0011878448 -0.16138598 -0.0059994203 0
-0.0013986354 -0.1605977 -0.0059994226 0
-0.0015517161 -0.16054472 0.0060005742 0
0.0014875495 -0.16065626 -0.0059994115 0
0.0016611571 -0.16040507 0.0060005854 0
0.0045241467 -0.16070397 -0.0059994017 0
0.0059999959 -0.15958416 0.0010663817 0
0.0034327738 -0.16020086 0.0060005919 0
0.0043756985 -0.16086979 0.0060005975 0
0.0060000154 -0.16045839 -0.0046182475 0
0.0060000042 -0.1604351 -0.0016389795 0
0.0059999931 -0.16074468 0.00150685 0
0.0059999819 -0.16048667 0.0044625583 0
0.080419451 -0.1610247 -0.009848658 0
0.080179557 -0.16087186 -0.0076526804 0
0.080336697 -0.16053818 -0.0044961665 0
0.080254294 -0.16072957 -0.0016000846 0
0.080146536 -0.16074769 0.0015877786 0
0.080213092 -0.16080576 0.0046224864 0
0.080221333 -0.16083029 0.007413106 0
0.080241315 -0.16075495 0.009708426 0
0.082314543 -0.16085155 -0.0098454515 0
0.082593106 -0.16020012 -0.0075284243 0
0.082578719 -0.1602001 -0.0045245574 0
0.082558602 -0.16020007 -0.0015636415 0
0.082159154 -0.16020009 0.0014940642 0
0.082563154 -0.16020006 0.0046186224 0
0.082561813 -0.16020004 0.0072783749 0
0.082506932 -0.16066553 0.0097441077 0
0.085177653 -0.16081038 -0.009816831 0
0.085431866 -0.16020012 -0.0076923077 0
0.085351937 -0.1602001 -0.0043388964 0
0.085485227 -0.16020009 -0.0014359141 0
0.085645556 -0.16020007 0.0016081532 0
0.085567646 -0.16020006 0.0045187646 0
0.085630357 -0.16020004 0.0076308683 0
0.085467622 -0.1607559 0.0097930664 0
0.088267878 -0.16077314 -0.0097999349 0
0.088581339 -0.1602001 -0.0075694956 0
0.088572115 -0.1602001 -0.0045639127 0
0.088722065 -0.16020009 -0.0012749395 0
0.088482872 -0.16020007 0.0016542914 0
0.088519976 -0.16020007 0.0047397274 0
0.088560805 -0.16020004 0.0076627498 0
0.088615187 -0.16058047 0.0097389463 0
0.090000056 -0.16093968 -0.0094227558 0
0.090000056 -0.16111667 -0.0076851919 0
0.090000018 -0.16116379 -0.0043789172 0
0.090000026 -0.16117401 -0.0014517683 0
0.090000011 -0.16105944 0.0016603607 0
0.089999989 -0.16113782 0.0044767382 0
0.089999981 -0.16096418 0.0076078176 0
0.089999981 -0.16110227 0.0096054506 0
-0.0059999945 -0.15770578 -0.0017008649 0
-0.0060000014 -0.15778214 0.00026882507 0
-0.0052862959 -0.15766928 -0.0051705074 0
-0.0059999945 -0.15731345 -0.0016257566 0
-0.0060000056 -0.15771346 0.0015892566 0
-0.0060000145 -0.15742762 0.0043409849 0
-0.004771926 -0.15762657 0.0060005533 0
-0.0018024368 -0.15765689 -0.0059994343 0
-0.001323826 -0.15757827 0.006000564 0
0.00044541148 -0.1576122 -0.0059994287 0
0.0015108574 -0.15754879 -0.0059994226 0
0.0021844406 -0.15748025 0.0060005775 0
0.0013418626 -0.15755095 0.0060005737 0
0.0046472512 -0.15757637 -0.0059994115 0
0.0060000024 -0.15730533 -0.00070844125 0
0.0059999921 -0.15692797 0.002014708 0
0.0044824663 -0.1574038 0.0060005849 0
0.0060000164 -0.15745708 -0.0044559855 0
0.0060000038 -0.15745632 -0.0015575842 0
0.0059999931 -0.15768325 0.0015494612 0
0.0059999824 -0.15746443 0.0044828174 0
-0.0059999935 -0.15328938 -0.0019195478 0
-0.0053785425 -0.15448007 -0.0052215783 0
-0.0059999935 -0.15465112 -0.001436298 0
-0.0060000033 -0.15452805 0.0013364948 0
-0.0060000154 -0.15468967 0.0046468447 0
-0.0044458597 -0.15443 0.0060005425 0
-0.0017872207 -0.1543102 -0.0059994464 0
-0.0013974645 -0.15473479 0.0060005547 0
-0.0014242618 -0.15442169 0.0060005523 0
0.0012391884 -0.15457056 -0.0059994343 0
0.0015151983 -0.15453316 0.0060005635 0
0.0044110687 -0.15458804 -0.0059994231 0
0.0060000056 -0.15382084 -0.0016187716 0
0.0033233829 -0.15453216 0.006000571 0
0.0047494448 -0.15454419 0.0060005751 0
0.0060000154 -0.15470733 -0.0043519186 0
0.0060000056 -0.15462227 -0.0016239388 0
0.005999994 -0.1545154 0.001467879 0
0.0059999824 -0.15480088 0.0045599272 0
-0.0052413815 -0.15147264 -0.0053362632 0
-0.0059999935 -0.15150201 -0.0014080898 0
-0.0060000052 -0.15140912 0.0015769536 0
-0.0060000159 -0.151683 0.0047966805 0
-0.0042539886 -0.15130275 0.0060005314 0
-0.0017200524 -0.1516221 -0.0059994562 0
-0.0015005013 -0.15146351 0.0060005412 0
0.0015358446 -0.15145062 -0.005999445 0
0.002288874 -0.15203343 0.0060005584 0
0.0012725074 -0.15149029 0.0060005547 0
0.0044471067 -0.15142797 -0.0059994343 0
0.006000008 -0.15096818 -0.0023113447 0
0.0048242286 -0.151381 0.0060005663 0
0.0060000145 -0.15126669 -0.0044214781 0
0.0060000042 -0.15145187 -0.001479217 0
0.0059999935 -0.15164053 0.0013638129 0
0.0059999819 -0.15144978 0.0046586758 0
-0.0051721041 -0.14860235 -0.0053765769 0
-0.0059999926 -0.14858325 -0.001704318 0
-0.0060000042 -0.14860003 0.0015433321 0
-0.0060000154 -0.1485808 0.0045674075 0
-0.004698026 -0.14824174 0.0060005179 0
-0.0014765041 -0.14850214 -0.0059994664 0
-0.0013393693 -0.14996789 0.0060005379 0
-0.0016630617 -0.14851615 0.0060005304 0
0.0014269946 -0.14847533 -0.0059994562 0
0.0025989574 -0.14853227 0.0060005467 0
0.0015817385 -0.14819711 0.0060005407 0
0.0043575601 -0.14866734 -0.0059994445 0
0.0059999945 -0.14703907 0.0014678751 0
0.0030862915 -0.14989682 0.0060005533 0
0.0043247747 -0.14831585 0.0060005519 0
0.006000015 -0.14832126 -0.004451612 0
0.0060000028 -0.1481576 -0.0011166768 0
0.005999994 -0.14843659 0.001421517 0
0.0059999824 -0.14832516 0.004456732 0
-0.0050845416 -0.14552791 -0.0054309247 0
-0.0059999931 -0.14532831 -0.0015795557 0
-0.0060000038 -0.14565642 0.001420943 0
-0.006000015 -0.14560349 0.0046131499 0
-0.0046074311 -0.14523213 0.0060005076 0
-0.0015323843 -0.145585 -0.0059994766 0
-0.0014519704 -0.14559519 0.0060005216 0
0.0015437201 -0.14549164 -0.0059994664 0
0.0015893313 -0.14547363 0.0060005309 0
0.0043738945 -0.1454529 -0.0059994562 0
0.0059999926 -0.14503549 0.0019934331 0
0.0044525079 -0.1456068 0.0060005416 0
0.006000014 -0.14542465 -0.004372735 0
0.0060000052 -0.14537774 -0.0016100623 0
0.005999994 -0.14518645 0.0013048953 0
0.0059999833 -0.14549062 0.0043018986 0
-0.005162417 -0.14247712 -0.0054000481 0
-0.0059999931 -0.1426121 -0.00155778 0
-0.0060000042 -0.14241898 0.0015314086 0
-0.0060000191 -0.14266323 0.004525268 0
-0.0044674985 -0.1425806 0.0060004983 0
-0.0014939563 -0.14255324 -0.0059994878 0
-0.0015147838 -0.14244278 0.0060005086 0
0.0016169277 -0.14251211 -0.0059994794 0
0.001541917 -0.14247823 0.0060005202 0
0.0044572665 -0.14228827 -0.0059994692 0
0.004656475 -0.14261983 0.0060005314 0
0.0060000173 -0.14253224 -0.0046735024 0
0.0060000038 -0.14276074 -0.0014049303 0
0.005999994 -0.14241791 0.0014970758 0
0.0059999838 -0.14278947 0.00442944 0
-0.0052604466 -0.1394809 -0.0053188866 0
-0.0059999935 -0.13925686 -0.0013801279 0
-0.0060000056 -0.13944435 0.0013751016 0
-0.0060000136 -0.13929172 0.0041535855 0
-0.0045326361 -0.13960144 0.0060004885 0
-6.117153e-05 -0.14030893 -0.0059994925 0
-0.0014270269 -0.13956276 -0.0059994995 0
-0.0014754052 -0.13965182 0.0060004992 0
0.0012121801 -0.13958231 -0.0059994892 0
0.0017103368 -0.14072219 0.0060005151 0
0.0013161151 -0.13961777 0.0060005086 0
0.0046484969 -0.13958843 -0.0059994766 0
0.0059999959 -0.13973266 0.0010909247 0
0.0059999856 -0.13900401 0.0038811844 0
0.0044621611 -0.13967444 0.0060005207 0
0.0060000164 -0.13971017 -0.0048543713 0
0.0060000033 -0.13929923 -0.0013050934 0
0.0059999931 -0.13949583 0.0015448753 0
0.0059999819 -0.13952196 0.0046158074 0
-0.0060000056 -0.13662535 0.001394607 0
-0.0053278785 -0.13644364 -0.0051235901 0
-0.0059999949 -0.13658985 -0.0015839003 0
-0.0060000042 -0.13647816 0.0014348656 0
-0.0059483163 -0.1364675 0.0046972511 0
-0.0043616937 -0.13653086 0.0060004769 0
-0.0014474792 -0.13673247 -0.0059995097 0
-0.0018579365 -0.13641517 0.0060004853 0
0.0015928906 -0.13639554 -0.0059995004 0
0.0013983346 -0.13639538 0.0060004983 0
0.004479201 -0.13660552 -0.0059994897 0
0.0060000038 -0.13664877 -0.0011962617 0
0.0059999921 -0.13522798 0.0020535786 0
0.0059999833 -0.13621826 0.0044625094 0
0.0044752145 -0.13644016 0.006000509 0
0.0060000154 -0.13669264 -0.00454727 0
0.0060000038 -0.13640776 -0.0013912861 0
0.0059999931 -0.13658307 0.001584542 0
0.0059999842 -0.13660941 0.0044614817 0
-0.0060000014 -0.13467136 0.00020510575 0
-0.005302791 -0.13344316 -0.0052769193 0
-0.0059999949 -0.13362519 -0.0015085334 0
-0.0060000042 -0.13357629 0.0015085855 0
-0.0059808684 -0.13356057 0.004340379 0
-0.0045170048 -0.13330641 0.0060004648 0
-0.0018273467 -0.13369381 -0.0059995227 0
-0.0014614592 -0.13413522 0.0060004801 0
-0.0015906869 -0.13327384 0.0060004755 0
0.0011996275 -0.13342793 -0.0059995116 0
0.0011404926 -0.13282575 0.0060004848 0
0.001561402 -0.13349815 0.0060004871 0
0.0046773809 -0.13360941 -0.0059994985 0
0.0059999945 -0.13230295 0.00141641 0
0.0059999861 -0.13327903 0.0037748904 0
0.0040176567 -0.13366312 0.0060004988 0
0.006000015 -0.13378203 -0.0044724545 0
0.0060000042 -0.13332719 -0.0014840969 0
0.0059999926 -0.13380182 0.0016240554 0
0.0059999828 -0.13355531 0.0046371385 0
-0.0054062163 -0.13043243 -0.0052794856 0
-0.0059999935 -0.13062169 -0.0013649198 0
-0.0060000047 -0.1305536 0.0017149565 0
-0.0058968957 -0.13045804 0.0044262726 0
-0.0043260534 -0.1303445 0.006000455 0
-0.0022089097 -0.13023183 -0.0059995372 0
-0.001557349 -0.13083757 -0.0059995311 0
-0.0015384321 -0.13042109 0.0060004648 0
0.0015438029 -0.13056946 -0.0059995204 0
0.0012035905 -0.13057217 0.0060004755 0
0.004541365 -0.13053083 -0.0059995106 0
0.006000001 -0.1318973 -0.00038021617 0
0.0059999819 -0.1298705 0.0049268147 0
0.0046667717 -0.13045636 0.0060004876 0
0.0060000145 -0.13058142 -0.004422924 0
0.0060000042 -0.13061778 -0.0015673229 0
0.0059999931 -0.13042264 0.0014860064 0
0.0059999842 -0.13077135 0.0042906357 0
-0.005278599 -0.12773433 -0.0051723784 0
-0.0059999935 -0.12721261 -0.0016150819 0
-0.0060000042 -0.12745446 0.0012770302 0
-0.0060000154 -0.1275993 0.004680723 0
-0.0041318042 -0.1276859 0.0060004466 0
-0.0014374434 -0.12757097 -0.0059995437 0
-0.0014159537 -0.12763861 -0.0059995432 0
-0.0014862849 -0.12746577 0.006000455 0
0.0015907503 -0.12749264 -0.0059995316 0
0.0016903089 -0.12741807 0.0060004662 0
0.0045814277 -0.12758672 -0.00599952 0
0.0059999973 -0.12756976 0.0008038216 0
0.005999981 -0.12737118 0.0051463116 0
0.0044319602 -0.12770776 0.0060004783 0
0.0060000168 -0.12767988 -0.0044706939 0
0.0060000038 -0.12733176 -0.0014725976 0
0.0059999963 -0.12737265 0.0013728336 0
0.0059999828 -0.12753646 0.0043475912 0
-0.006000015 -0.12405226 0.0040385965 0
-0.0050196298 -0.12304251 -0.005999573 0
-0.0052683423 -0.12447697 -0.0052205515 0
-0.0059999954 -0.12448129 -0.0013945027 0
-0.0060000066 -0.12456017 0.00143568 0
-0.0058616861 -0.1245269 0.0046801381 0
-0.004808268 -0.12469451 0.0060004331 0
-0.0020116647 -0.12443128 -0.0059995577 0
-0.001677518 -0.12461757 -0.0059995535 0
-0.0015243099 -0.12459481 0.0060004471 0
0.0013812672 -0.12462617 -0.0059995423 0
0.001343497 -0.12442662 0.0060004536 0
0.0046735662 -0.1245351 -0.0059995321 0
0.0044720531 -0.12447778 0.0060004657 0
0.0060000154 -0.12474938 -0.0045665754 0
0.0060000042 -0.12463365 -0.0013409187 0
0.0059999949 -0.12431359 0.0011892683 0
0.0059999833 -0.12434763 0.004635389 0
-0.0059999991 -0.12259203 -0.00034758454 0
-0.0060000098 -0.12130417 0.0025144771 0
-0.006000015 -0.12129769 0.0040212576 0
-0.0035538201 -0.12039227 -0.0059995777 0
-0.0053720791 -0.1214746 -0.0051030968 0
-0.0059999949 -0.12150368 -0.001493934 0
-0.0060000033 -0.12139593 0.0012943922 0
-0.0058508832 -0.1214875 0.0043142722 0
-0.0044350764 -0.12158721 0.0060004243 0
-0.0018217649 -0.12119398 -0.0059995684 0
-0.0014642297 -0.12165339 -0.0059995633 0
-0.0022675393 -0.12104534 0.0060004294 0
-0.0015314595 -0.12145819 0.0060004322 0
0.0002794363 -0.12270844 -0.0059995553 0
0.0013251142 -0.12161306 -0.0059995539 0
0.0016250381 -0.12152169 0.0060004485 0
0.004579837 -0.12149797 -0.0059995423 0
0.0059999903 -0.12113278 0.0025894423 0
0.0059999824 -0.12146997 0.0048022158 0
0.0047407891 -0.12165183 0.0060004564 0
0.0060000154 -0.12151238 -0.0045755152 0
0.0060000038 -0.12158757 -0.0015113944 0
0.0059999931 -0.12142269 0.0015473106 0
0.0059999833 -0.12143186 0.0045507606 0
-0.0060000103 -0.11896249 0.0026767917 0
-0.0060000177 -0.11922856 0.0048184707 0
-0.0039496222 -0.1199771 -0.0059995805 0
-0.0053247404 -0.11833077 -0.0053650793 0
-0.0059999935 -0.11841689 -0.0017639546 0
-0.0060000038 -0.11849333 0.0014909243 0
-0.0059707002 -0.11841373 0.0044063451 0
-0.0045517953 -0.11855581 0.0060004117 0
-0.0012687058 -0.11842198 -0.0059995744 0
-0.0021054314 -0.11772638 0.0060004182 0
-0.0013451716 -0.1187467 0.0060004271 0
0.0015811683 -0.11851897 -0.0059995642 0
0.0015116702 -0.11872519 0.006000434 0
0.0045443396 -0.11869124 -0.0059995521 0
0.0059999898 -0.11985073 0.0027515166 0
0.0059999838 -0.11891393 0.0045442847 0
0.0044838781 -0.11829629 0.0060004438 0
0.0060000159 -0.11849953 -0.0044309902 0
0.0060000075 -0.11851396 -0.0016549631 0
0.0059999926 -0.11854598 0.0016613082 0
0.0059999819 -0.11861877 0.0045947987 0
-0.0060000094 -0.1140312 0.002415237 0
-0.0060000126 -0.11590491 0.0033085865 0
-0.0043222513 -0.11567007 -0.0059995977 0
-0.0053598383 -0.11555792 -0.0051385029 0
-0.0059999945 -0.11555436 -0.0015878354 0
-0.0060000047 -0.11558262 0.0016276407 0
-0.0060000159 -0.11532121 0.0047627026 0
-0.0045428406 -0.11540858 0.0060004001 0
-0.0014920225 -0.11519279 -0.0059995893 0
-0.0014931656 -0.11550133 -0.0059995861 0
-0.0019354009 -0.11562552 0.0060004112 0
-0.0014032492 -0.11552799 0.0060004112 0
0.0017639492 -0.11543781 -0.005999574 0
0.0013716407 -0.11548382 0.0060004224 0
0.0043617273 -0.11569148 -0.0059995637 0
0.0059999889 -0.11522505 0.0029794336 0
0.0059999865 -0.11575449 0.0035428654 0
0.0044616847 -0.11558465 0.0060004336 0
0.006000015 -0.11544281 -0.0044879201 0
0.0060000061 -0.11564126 -0.0017557143 0
0.0059999949 -0.11542482 0.0015308772 0
0.0059999833 -0.11552174 0.0042201825 0
-0.0060000042 -0.11256267 0.0010521332 0
-0.0060000173 -0.11157087 0.0046605002 0
-0.0050193169 -0.11305542 -0.0059996094 0
-0.0054131332 -0.11250804 -0.0051428098 0
-0.0059999926 -0.11255971 -0.0016805808 0
-0.0060000033 -0.1124916 0.0013229669 0
-0.0060000154 -0.11238675 0.0045799692 0
-0.0044663739 -0.11244489 0.0060003893 0
-0.0012079189 -0.11234073 -0.0059995963 0
-0.0014808027 -0.11244516 0.0060004019 0
1.1134145e-05 -0.11178212 -0.0059995959 0
0.0015862859 -0.11228937 -0.0059995865 0
0.0015228793 -0.11246279 0.0060004112 0
0.0046033137 -0.11258999 -0.0059995744 0
0.0059999903 -0.11214424 0.0026204723 0
0.0059999833 -0.1135793 0.0045352713 0
0.0043398114 -0.11239453 0.0060004215 0
0.0060000145 -0.11257595 -0.0044005057 0
0.0060000038 -0.11262238 -0.0013989887 0
0.005999994 -0.11234959 0.0013924218 0
0.0059999838 -0.11243866 0.004420775 0
-0.006000008 -0.11013464 0.0020969007 0
-0.0060000196 -0.11038332 0.0053289221 0
-0.0051471274 -0.10961203 -0.0059996224 0
-0.0053361175 -0.10949033 -0.0050799772 0
-0.005999994 -0.10941242 -0.0013335607 0
-0.0060000038 -0.10957272 0.0014448682 0
-0.0059001478 -0.10942183 0.004623184 0
-0.0045261956 -0.10936446 0.0060003782 0
-0.0023010375 -0.1107499 -0.005999608 0
-0.0014680496 -0.10959455 -0.0059996075 0
-0.0026917129 -0.10975616 0.006000387 0
-0.0014946776 -0.10918577 0.0060003884 0
0.0017547833 -0.10960329 -0.0059995949 0
0.0016011379 -0.10943621 0.0060004001 0
0.0043607722 -0.10934995 -0.005999587 0
0.0059999842 -0.10989703 0.0042312699 0
0.0045842957 -0.10931683 0.0060004112 0
0.0060000182 -0.10946689 -0.0045694937 0
0.0060000038 -0.1093681 -0.0014469777 0
0.0059999935 -0.10942508 0.0014172898 0
0.0059999824 -0.10931277 0.0045018005 0
-0.0060000061 -0.10712158 0.0014998128 0
-0.0060000196 -0.1069208 0.0052214721 0
-0.0043873442 -0.10650145 -0.0059996308 0
-0.0052820053 -0.10644354 -0.0052954536 0
-0.0059999931 -0.10637335 -0.0017519428 0
-0.0060000042 -0.10647547 0.0015697051 0
-0.0058864765 -0.10667686 0.004675406 0
-0.0041966117 -0.10646266 0.0060003684 0
-0.0016106945 -0.10518865 -0.0059996257 0
-0.0017488977 -0.10679566 -0.0059996191 0
-0.0022893136 -0.10751652 0.0060003805 0
-0.0014461321 -0.10638979 0.0060003786 0
0.0011796292 -0.10641699 -0.0059996108 0
0.0014801299 -0.1064079 0.0060003893 0
0.0044721924 -0.10676751 -0.0059995959 0
0.0059999847 -0.10643786 0.0042580781 0
0.0043820087 -0.10657571 0.0060004019 0
0.006000015 -0.10638695 -0.0045855497 0
0.0060000052 -0.10659644 -0.0015933232 0
0.005999994 -0.10661763 0.0013499379 0
0.0059999828 -0.10655356 0.0044082599 0
-0.0060000066 -0.10357201 0.0016382171 0
-0.0060000177 -0.10267632 0.0047402191 0
-0.0038878631 -0.1021071 -0.0059996448 0
-0.0054543698 -0.10341615 -0.0052009253 0
-0.005999994 -0.10350407 -0.0014653779 0
-0.006000007 -0.10320481 0.0015014366 0
-0.0059682769 -0.103572 0.0048076487 0
-0.0046447935 -0.10344208 0.0060003563 0
-0.0020427562 -0.10291778 -0.0059996354 0
-0.0013159671 -0.10365158 -0.005999628 0
-0.002326803 -0.1036272 0.0060003665 0
-0.0015821231 -0.10348619 0.0060003675 0
0.0018034215 -0.10338325 -0.0059996177 0
0.0016851698 -0.10349855 0.00600038 0
0.0045383559 -0.10347335 -0.0059996089 0
0.0059999893 -0.10317049 0.0028802508 0
0.0059999819 -0.10352896 0.0049154856 0
0.0044944994 -0.10364611 0.0060003903 0
0.006000015 -0.10347269 -0.0045823343 0
0.0060000042 -0.10348572 -0.0014950566 0
0.0059999931 -0.10379887 0.0015006592 0
0.0059999847 -0.10347203 0.0043982854 0
-0.0060000075 -0.099801131 0.0019777643 0
-0.0060000177 -0.10006603 0.0047634202 0
-0.004036739 -0.10109457 -0.0059996489 0
-0.0052825511 -0.10054331 -0.0052622124 0
-0.0059999963 -0.10046795 -0.0014607614 0
-0.0060000052 -0.10042796 0.0014501942 0
-0.0059084147 -0.1002897 0.0046975547 0
-0.0046473253 -0.10033555 0.0060003451 0
-0.0011473458 -0.10198322 -0.0059996354 0
-0.0013720816 -0.10046265 -0.005999641 0
-0.0027025498 -0.10180509 0.0060003581 0
-0.0014388005 -0.10095742 0.0060003591 0
0.0012891035 -0.10034017 -0.0059996308 0
0.001221619 -0.10046963 0.0060003679 0
0.0044715796 -0.10055136 -0.0059996182 0
0.0059999884 -0.099767648 0.003066245 0
0.0045066583 -0.10050952 0.0060003786 0
0.0060000164 -0.10040388 -0.0046619992 0
0.0060000047 -0.10037284 -0.0013864571 0
0.0059999959 -0.10044244 0.0013182436 0
0.0059999814 -0.10019089 0.0047653411 0
-0.0060000052 -0.098758779 0.0013478532 0
-0.0060000173 -0.097669929 0.0046455571 0
-0.0053620753 -0.096451588 -0.0059996708 0
-0.0053266129 -0.097458236 -0.0051282132 0
-0.0059999935 -0.097662896 -0.0014534137 0
-0.0060000033 -0.09746778 0.0013343267 0
-0.0059128739 -0.097651385 0.0047327229 0
-0.0046219765 -0.09752804 0.0060003349 0
-0.0023964359 -0.09749566 -0.0059996564 0
-0.0017585086 -0.097607359 -0.0059996522 0
-0.0020796021 -0.097357579 0.0060003446 0
-0.0013587824 -0.097273767 0.0060003456 0
0.0014713292 -0.097492024 -0.005999642 0
0.0013912625 -0.097536102 0.0060003581 0
0.0044115507 -0.097649127 -0.0059996294 0
0.0059999903 -0.097897507 0.0025639229 0
0.0059999828 -0.098236032 0.004578162 0
0.0045303414 -0.097221524 0.0060003679 0
0.0060000159 -0.097667627 -0.0045417771 0
0.0060000066 -0.097508654 -0.0011486207 0
0.0059999935 -0.097331442 0.0013701312 0
0.0059999814 -0.097218692 0.004725737 0
-0.0060000168 -0.093988277 0.0045082811 0
-0.0045116874 -0.094342776 -0.0059996755 0
-0.0052577411 -0.094466738 -0.0053624827 0
-0.0059999935 -0.094204232 -0.0014384191 0
-0.0060000047 -0.094293319 0.0013858883 0
-0.006000014 -0.094737679 0.0043862201 0
-0.0043788725 -0.094409779 0.0060003251 0
-0.0025240912 -0.094331838 -0.0059996685 0
-0.0014697278 -0.094182491 -0.0059996634 0
-0.0022562116 -0.094710775 0.0060003339 0
-0.0015250602 -0.094639741 0.0060003358 0
0.0016394509 -0.09440513 -0.0059996508 0
0.0014603327 -0.09419997 0.0060003484 0
0.0043839691 -0.094562933 -0.0059996406 0
0.0059999903 -0.093156241 0.0026135908 0
0.0059999819 -0.094476476 0.0049895742 0
0.0044170022 -0.094715238 0.0060003572 0
0.006000015 -0.094451122 -0.0045050858 0
0.0060000042 -0.094516762 -0.0013457394 0
0.0059999931 -0.0941808 0.0015270716 0
0.0059999824 -0.094458647 0.0045288019 0
-0.0060000154 -0.091934092 0.0041779988 0
-0.0050573004 -0.091444299 -0.0053796275 0
-0.0059999954 -0.091509491 -0.0016086398 0
-0.0060000042 -0.091445141 0.0015337305 0
-0.0059493175 -0.091434121 0.0044723353 0
-0.0044609946 -0.09149795 0.0060003144 0
-0.0016582529 -0.091539219 -0.005999675 0
-0.0014612696 -0.091439418 -0.0059996741 0
-0.0021081937 -0.091323368 0.0060003228 0
-0.0014613806 -0.091394514 0.0060003242 0
0.0013175182 -0.091354787 -0.0059996643 0
0.0015510542 -0.091705702 0.0060003377 0
0.0043425439 -0.091557905 -0.0059996513 0
0.0059999907 -0.09109246 0.0026180353 0
0.00599998 -0.091531388 0.0053413119 0
0.0045722602 -0.091585591 0.0060003479 0
0.0060000154 -0.091483481 -0.0046932157 0
0.0060000042 -0.091644026 -0.0015599389 0
0.0059999935 -0.091294929 0.001454225 0
0.0059999824 -0.091437757 0.004655866 0
-0.006000007 -0.088800512 0.0018170052 0
-0.0060000182 -0.087477446 0.0048308545 0
-0.0047609718 -0.08938653 -0.0059996941 0
-0.0052129757 -0.088567659 -0.0051649725 0
-0.0059999926 -0.08855395 -0.0016333947 0
-0.0060000052 -0.088543095 0.0015688352 0
-0.0058841556 -0.088669986 0.0045440891 0
-0.0047829109 -0.088275492 0.0060003009 0
-0.0014032848 -0.088417627 -0.0059996857 0
-0.0015258859 -0.088368014 -0.0059996843 0
-0.001445583 -0.088339187 0.0060003134 0
0.0012088628 -0.088557884 -0.0059996741 0
0.001555001 -0.088615239 0.0060003251 0
0.0045341463 -0.088231981 -0.0059996629 0
0.0059999893 -0.087380111 0.0028339396 0
0.0059999833 -0.088680051 0.004510669 0
0.0046874997 -0.088401332 0.0060003353 0
0.0060000154 -0.088578522 -0.0046220641 0
0.0060000038 -0.088690363 -0.0012780252 0
0.0059999931 -0.088604033 0.0016065122 0
0.0059999838 -0.088478386 0.0042844284 0
-0.0060000075 -0.085928395 0.0018831569 0
-0.0060000177 -0.085151523 0.0048203785 0
-0.0036363327 -0.084675781 -0.0059997072 0
-0.0052437726 -0.085472174 -0.0052636634 0
-0.0059999931 -0.085456468 -0.0014904584 0
-0.0060000042 -0.0854972 0.0015173381 0
-0.0058730668 -0.085609481 0.0048955362 0
-0.0044977046 -0.085111022 0.0060002906 0
-0.0018857316 -0.086364947 -0.005999695 0
-0.001730528 -0.085359417 -0.0059996955 0
-0.0020671079 -0.085513212 0.0060003018 0
-0.0013348827 -0.08545959 0.0060003032 0
0.0014839751 -0.085650206 -0.0059996843 0
0.001666563 -0.085375562 0.0060003139 0
0.0043782559 -0.085302219 -0.0059996741 0
0.0059999782 -0.08644782 0.0059129782 0
0.0044817165 -0.085636556 0.0060003251 0
0.0060000145 -0.085410945 -0.004550959 0
0.0060000066 -0.085404083 -0.0016376774 0
0.0059999963 -0.085253067 0.0014660552 0
0.0059999828 -0.085561365 0.0043186978 0
-0.0060000182 -0.08252351 0.0049416018 0
-0.0049950392 -0.082855947 -0.0059997188 0
-0.0052355411 -0.082298294 -0.0051558907 0
-0.0059999945 -0.082464665 -0.0014157821 0
-0.0060000047 -0.082756124 0.0014229887 0
-0.005946768 -0.082551703 0.0046642157 0
-0.0046202694 -0.082402058 0.0060002804 0
-0.0019650669 -0.082923129 -0.0059997072 0
-0.0016183414 -0.082414061 -0.0059997081 0
-0.0014750346 -0.082512766 0.006000292 0
0.0013980207 -0.082840279 -0.0059996936 0
0.001421685 -0.082340643 0.0060003018 0
0.0044713616 -0.082344204 -0.0059996843 0
0.0059999907 -0.082977988 0.0024510587 0
0.0059999796 -0.081934474 0.0055413805 0
0.0044601774 -0.082348987 0.006000313 0
0.0060000145 -0.082447745 -0.0044083884 0
0.0060000047 -0.082369432 -0.0016920957 0
0.005999994 -0.082250573 0.0014277903 0
0.0059999828 -0.082732059 0.0043298504 0
-0.0060000094 -0.079779916 0.0024179986 0
-0.0060000205 -0.080051124 0.0055293976 0
-0.0051822765 -0.080411613 -0.0059997281 0
-0.0053442959 -0.079363875 -0.0051772315 0
-0.0059999931 -0.079650983 -0.0016006797 0
-0.0060000047 -0.079553209 0.0016167203 0
-0.0059666969 -0.079543896 0.0044945842 0
-0.0045032022 -0.079364426 0.0060002697 0
-0.0013608332 -0.079423979 -0.0059997165 0
-0.0020648434 -0.079818584 0.0060002808 0
-0.0014936526 -0.079539113 0.0060002808 0
0.0016838335 -0.079454079 -0.0059997048 0
0.0016975477 -0.079368658 0.006000292 0
0.004503733 -0.079598874 -0.0059996946 0
0.0059999917 -0.078068934 0.0021753872 0
0.0059999833 -0.080285549 0.0044716219 0
0.0045245741 -0.079537272 0.0060003027 0
0.006000015 -0.079563335 -0.0044675553 0
0.0060000042 -0.079596326 -0.0015050858 0
0.0059999949 -0.079560526 0.0015173531 0
0.0059999828 -0.079443805 0.0045053959 0
-0.0060000089 -0.077342503 0.0023325647 0
-0.0060000164 -0.075452104 0.0043425299 0
-0.0039719576 -0.075648673 -0.0059997411 0
-0.0050267931 -0.076469138 -0.005407311 0
-0.0059999954 -0.076602079 -0.0014700125 0
-0.0060000056 -0.076632552 0.0013718237 0
-0.0059580752 -0.076356165 0.0046940376 0
-0.0045109848 -0.076453023 0.0060002594 0
-0.0024243619 -0.076726168 -0.0059997318 0
-0.0013796268 -0.076690719 -0.0059997267 0
-0.0021577601 -0.076827362 0.0060002701 0
-0.0013092009 -0.076272905 0.0060002697 0
0.0016244265 -0.076644219 -0.0059997151 0
0.001372711 -0.076649822 0.0060002822 0
0.0045063621 -0.076351352 -0.0059997076 0
0.0059999903 -0.076789297 0.0026096429 0
0.0059999838 -0.076349124 0.0043351543 0
0.0045195576 -0.076268919 0.0060002916 0
0.0060000154 -0.07652624 -0.0046643591 0
0.0060000033 -0.076305315 -0.0013114135 0
0.0059999931 -0.076536722 0.0015947496 0
0.0059999828 -0.07649041 0.0043634376 0
-0.0060000173 -0.073833302 0.0046261894 0
-0.0049998267 -0.073699936 -0.0059997519 0
-0.0053924304 -0.073734 -0.0052133109 0
-0.0059999926 -0.073495343 -0.0016171568 0
-0.0060000047 -0.073254898 0.0015562468 0
-0.005968499 -0.073357411 0.0048117558 0
-0.0043722517 -0.073358715 0.0060002478 0
-0.001977257 -0.07358484 -0.0059997411 0
-0.0017833387 -0.073759325 -0.0059997384 0
-0.0012731949 -0.073450446 0.0060002599 0
0.0016376463 -0.073551901 -0.005999729 0
0.0013267448 -0.073468782 0.0060002701 0
0.0046926504 -0.073541403 -0.0059997155 0
0.005999981 -0.073347904 0.0053054304 0
0.0043891752 -0.073526986 0.0060002808 0
0.0060000159 -0.07357195 -0.0047658319 0
0.0060000042 -0.073422045 -0.0015615865 0
0.0059999959 -0.07329049 0.0012687448 0
0.0059999819 -0.073911339 0.0046887621 0
-0.0091916351 -0.069624968 -0.0014146476 0
-0.0092281746 -0.069537267 0.0010217301 0
-0.006245729 -0.06964796 -0.0068755709 0
-0.0074416543 -0.069849461 -0.0044520842 0
-0.007558886 -0.069984682 -0.0016357544 0
-0.0076398998 -0.069967203 0.0017278846 0
-0.0073924982 -0.069828175 0.0045041032 0
-0.0065279612 -0.069307692 0.0064158924 0
-0.0043163011 -0.069882222 -0.0074293492 0
-0.0052110893 -0.070968367 -0.0053000445 0
-0.0059999949 -0.071076021 -0.0011096757 0
-0.0060000042 -0.071074612 0.0014454807 0
-0.0058497619 -0.070810929 0.0045777988 0
-0.0043504536 -0.070455998 0.0067048185 0
-0.0014194411 -0.069628865 -0.0092017408 0
-0.0015341257 -0.07003589 -0.0076326337 0
-0.0017249503 -0.070996821 -0.0059997481 0
-0.0026372855 -0.071788758 0.0060002496 0
-0.0014880857 -0.070413493 0.0071012899 0
-0.0010580599 -0.069636948 0.0092131877 0
0.0012989654 -0.069620088 -0.0091861412 0
0.0017677414 -0.069993302 -0.0076043797 0
0.0014459543 -0.071015395 -0.005999737 0
0.0015125539 -0.07025782 0.0070100306 0
0.0011777225 -0.069703221 0.0091881687 0
0.0045287427 -0.069889329 -0.0073504187 0
0.004445137 -0.070903651 -0.0059997258 0
0.0059999917 -0.071511604 0.0021669434 0
0.0043420861 -0.07014446 0.0069716135 0
0.0065614982 -0.069799237 -0.0064716609 0
0.0070639881 -0.070326187 -0.0043873154 0
0.0069314283 -0.070370324 -0.001624255 0
0.0069158296 -0.070447862 0.0018113327 0
0.0068548471 -0.07022126 0.004273179 0
0.0064060208 -0.069671966 0.0066147735 0
0.0092504919 -0.069652364 -0.00098391436 0
0.0092072263 -0.06960693 0.001273402 0
-0.009241553 -0.067443028 -0.0012260657 0
-0.009236576 -0.067207135 0.001274585 0
-0.0065394416 -0.06757658 -0.0065993406 0
-0.0080588134 -0.067442358 -0.0045762383 0
-0.0089190779 -0.06759274 -0.002815888 0
-0.0089036888 -0.066963203 0.0028517523 0
-0.0080270981 -0.067600586 0.0046256003 0
-0.0065612891 -0.067606971 0.0065879836 0
-0.0046482137 -0.067475267 -0.0079770014 0
-0.004725148 -0.067486569 0.0079621095 0
-0.0012534488 -0.067565203 -0.0092416452 0
-0.002770901 -0.067320623 -0.0089384913 0
-0.0027657722 -0.06799309 0.0089412183 0
-0.0013313143 -0.067390136 0.0092312023 0
0.0014078027 -0.067629397 -0.0092198309 0
0.0028354989 -0.067377672 -0.0089104129 0
0.002790964 -0.067000188 0.0089302547 0
0.0011593999 -0.067571722 0.0092529794 0
0.0047547324 -0.067601517 -0.0079496996 0
0.0044718622 -0.067535512 0.0081087174 0
0.0064869728 -0.067148224 -0.0066412264 0
0.0081200888 -0.067339107 -0.0044601485 0
0.0089125372 -0.067319386 -0.0028309131 0
0.0088976361 -0.067490108 0.0028656912 0
0.0081240805 -0.06743554 0.0044415449 0
0.0066163433 -0.067366794 0.0065187085 0
0.0092127426 -0.067469791 -0.0014619315 0
0.0092337001 -0.06787172 0.0013057349 0
-0.0092608528 -0.064407781 -0.0010929976 0
-0.0092413835 -0.064518146 0.0012499701 0
-0.0064110681 -0.064413086 -0.0067330217 0
-0.0079492666 -0.064374946 -0.0047594984 0
-0.0089174705 -0.06398543 -0.0028195966 0
-0.0089011602 -0.064482845 0.0028575589 0
-0.0079597672 -0.064362064 0.0047150734 0
-0.0065692193 -0.064125851 0.0065610521 0
-0.0046413182 -0.064363748 -0.008005593 0
-0.0046922537 -0.064355724 0.0079891095 0
-0.0012997574 -0.06446097 -0.0092335604 0
-0.0028448412 -0.064614922 -0.0089063533 0
-0.0028960512 -0.064760841 0.008884565 0
-0.0012755722 -0.064476646 0.009235708 0
0.0012655705 -0.064437106 -0.0092397835 0
0.0028121092 -0.064212896 -0.0089205941 0
0.0028220117 -0.064192377 0.0089167459 0
0.0014137311 -0.064352416 0.0092168842 0
0.0044737854 -0.064549774 -0.0081201112 0
0.0046848492 -0.064627707 0.0079729659 0
0.0065436969 -0.064497337 -0.0065792166 0
0.0080350954 -0.064686053 -0.0045692921 0
0.0089392653 -0.06443125 -0.0027694502 0
0.008926562 -0.064229913 0.0027991498 0
0.0079148114 -0.064600505 0.0047847023 0
0.0065644123 -0.064544566 0.006580479 0
0.0092166401 -0.0645594 -0.0014411903 0
0.0092275562 -0.064510271 0.0013667167 0
-0.0092255455 -0.061393406 -0.0013871397 0
-0.0092419162 -0.061544251 0.0012529199 0
-0.0063540037 -0.062022686 -0.0067730159 0
-0.0080588916 -0.061361048 -0.0045240372 0
-0.0089025078 -0.061537456 -0.0028540182 0
-0.0089464886 -0.061719429 0.0027532899 0
-0.0080534536 -0.061457645 0.0045779594 0
-0.0065726489 -0.061791252 0.0065711914 0
-0.0044744601 -0.061350279 -0.008093602 0
-0.0044659674 -0.061285973 0.0080982549 0
-0.0012369008 -0.061475918 -0.0092438124 0
-0.0029095856 -0.06112643 -0.0088782161 0
-0.0027658388 -0.060727008 0.0089411633 0
-0.0012872847 -0.06141698 0.0092366356 0
0.0013416513 -0.061632302 -0.0092311706 0
0.0027837676 -0.061367288 -0.0089329267 0
0.0027663123 -0.061549652 0.0089409538 0
0.0014543957 -0.061691232 0.0092113372 0
0.0045513841 -0.061587766 -0.0080569787 0
0.0045712907 -0.061568256 0.0080516785 0
0.0065431953 -0.061694812 -0.0065947869 0
0.0080777509 -0.0615918 -0.0045072041 0
0.0089365952 -0.061154686 -0.0027756004 0
0.0089275949 -0.061288193 0.0027967636 0
0.0082005635 -0.061490282 0.0043306854 0
0.0065492699 -0.061677165 0.0065999739 0
0.0092237042 -0.061601039 -0.0014062343 0
0.0092065372 -0.061568253 0.0014954993 0
-0.0092298836 -0.058412801 -0.0013092278 0
-0.0092390981 -0.05852364 0.0012459856 0
-0.006475104 -0.058815792 -0.0066688824 0
-0.0080685578 -0.058166288 -0.0045112353 0
-0.0089097908 -0.058063295 -0.0028372796 0
-0.0089162793 -0.058198739 0.0028227605 0
-0.0080353087 -0.058456827 0.0045774742 0
-0.006518208 -0.058914829 0.0066315862 0
-0.0045133228 -0.058559969 -0.0080820313 0
-0.0044658016 -0.058696497 0.0080924295 0
-0.001557706 -0.058462013 -0.0092023956 0
-0.0027721117 -0.05757324 -0.0089380005 0
-0.0027062888 -0.05806249 0.0089670457 0
-0.0014165243 -0.058555819 0.0092210975 0
0.0012278745 -0.058440682 -0.0092418445 0
0.002761964 -0.058866918 -0.0089424169 0
0.0027757033 -0.057910569 0.0089368578 0
0.0013622795 -0.05832592 0.0092282733 0
0.0044535939 -0.058575649 -0.0081089772 0
0.0045876699 -0.058298267 0.0080496706 0
0.0066832914 -0.058299851 -0.0064410078 0
0.0081342934 -0.058510412 -0.0044286312 0
0.0089101521 -0.058869645 -0.0028364286 0
0.0089161396 -0.058433682 0.0028231014 0
0.0080992589 -0.058277287 0.0044886526 0
0.0065642297 -0.058614299 0.006574675 0
0.009243953 -0.058544274 -0.0012141088 0
0.009214744 -0.058176283 0.0014536462 0
-0.0092490977 -0.05533471 -0.0012012613 0
-0.0092267403 -0.055204961 0.0013504791 0
-0.0063833822 -0.055415045 -0.0067530856 0
-0.0081653483 -0.055410132 -0.0043821172 0
-0.0089100236 -0.055204615 -0.0028367559 0
-0.0089142611 -0.055116422 0.002827392 0
-0.0080517344 -0.055493094 0.0045735999 0
-0.0065014288 -0.055457212 0.0066465563 0
-0.0047335164 -0.055553749 -0.0079406416 0
-0.0045164763 -0.055584308 0.0080768839 0
-0.0014184129 -0.055568386 -0.0092194239 0
-0.0027532531 -0.054773074 -0.0089462101 0
-0.0027859618 -0.055796288 0.0089323977 0
-0.0014310988 -0.055372629 0.0092172893 0
0.0011759378 -0.055644676 -0.0092521664 0
0.0028168305 -0.054829206 -0.008918575 0
0.002821607 -0.055084657 0.0089168884 0
0.0011869814 -0.055484846 0.0092470478 0
0.0047155353 -0.055452388 -0.0079509923 0
0.0045403051 -0.055528861 0.0080650663 0
0.0065571098 -0.055705965 -0.0065788589 0
0.0081584277 -0.05553304 -0.0043839011 0
0.008932909 -0.055216927 -0.0027841022 0
0.0089004962 -0.055707391 0.0028590711 0
0.00805235 -0.055698588 0.004555061 0
0.0066835228 -0.055455074 0.0064562717 0
0.009268282 -0.055309258 -0.0010535378 0
0.009199298 -0.055307824 0.0015676327 0
-0.0092400312 -0.052294243 -0.0012681071 0
-0.0092405034 -0.052636411 0.0012143941 0
-0.0065072826 -0.052386295 -0.0066291466 0
-0.0080061611 -0.052399654 -0.0046706274 0
-0.0088984882 -0.052956581 -0.0028632977 0
-0.0089401603 -0.052214772 0.0027678125 0
-0.0079408493 -0.052289709 0.0047290297 0
-0.006555229 -0.052541599 0.0065830811 0
-0.0046248515 -0.052452412 -0.0080166897 0
-0.0045189946 -0.05271272 0.0080989571 0
-0.0015443364 -0.05251513 -0.009203841 0
-0.0028390794 -0.052201211 -0.0089089032 0
-0.0027542836 -0.052550338 0.008946158 0
-0.0013585936 -0.05283054 0.009224603 0
0.0016306512 -0.052403986 -0.0091885496 0
0.0027774198 -0.052906677 -0.008935716 0
0.0027898618 -0.051910959 0.0089306803 0
0.0013226753 -0.052580494 0.0092305522 0
0.0046305424 -0.052688956 -0.0080230441 0
0.0045522638 -0.052499469 0.0080509428 0
0.0066248733 -0.052309908 -0.0065159523 0
0.0080348887 -0.052537955 -0.0045591295 0
0.0089449137 -0.052315801 -0.0027565004 0
0.0089035463 -0.051976446 0.0028520424 0
0.0081471391 -0.052488599 0.0044015306 0
0.0064034383 -0.052629005 0.0067293486 0
0.0092455009 -0.05252422 -0.0012218278 0
0.0092076724 -0.052692764 0.0015085076 0
-0.0092242695 -0.049565438 -0.0013838749 0
-0.0092322743 -0.049570959 0.0013062987 0
-0.0065296204 -0.049698502 -0.0066217603 0
-0.0082424721 -0.04962495 -0.004237514 0
-0.0089653293 -0.050317403 -0.0027095701 0
-0.0089149615 -0.049730077 0.0028257633 0
-0.0081337821 -0.049243502 0.004408875 0
-0.0065523284 -0.049448445 0.0065747984 0
-0.004807306 -0.0493365 -0.0079179062 0
-0.0046929643 -0.049530704 0.0079693319 0
-0.00123419 -0.049431629 -0.0092424806 0
-0.0028229081 -0.049848873 -0.0089159431 0
-0.0028632311 -0.049139686 0.008898777 0
-0.0015102642 -0.049594421 0.0092019429 0
0.0011855524 -0.049332466 -0.0092466502 0
0.0028301827 -0.048977498 -0.0089127915 0
0.0028713054 -0.048354436 0.0088952566 0
0.0014474092 -0.04966379 0.0092142913 0
0.0046563405 -0.049438037 -0.0079881344 0
0.0043811183 -0.049476579 0.0081531899 0
0.0066615157 -0.049504705 -0.006474671 0
0.0079179341 -0.049590591 -0.0047853049 0
0.0088789007 -0.049283981 -0.0029083421 0
0.0089617427 -0.049941212 0.0027181839 0
0.0080024088 -0.049413808 0.0046199388 0
0.0065544113 -0.049602956 0.006583083 0
0.0092225438 -0.049769741 -0.0013906378 0
0.0092370249 -0.049426507 0.0012761864 0
-0.0092599103 -0.046588473 -0.0011021857 0
-0.0092394231 -0.046472631 0.0012847928 0
-0.006493228 -0.046667226 -0.0066388762 0
-0.0078882817 -0.046667337 -0.0047735036 0
-0.0089295777 -0.045792639 -0.0027918138 0
-0.0089232167 -0.046862543 0.0028067643 0
-0.0080483295 -0.04660419 0.0045346604 0
-0.0066747251 -0.046561148 0.0064647933 0
-0.004408936 -0.046593562 -0.0081310952 0
-0.0046859798 -0.046368606 0.0079741701 0
-0.001087307 -0.04633956 -0.0092591578 0
-0.002762608 -0.046885662 -0.0089421719 0
-0.0027783262 -0.046163309 0.0089356815 0
-0.0012372296 -0.046630695 0.009243953 0
0.0013668292 -0.046516351 -0.0092271427 0
0.0028097548 -0.047555361 -0.0089216772 0
0.0028802059 -0.047146071 0.0088913823 0
0.0013277006 -0.046585366 0.0092255687 0
0.0044073518 -0.046528511 -0.0081365574 0
0.0046621924 -0.046651822 0.0079716863 0
0.0066552083 -0.046470825 -0.0064911367 0
0.0080610244 -0.046500199 -0.0045357002 0
0.0088766245 -0.046400853 -0.0029135887 0
0.0089303441 -0.046171993 0.0027903856 0
0.0081043132 -0.046336912 0.0044814753 0
0.0065727425 -0.046679579 0.0065700524 0
0.0092143416 -0.046436697 -0.001455176 0
0.0092391986 -0.04617162 0.0012546608 0
-0.0092475815 -0.043690823 -0.0012122727 0
-0.0092176171 -0.043401901 0.0014312326 0
-0.0064814393 -0.043312181 -0.0066427877 0
-0.0080977669 -0.043464538 -0.0044820504 0
-0.0089574857 -0.044013906 -0.0027276357 0
-0.0089620771 -0.043741558 0.0027173739 0
-0.0080825137 -0.043574877 0.0045121759 0
-0.0065763597 -0.043686628 0.0065504643 0
-0.0047284989 -0.043425117 -0.0079624578 0
-0.0044881226 -0.043501839 0.0080931857 0
-0.0015111297 -0.043692864 -0.0092055183 0
-0.0026657572 -0.043496702 -0.0089842919 0
-0.0028960211 -0.043825455 0.0088845007 0
-0.0014085989 -0.043466292 0.0092209801 0
0.0014971242 -0.043660235 -0.0092047853 0
0.0028392144 -0.043373201 -0.0089088846 0
0.0027948034 -0.043775026 0.008928501 0
0.0013153234 -0.043549769 0.009232047 0
0.004449802 -0.04343459 -0.0081146276 0
0.0044493098 -0.043475419 0.0081186937 0
0.0065681087 -0.04337465 -0.0065593412 0
0.0080446191 -0.043474048 -0.0045700418 0
0.0089158593 -0.043356817 -0.0028233579 0
0.0089447564 -0.044370692 0.0027572305 0
0.0079998877 -0.043457203 0.0046124803 0
0.0066000335 -0.043610483 0.0065301969 0
0.009215001 -0.043363512 -0.0014456074 0
0.0092609208 -0.043533515 0.0011127983 0
-0.0092242928 -0.040740605 -0.0013877428 0
-0.00923164 -0.04041018 0.0013308137 0
-0.006609166 -0.040519748 -0.0065246681 0
-0.0081747174 -0.040378194 -0.0043218047 0
-0.0089370757 -0.041156009 -0.002774585 0
-0.0089090047 -0.040579285 0.0028394281 0
-0.0080264956 -0.040318575 0.0046051447 0
-0.0066184853 -0.040325798 0.0065214853 0
-0.0047559314 -0.040464535 -0.0079296632 0
-0.0041731675 -0.040366933 0.0082727438 0
-0.0013762478 -0.040498089 -0.0092262533 0
-0.0028549288 -0.040516466 -0.0089020552 0
-0.0027820482 -0.04070691 0.0089340443 0
-0.0011831701 -0.040575411 0.0092502208 0
0.001362686 -0.040609218 -0.0092258938 0
0.0028405527 -0.040095616 -0.0089083146 0
0.0028685993 -0.040203068 0.0088964039 0
0.0013101122 -0.040402442 0.0092300223 0
0.0044582626 -0.040585443 -0.0081251319 0
0.0046384092 -0.040490761 0.0080080656 0
0.0065195183 -0.041129213 -0.0065995622 0
0.0080868844 -0.040393397 -0.0045355926 0
0.0089247497 -0.040197928 -0.0028029252 0
0.008975964 -0.040661659 0.0026854414 0
0.0080050444 -0.040375579 0.0046410291 0
0.0064710621 -0.040639505 0.00666781 0
0.009228074 -0.040463191 -0.0013177232 0
0.0092342626 -0.040439926 0.0013116762 0
-0.009224101 -0.037637908 -0.0013748511 0
-0.009223178 -0.037334841 0.0013847888 0
-0.0065913335 -0.037525907 -0.0065448317 0
-0.0079983613 -0.037352648 -0.0046824962 0
-0.0089395298 -0.03738286 -0.0027689547 0
-0.0089537948 -0.037722588 0.0027364034 0
-0.007954604 -0.037470903 0.0047089919 0
-0.0065703318 -0.03741771 0.0065692663 0
-0.004650976 -0.03756785 -0.008007586 0
-0.0045113033 -0.037537243 0.0080798054 0
-0.0013158349 -0.037306666 -0.0092338817 0
-0.0028633408 -0.03744949 -0.0088984082 0
-0.0027782978 -0.037336592 0.008935662 0
-0.0013089653 -0.0374959 0.0092346119 0
0.0012134223 -0.037527349 -0.0092456825 0
0.0028112147 -0.037978005 -0.0089210775 0
0.0029324193 -0.036243666 0.0088686412 0
0.0012720182 -0.037765194 0.009233987 0
0.004723202 -0.037634101 -0.0079604303 0
0.0045383219 -0.037741851 0.0080503095 0
0.006655369 -0.037479252 -0.0064889244 0
0.0080484441 -0.037521608 -0.0045744134 0
0.0089031616 -0.037607837 -0.0028525852 0
0.0089210952 -0.037745785 0.0028116282 0
0.0081486525 -0.037555978 0.004411893 0
0.0066256588 -0.037466504 0.0065046898 0
0.0092228446 -0.037581358 -0.001405191 0
0.0092565389 -0.037223227 0.0011426527 0
-0.0092079826 -0.034423664 -0.0015010173 0
-0.0092439065 -0.034766804 0.0012242858 0
-0.0065847086 -0.034667399 -0.0065546543 0
-0.0080998009 -0.034533426 -0.0044575017 0
-0.0089471526 -0.034948654 -0.0027514335 0
-0.0088982582 -0.034797121 0.0028641245 0
-0.0078978343 -0.034481633 0.0048014065 0
-0.0066643259 -0.034441147 0.006466364 0
-0.0045053265 -0.034547988 -0.0080704382 0
-0.0045029628 -0.034292541 0.0080710445 0
-0.0011743872 -0.034552537 -0.0092530781 0
-0.0026894244 -0.034696076 -0.0089740334 0
-0.0028136948 -0.033499397 0.0089202588 0
-0.0011869624 -0.034424312 0.0092517538 0
0.0013673929 -0.034254082 -0.0092234146 0
0.0029148133 -0.034643751 -0.0088760462 0
0.002775993 -0.034926925 0.0089366483 0
0.0010422815 -0.03450885 0.0092672817 0
0.0045251325 -0.034457527 -0.0080862921 0
0.0044127591 -0.034498058 0.0081335809 0
0.00670431 -0.034696266 -0.0064264107 0
0.0081698764 -0.034364361 -0.0043425057 0
0.0089302836 -0.034418341 -0.0027902168 0
0.0088861911 -0.034538586 0.0028918928 0
0.0080881361 -0.034551047 0.0044719502 0
0.0065219509 -0.034259155 0.0066109877 0
0.0092643742 -0.034354046 -0.0010848839 0
0.0092046587 -0.034192711 0.0014853968 0
-0.0091836434 -0.031546388 -0.0016673069 0
-0.0092535373 -0.031738888 0.0011459682 0
-0.0064408095 -0.031611871 -0.0066994205 0
-0.0080238907 -0.031602956 -0.0046193618 0
-0.0089443484 -0.031785447 -0.0027578946 0
-0.0089141112 -0.031202858 0.002827649 0
-0.0079303198 -0.031549126 0.004728931 0
-0.0067357766 -0.031436134 0.0064056939 0
-0.0046065929 -0.03171007 -0.00802131 0
-0.0046483278 -0.031505127 0.0080026956 0
-0.0013236166 -0.03161364 -0.0092322715 0
-0.0027769788 -0.03143293 -0.0089359796 0
-0.0028442927 -0.031239081 0.0089069465 0
-0.0014204297 -0.03143302 0.0092202686 0
0.001192196 -0.031566922 -0.009248497 0
0.0028480161 -0.031291485 -0.0089051006 0
0.0027317156 -0.031605963 0.0089558866 0
0.001200141 -0.031351063 0.009250097 0
0.0043825619 -0.031406712 -0.0081565101 0
0.0045390637 -0.031638119 0.0080501186 0
0.0065608448 -0.030981047 -0.0065884362 0
0.0080706812 -0.031543836 -0.0045400392 0
0.0089407014 -0.032289561 -0.0027662625 0
