# .PCD v0.7 - Point Cloud Data file format
VERSION 0.7
FIELDS x y z rgb
SIZE 4 4 4 4
TYPE F F F F
COUNT 1 1 1 1
WIDTH 1203
HEIGHT 1
VIEWPOINT 0 0 0 1 0 0 0
POINTS 1203
DATA ascii
0.099999927 -0.23250397 0.0074113491 0
0.099746734 -0.23220402 0.0097457506 0
-0.0096577229 -0.23053497 -0.0098580904 0
-0.009784542 -0.23044942 -0.007493325 0
-0.0097212819 -0.23033294 -0.0045543746 0
-0.0097091142 -0.23042835 -0.0013985448 0
-0.0096657332 -0.23035657 0.0016072831 0
-0.0098188473 -0.2303874 0.004355866 0
-0.0095889196 -0.23034485 0.0074474639 0
-0.0095412349 -0.23045708 0.0097609218 0
-0.0069591631 -0.23051825 -0.0099122254 0
-0.007297718 -0.23019993 -0.0074151284 0
-0.0074517801 -0.23019929 -0.0045111664 0
-0.0072339941 -0.23019275 -0.0015203546 0
-0.0076413695 -0.23019996 0.0013030783 0
-0.0075257951 -0.23019987 0.0046831286 0
-0.0074204616 -0.23019987 0.0073779877 0
-0.0074024145 -0.23049255 0.0097850645 0
-0.0049239714 -0.23045263 -0.0098391753 0
-0.0042230682 -0.23019995 -0.0073719323 0
-0.0052365209 -0.2291614 -0.0052004689 0
-0.0059999954 -0.22930205 -0.0012099463 0
-0.0060000038 -0.229114 0.0013790273 0
-0.0060000159 -0.22938645 0.0045525976 0
-0.0046785711 -0.22993556 0.007095288 0
-0.0047675269 -0.2303095 0.0096295364 0
-0.0015509947 -0.23035069 -0.0097820107 0
-0.0014712138 -0.23019996 -0.0076560876 0
-0.0016050235 -0.22907276 -0.0059991749 0
-0.0015543877 -0.22989586 0.0069138529 0
-0.0017638638 -0.23039386 0.0096921837 0
0.0014337683 -0.23040904 -0.0097662034 0
0.0015174786 -0.23015936 -0.0073921308 0
0.0012920274 -0.22927697 -0.0059991642 0
0.0013348584 -0.22972384 0.006796435 0
0.0016376951 -0.23037785 0.0095960964 0
0.0042658863 -0.23035584 -0.0095685879 0
0.0043565482 -0.23011927 -0.0072412165 0
0.0044558244 -0.22903837 -0.0059991535 0
0.0060000061 -0.22847301 -0.0018504077 0
0.0053911679 -0.22928019 0.006000849 0
0.0046044891 -0.22969271 0.0069062551 0
0.0047396463 -0.23029865 0.0096160127 0
0.0074368841 -0.23034318 -0.0097005367 0
0.0073297322 -0.23019993 -0.0073911096 0
0.0068654702 -0.22995186 -0.0044994107 0
0.0066327597 -0.22958736 -0.0014895271 0
0.0069231638 -0.22980614 0.0016630044 0
0.0068409517 -0.22980516 0.0044173645 0
0.0076647233 -0.23019989 0.0072260662 0
0.0074273297 -0.23038906 0.0097842161 0
0.01046189 -0.23032477 -0.0095929671 0
0.010166788 -0.23019995 -0.0078075947 0
0.010430975 -0.23019993 -0.0046026544 0
0.010448973 -0.23019992 -0.0014805582 0
0.010411784 -0.23019996 0.001579011 0
0.010696618 -0.23019992 0.0044934251 0
0.010404726 -0.2301999 0.0077066259 0
0.0103599 -0.23038167 0.0096511785 0
0.013409891 -0.2304059 -0.0097010043 0
0.013460343 -0.23019993 -0.0075981119 0
0.013713024 -0.23019995 -0.0044886768 0
0.013552632 -0.23019993 -0.0016122095 0
0.013531052 -0.23019992 0.0016880066 0
0.013349879 -0.23019995 0.0046400558 0
0.013318059 -0.23019987 0.0073569971 0
0.013414203 -0.23043153 0.0097442679 0
0.016505443 -0.23044294 -0.0097439168 0
0.016590558 -0.23019999 -0.007555414 0
0.016463222 -0.23019993 -0.0045782621 0
0.016393138 -0.23019992 -0.0012350839 0
0.016639616 -0.23019992 0.0017241362 0
0.01643163 -0.2301999 0.0044564833 0
0.016279012 -0.2301999 0.0073257829 0
0.016398361 -0.23039308 0.0096591664 0
0.019617569 -0.23038001 -0.0097093703 0
0.019406509 -0.23019996 -0.0071110446 0
0.019760536 -0.23020001 -0.0045736772 0
0.019742683 -0.23019995 -0.0014249673 0
0.019749494 -0.23019993 0.0016946534 0
0.019576736 -0.23019989 0.0044948198 0
0.019319711 -0.23019993 0.0074123433 0
0.01949255 -0.23035844 0.0097318375 0
0.022484768 -0.23031594 -0.0096667157 0
0.022751061 -0.23019993 -0.0076146261 0
0.022507567 -0.23019993 -0.0043984982 0
0.022626575 -0.23019993 -0.0014880721 0
0.022534458 -0.23019992 0.0012723982 0
0.02264148 -0.23019992 0.0043895748 0
0.02215909 -0.23019987 0.0076658344 0
0.022822175 -0.23030081 0.0096795252 0
0.025696162 -0.23043279 -0.0097591691 0
0.025605267 -0.23019995 -0.0073766289 0
0.025809746 -0.23019996 -0.0044565396 0
0.025498616 -0.23019993 -0.0014577375 0
0.025630455 -0.23019996 0.0016114825 0
0.025542552 -0.2301999 0.0045545283 0
0.025419734 -0.23019989 0.007484457 0
0.025790283 -0.23033518 0.0096819177 0
0.028498476 -0.23041657 -0.009749718 0
0.028313385 -0.23019998 -0.0073222797 0
0.028478246 -0.23019992 -0.0045630052 0
0.028723637 -0.23019992 -0.0013738499 0
0.028240148 -0.23019992 0.0016521577 0
0.028402379 -0.2301999 0.00446438 0
0.028569026 -0.23019993 0.007822182 0
0.028574066 -0.23040298 0.0098060202 0
0.031756822 -0.23041189 -0.0097762821 0
0.031418368 -0.23019995 -0.0073648612 0
0.031520132 -0.23019995 -0.0045927153 0
0.03156922 -0.2301999 -0.0013935178 0
0.03148289 -0.2301999 0.0016717383 0
0.031839915 -0.2301999 0.0046802936 0
0.031300999 -0.23019992 0.0075203758 0
0.031679235 -0.23034759 0.0096960608 0
0.03455162 -0.23041566 -0.0097110374 0
0.034567315 -0.23019993 -0.007518677 0
0.034743674 -0.23019993 -0.0042862622 0
0.034495268 -0.23019993 -0.0014469998 0
0.034826219 -0.23019992 0.0014365419 0
0.034578167 -0.2301999 0.0044219182 0
0.034615021 -0.23019986 0.0076002926 0
0.034836959 -0.23037966 0.0095631648 0
0.037546504 -0.23038334 -0.0097805886 0
0.037340429 -0.23019995 -0.007315645 0
0.037771031 -0.23019993 -0.0044235848 0
0.037532866 -0.23019998 -0.0017168249 0
0.037514821 -0.23019993 0.0015563337 0
0.037715916 -0.2301999 0.0043647061 0
0.037565056 -0.23019989 0.007578223 0
0.037697662 -0.23038822 0.009741568 0
0.040173464 -0.23050673 -0.0099101076 0
0.040549841 -0.23019996 -0.0073459926 0
0.040465176 -0.23019995 -0.0044487217 0
0.040503878 -0.23019992 -0.0016756002 0
0.040279116 -0.23019992 0.0013908433 0
0.040603887 -0.2301999 0.0043820585 0
0.040599026 -0.23019989 0.0072872364 0
0.040491007 -0.23038691 0.0096713211 0
0.043251395 -0.23047212 -0.0097915549 0
0.043480996 -0.23019995 -0.0074105361 0
0.043402515 -0.23019992 -0.0043710391 0
0.043439828 -0.23019993 -0.001562124 0
0.043565262 -0.23019992 0.0012649185 0
0.043595508 -0.23019992 0.0044696778 0
0.043619778 -0.23019989 0.007517572 0
0.043459833 -0.23038162 0.0097878305 0
0.047123469 -0.23033369 -0.0097281793 0
0.046473335 -0.23019995 -0.0073764082 0
0.046317302 -0.23019995 -0.0044004023 0
0.046613052 -0.23019995 -0.0013980154 0
0.046456762 -0.23019992 0.0014954304 0
0.046357926 -0.23019992 0.0044825152 0
0.046357781 -0.23019993 0.0073625967 0
0.046383239 -0.23037019 0.0096938461 0
0.049593475 -0.2303991 -0.0098013254 0
0.049616352 -0.23019996 -0.0072788154 0
0.049435634 -0.23019996 -0.0045971172 0
0.049541149 -0.23019998 -0.0016550424 0
0.049595553 -0.23019993 0.0015852272 0
0.04934258 -0.2301999 0.0044188611 0
0.049354631 -0.23019992 0.0073634624 0
0.049437955 -0.2303067 0.0097476617 0
0.052662168 -0.23035789 -0.0096512148 0
0.052761085 -0.23019995 -0.0073134466 0
0.052637916 -0.23019999 -0.0044358098 0
0.05261746 -0.23019998 -0.0014425588 0
0.052624419 -0.23019996 0.0014307499 0
0.052389015 -0.23019992 0.0043149889 0
0.05256705 -0.23019987 0.0076845433 0
0.052627303 -0.23031828 0.0096781785 0
0.055427063 -0.23044029 -0.009842962 0
0.05536706 -0.23019993 -0.0078416858 0
0.055266667 -0.23019993 -0.0042440211 0
0.0554034 -0.23019992 -0.0017279863 0
0.055401556 -0.23019993 0.0011532867 0
0.05539659 -0.23019989 0.0044882279 0
0.05551251 -0.23019989 0.0075887241 0
0.055206839 -0.23040111 0.0097746318 0
0.058933605 -0.23041081 -0.0096413428 0
0.058651507 -0.23019995 -0.0075098244 0
0.058531929 -0.23019995 -0.0044810488 0
0.058430053 -0.2301999 -0.0015774923 0
0.058360677 -0.23019993 0.0014222595 0
0.058671366 -0.23019993 0.0043837479 0
0.058414161 -0.2301999 0.007467676 0
0.058702633 -0.2304319 0.0097550862 0
0.061321087 -0.23045316 -0.0096283536 0
0.061477713 -0.23019993 -0.0076473206 0
0.061511513 -0.23019993 -0.0044448981 0
0.061266381 -0.2301999 -0.0012890301 0
0.061508436 -0.23019992 0.0014654405 0
0.061485596 -0.23019992 0.0044631157 0
0.061467018 -0.2301999 0.0076999636 0
0.061778836 -0.23036188 0.0097385012 0
0.064193159 -0.23039149 -0.0097316727 0
0.064649105 -0.23019993 -0.007286258 0
0.06451337 -0.23019993 -0.0046565039 0
0.064742774 -0.23019992 -0.0015145312 0
0.06454885 -0.23019993 0.0014063908 0
0.064378217 -0.23019993 0.0046662833 0
0.064609289 -0.23019989 0.0074602547 0
0.06423863 -0.23041211 0.0098581752 0
0.06762746 -0.23030299 -0.0096691595 0
0.067721792 -0.23019995 -0.0076377941 0
0.067362919 -0.23019996 -0.0044694897 0
0.067224398 -0.23019992 -0.0013491762 0
0.067439437 -0.23019992 0.0014676885 0
0.067789435 -0.23019995 0.0045879418 0
0.067562617 -0.2301999 0.0073954919 0
0.067808665 -0.23040521 0.0096871816 0
0.070198089 -0.23037317 -0.0096487058 0
0.070453174 -0.23019995 -0.0072084414 0
0.069900475 -0.23019998 -0.0045617511 0
0.070473507 -0.23019992 -0.0015574612 0
0.070584401 -0.23019993 0.0016558933 0
0.070341453 -0.23019995 0.0043865987 0
0.070513941 -0.23019987 0.0075085778 0
0.070343181 -0.23043235 0.0097379303 0
0.073815212 -0.2303299 -0.0097273989 0
0.073552139 -0.23019995 -0.0072738267 0
0.073346294 -0.23019995 -0.0043390631 0
0.073535971 -0.23019992 -0.0014756479 0
0.073379889 -0.23019992 0.0015579737 0
0.073714189 -0.2301999 0.0046105976 0
0.073554739 -0.23019989 0.0075725773 0
0.073540509 -0.23041596 0.0097104246 0
0.076119222 -0.23037739 -0.0096428059 0
0.076837532 -0.23019999 -0.0071573779 0
0.076381475 -0.23019993 -0.0045211739 0
0.076621495 -0.2301999 -0.0017065351 0
0.076506764 -0.23019992 0.0014397842 0
0.076491266 -0.23019992 0.0047694347 0
0.076275297 -0.2301999 0.0074366792 0
0.076168977 -0.23038024 0.0097257933 0
0.079505019 -0.23031424 -0.0097643221 0
0.07930699 -0.23019993 -0.0073156557 0
0.079437666 -0.23020001 -0.0043670018 0
0.079439335 -0.23019992 -0.0014040173 0
0.079526052 -0.23019996 0.0014172269 0
0.079357401 -0.23019989 0.0047204606 0
0.079416595 -0.23019992 0.0075743892 0
0.079806253 -0.2304638 0.009843234 0
0.082297079 -0.2303901 -0.0098270001 0
0.082376167 -0.23019996 -0.0076659173 0
0.082528859 -0.23019995 -0.0045933896 0
0.082528926 -0.23019993 -0.0014628717 0
0.08263801 -0.23019992 0.0016448225 0
0.082402304 -0.2301999 0.0044089886 0
0.082523249 -0.23019989 0.0074093263 0
0.082298368 -0.23033036 0.0097372849 0
0.085248068 -0.23032081 -0.0096753165 0
0.085516952 -0.23019995 -0.0074049686 0
0.085567482 -0.23019992 -0.0044249143 0
0.085770145 -0.23019992 -0.0014730482 0
0.085609838 -0.23019996 0.0014482386 0
0.085634455 -0.23019993 0.0041974369 0
0.08550474 -0.23019987 0.0076125688 0
0.08558584 -0.2304941 0.0098053468 0
0.088677175 -0.23038572 -0.0097126374 0
0.088524893 -0.23019999 -0.0074772001 0
0.088228121 -0.23019995 -0.0045704083 0
0.088290334 -0.23019995 -0.0015643621 0
0.088615023 -0.23019992 0.0016555154 0
0.088454083 -0.23019989 0.004542361 0
0.088513888 -0.23019987 0.0076049785 0
0.088379152 -0.23039897 0.0096623944 0
0.091024175 -0.22922432 -0.0098411124 0
0.090000048 -0.22916044 -0.0074316035 0
0.090000033 -0.22918808 -0.0045068371 0
0.090000033 -0.22908568 -0.0015323723 0
0.090000011 -0.22915035 0.0018325147 0
0.089999981 -0.22915797 0.0043976055 0
0.089999959 -0.22893256 0.0075329924 0
0.091032945 -0.22933489 0.0099308509 0
0.094451778 -0.2294482 -0.0099988254 0
0.0944589 -0.22969306 0.01000117 0
0.097594745 -0.22945686 -0.0099988142 0
0.097569279 -0.22969946 0.010001184 0
0.099901646 -0.22980903 -0.0096268021 0
0.099999994 -0.22963929 -0.007437658 0
0.099999979 -0.22976227 -0.0044182637 0
0.099999979 -0.22936329 -0.0015706191 0
0.099999964 -0.22949672 0.0016509006 0
0.099999957 -0.22967485 0.004383144 0
0.09999992 -0.22930042 0.0075959507 0
0.099751696 -0.22947676 0.0096487394 0
-0.0059999893 -0.22707625 -0.003030302 0
-0.0059999921 -0.22760974 -0.0023602773 0
-0.0051355539 -0.22640672 -0.005205065 0
-0.005999994 -0.22645575 -0.0013767204 0
-0.0060000038 -0.22669283 0.0012676258 0
-0.0060000154 -0.22676872 0.0045893905 0
-0.0045489022 -0.22648416 0.0060008024 0
-0.001670706 -0.22653922 -0.0059991847 0
-0.0014327628 -0.22656408 0.0060008136 0
0.0013383548 -0.22645289 -0.0059991749 0
0.0011811355 -0.22668758 0.0060008238 0
0.0045786533 -0.22654963 -0.0059632203 0
0.0048751179 -0.22682105 0.0060008382 0
0.0044520129 -0.22653152 0.0060008359 0
0.0060000154 -0.22614843 -0.0046123634 0
0.0060000038 -0.22650571 -0.0013546202 0
0.0059999931 -0.22653604 0.0014847172 0
0.0059999814 -0.22640532 0.0047466131 0
0.091219775 -0.22642832 -0.0099116871 0
0.090000026 -0.22664803 -0.0074966731 0
0.089999996 -0.22664802 -0.0045063235 0
0.089999996 -0.22669779 -0.0015194103 0
0.089999996 -0.22656392 0.0015643663 0
0.089999974 -0.22643401 0.0043596588 0
0.089999966 -0.2266105 0.0076181577 0
0.091023542 -0.2264857 0.0098434724 0
0.094454654 -0.22623467 -0.0099988403 0
0.09448117 -0.22628307 0.01000116 0
0.097500846 -0.22642948 -0.0099988263 0
0.097490139 -0.22612166 0.01000117 0
0.099806704 -0.22688085 -0.009780949 0
0.099999987 -0.22620346 -0.0075392956 0
0.099999987 -0.22628386 -0.0044356412 0
0.099999972 -0.22637548 -0.0015078217 0
0.099999979 -0.22649762 0.0014159139 0
0.099999949 -0.22653511 0.004551799 0
0.099999964 -0.2263231 0.0072364286 0
0.099799559 -0.22644874 0.0096994396 0
-0.0059999838 -0.22379979 -0.0045672576 0
-0.0050877011 -0.22357443 -0.0053202366 0
-0.005999994 -0.22365542 -0.0013458868 0
-0.0060000047 -0.22355039 0.0016499879 0
-0.0060000154 -0.2233786 0.0046422607 0
-0.0045059733 -0.22354947 0.0060007917 0
-0.0013900959 -0.22336243 -0.0059991954 0
-0.0014337769 -0.22332399 0.0060008019 0
0.0014934225 -0.22342589 -0.0059991842 0
0.0018607947 -0.22434169 0.0060008182 0
0.0014221328 -0.2234793 0.0060008126 0
0.0045776325 -0.22442636 -0.0059991712 0
0.0045951996 -0.22365665 -0.0058687408 0
0.0060000084 -0.22365165 -0.0024546534 0
0.0031566138 -0.22389896 0.0060008219 0
0.0045376956 -0.22370729 0.0060008243 0
0.0060000154 -0.22338581 -0.0044764071 0
0.0060000056 -0.22362737 -0.0017535763 0
0.005999994 -0.22355533 0.0014179 0
0.0059999819 -0.22345071 0.0047733714 0
0.090947397 -0.22355673 -0.0098556867 0
0.090000018 -0.22346716 -0.0075133531 0
0.090000033 -0.22332495 -0.0042572315 0
0.089999989 -0.22373271 -0.0017110979 0
0.089999974 -0.22354916 0.0016382507 0
0.089999966 -0.2232794 0.0047148587 0
0.089999959 -0.2234998 0.0076051056 0
0.091147624 -0.22358312 0.0098910872 0
0.094474189 -0.22370563 -0.0099988468 0
0.09442962 -0.22357865 0.010001148 0
0.097247332 -0.22339086 -0.0099988375 0
0.097577468 -0.22361517 0.010001164 0
0.09972465 -0.22357994 -0.0096457331 0
0.1 -0.22341339 -0.0072204391 0
0.099999972 -0.22363207 -0.0045051002 0
0.099999979 -0.22353379 -0.0016226502 0
0.099999949 -0.22349888 0.0015477538 0
0.099999957 -0.22338919 0.0043579061 0
0.099999927 -0.2234363 0.0075684888 0
0.099731535 -0.22377695 0.009869447 0
-0.0059999819 -0.22096191 -0.0051382231 0
-0.0052511883 -0.22064531 -0.0052609686 0
-0.005999994 -0.22042997 -0.0013203849 0
-0.0060000033 -0.22072296 0.0013425273 0
-0.006000015 -0.22078404 0.0044999337 0
-0.0047392398 -0.22058488 0.00600078 0
-0.0014563662 -0.22036038 -0.0059992061 0
-0.0018360048 -0.22025234 0.0060007893 0
0.0023793739 -0.22195545 -0.0059991889 0
0.0014440346 -0.22048628 -0.0059991954 0
0.00231641 -0.22145401 0.0060008098 0
0.0013836888 -0.22037442 0.0060008015 0
0.005368703 -0.22042277 -0.0059991828 0
0.0047991155 -0.2203574 -0.0059501971 0
0.0060000094 -0.22003055 -0.0026558693 0
0.0045257378 -0.22073707 0.0060008145 0
0.0060000145 -0.22049472 -0.0044261925 0
0.006000007 -0.22037438 -0.0015186715 0
0.0059999926 -0.22030133 0.0016958457 0
0.0059999824 -0.22027963 0.0044586337 0
0.091233842 -0.22024839 -0.0098349778 0
0.090000011 -0.22019887 -0.0077200774 0
0.089999981 -0.22072813 -0.0045742919 0
0.089999989 -0.22040622 -0.0015745014 0
0.089999974 -0.22031109 0.0014786421 0
0.089999951 -0.22069642 0.0045534489 0
0.089999944 -0.22027455 0.0074786167 0
0.091157064 -0.22036627 0.0099047944 0
0.094631255 -0.22044963 -0.0099988561 0
0.094587818 -0.22034998 0.010001139 0
0.097636633 -0.22059162 -0.0099988487 0
0.097607836 -0.22034946 0.010001148 0
0.09972816 -0.22020434 -0.0097806528 0
0.099999979 -0.22034344 -0.0074959053 0
0.099999987 -0.22072612 -0.004515666 0
0.099999979 -0.22049984 -0.0015208357 0
0.099999964 -0.22039908 0.0016419939 0
0.099999949 -0.22034639 0.0046590813 0
0.099999949 -0.22035584 0.007282936 0
0.099752389 -0.22053429 0.0097319186 0
-0.0059999903 -0.21757706 -0.0027795944 0
-0.0054080319 -0.21732707 -0.0051409081 0
-0.0059999931 -0.2174845 -0.0015413603 0
-0.0060000038 -0.21725677 0.0013500362 0
-0.0060000159 -0.21777478 0.0044044461 0
-0.0046484852 -0.2175291 0.0060007693 0
-0.0015872152 -0.21763663 -0.0059992163 0
-0.0013568562 -0.21779923 0.0060007838 0
0.0013222826 -0.21631075 -0.0059992126 0
0.0016051403 -0.21721846 -0.0059992066 0
0.002561657 -0.21751367 0.0060007963 0
0.0013313812 -0.21727391 0.0060007898 0
0.0038468891 -0.21674109 -0.0059992019 0
0.0048249518 -0.21772332 -0.0058856742 0
0.0060000084 -0.21722201 -0.0024499288 0
0.0049351058 -0.21788606 0.0060008066 0
0.0044871555 -0.21738912 0.0060008024 0
0.0060000154 -0.21766272 -0.0046135993 0
0.0060000028 -0.21751671 -0.0011502811 0
0.0059999926 -0.21749794 0.0016745377 0
0.0059999824 -0.21733639 0.0045199711 0
0.091180019 -0.21761021 -0.0098479679 0
0.090000026 -0.21751797 -0.0075116111 0
0.089999989 -0.21763346 -0.0043185307 0
0.090000011 -0.21751831 -0.0014966186 0
0.089999974 -0.21738447 0.0016017256 0
0.089999966 -0.21734262 0.0045033884 0
0.089999974 -0.21753494 0.0077434741 0
0.090991236 -0.21738556 0.0098845223 0
0.094539955 -0.21746638 -0.0099988701 0
0.09469787 -0.21710773 0.010001128 0
0.097725682 -0.21745135 -0.009998857 0
0.097573675 -0.21725632 0.010001137 0
0.099877074 -0.21757431 -0.0096356682 0
0.099999994 -0.21730354 -0.007607176 0
0.099999979 -0.21762142 -0.0043938509 0
0.099999964 -0.21747895 -0.0014658143 0
0.099999949 -0.21746112 0.0015851414 0
0.099999957 -0.21751003 0.0042126733 0
0.099999927 -0.21730147 0.0073036859 0
0.099801213 -0.21712846 0.0095781852 0
-0.0059999861 -0.21417993 -0.0040485137 0
-0.0051040631 -0.21446905 -0.0053914897 0
-0.0059999935 -0.21444531 -0.0014171484 0
-0.0060000033 -0.21451102 0.0013295824 0
-0.0060000154 -0.21451329 0.0045941039 0
-0.004427413 -0.21457306 0.00600076 0
-0.0014065899 -0.2145001 -0.0059992275 0
-0.0014859205 -0.21451825 0.0060007703 0
0.0024776894 -0.21398933 -0.0059992168 0
0.001330843 -0.21421374 -0.0059992187 0
0.0018905952 -0.21421929 0.0060007819 0
0.0014233006 -0.2146787 0.006000781 0
0.0041093249 -0.21456976 -0.0059992089 0
0.004381658 -0.21444726 -0.0059992066 0
0.0047413157 -0.21348454 0.0060007898 0
0.0043446934 -0.21464136 0.0060007917 0
0.0060000145 -0.21440241 -0.0043297629 0
0.0060000056 -0.21448714 -0.0014662455 0
0.0059999921 -0.21457925 0.0018512839 0
0.0059999828 -0.2145555 0.0044133798 0
0.091114618 -0.21459967 -0.0098894918 0
0.090000004 -0.21476708 -0.0073316297 0
0.089999996 -0.21466793 -0.0046001188 0
0.089999981 -0.21428362 -0.0015338069 0
0.089999974 -0.21485615 0.0016705688 0
0.089999966 -0.21474576 0.004561339 0
0.089999966 -0.21435988 0.0073784776 0
0.091068849 -0.21445139 0.0098632267 0
0.094592191 -0.21433404 -0.0099988775 0
0.094530195 -0.21428554 0.010001116 0
0.097636916 -0.21450987 -0.0099988673 0
0.097345419 -0.21454032 0.010001125 0
0.099730782 -0.2147309 -0.0097894967 0
0.1 -0.21436501 -0.0075764325 0
0.099999994 -0.21475078 -0.004655113 0
0.099999972 -0.21445866 -0.0013425403 0
0.099999957 -0.21444196 0.0013336594 0
0.099999949 -0.21455553 0.0045258058 0
0.099999949 -0.2144393 0.0075139385 0
0.09968289 -0.21461001 0.0098527083 0
-0.0059999833 -0.21239199 -0.0047220541 0
-0.0059999935 -0.21241967 -0.0019732695 0
-0.0052822316 -0.21142201 -0.0051833908 0
-0.0059999926 -0.21131149 -0.0017235818 0
-0.0060000038 -0.21146454 0.0013583513 0
-0.0060000145 -0.21141589 0.0043981411 0
-0.0046585323 -0.21138181 0.006000747 0
-0.0014793503 -0.2115248 -0.0059992392 0
-0.001602935 -0.21131176 0.0060007577 0
0.0016260609 -0.21173102 -0.005999228 0
0.0015246329 -0.2117051 -0.0059992275 0
0.0026222549 -0.21102951 0.006000773 0
0.0013910731 -0.21142955 0.0060007693 0
0.0054181255 -0.21059678 -0.0059992187 0
0.0046827872 -0.21141465 -0.0059518842 0
0.0060000098 -0.21281987 -0.0028328095 0
0.0047267769 -0.2124954 0.0060007866 0
0.004516012 -0.21151599 0.0060007805 0
0.006000015 -0.21171036 -0.0043207565 0
0.0060000047 -0.21157984 -0.001557572 0
0.0059999935 -0.21141233 0.0014196329 0
0.0059999828 -0.21156296 0.0043750009 0
0.091027774 -0.21161915 -0.0098138209 0
0.090000011 -0.21164484 -0.0074436162 0
0.089999996 -0.21142188 -0.0047191693 0
0.089999981 -0.21170345 -0.0015522488 0
0.089999974 -0.21148284 0.001262479 0
0.089999951 -0.21135081 0.0042431098 0
0.089999951 -0.21169679 0.0078902449 0
0.091101415 -0.21153289 0.0098539637 0
0.09441708 -0.21127152 -0.0099988915 0
0.094485722 -0.21141382 0.010001106 0
0.097245291 -0.21142842 -0.0099988803 0
0.097498007 -0.21163031 0.010001119 0
0.099733941 -0.21172756 -0.009806687 0
0.1 -0.21157876 -0.0075399405 0
0.099999987 -0.21116799 -0.0042826957 0
0.099999972 -0.21130641 -0.0012969308 0
0.099999949 -0.21165948 0.0016792789 0
0.099999957 -0.21159093 0.0043062903 0
0.099999934 -0.21158734 0.0076268599 0
0.099751666 -0.21139821 0.0097254962 0
-0.0059999861 -0.20808794 -0.0039876061 0
-0.004681787 -0.20867857 -0.0055823117 0
-0.0059999935 -0.20839746 -0.001601811 0
-0.0060000042 -0.20839921 0.0015172468 0
-0.0060000159 -0.20831181 0.0046754521 0
-0.0047267303 -0.20843126 0.0060007358 0
-0.0011508382 -0.20867525 -0.0059992475 0
-0.0016854139 -0.20860608 0.0060007488 0
0.0016028942 -0.20836243 -0.0059992382 0
0.0022358529 -0.20870246 0.0060007628 0
0.0015671698 -0.20848238 0.0060007591 0
0.0045816824 -0.20862581 -0.0059242803 0
0.0060000089 -0.20835358 -0.0025051115 0
0.0043596164 -0.20837098 0.0060007698 0
0.004747069 -0.20854056 0.0060007707 0
0.006000014 -0.20852879 -0.0042525325 0
0.0060000042 -0.20869239 -0.0015095599 0
0.0059999931 -0.2087635 0.0014963498 0
0.0059999828 -0.20849024 0.0044396273 0
0.091255307 -0.20842707 -0.0098994114 0
0.090000041 -0.20845315 -0.0076393774 0
0.089999981 -0.20862669 -0.0042726826 0
0.090000026 -0.20847043 -0.0016508311 0
0.089999966 -0.20848438 0.0016572302 0
0.089999974 -0.20834213 0.0045146719 0
0.089999959 -0.20880552 0.0076199491 0
0.091017075 -0.20858915 0.009840196 0
0.094507709 -0.20871092 -0.0099988999 0
0.09458895 -0.20845777 0.010001096 0
0.097257383 -0.20853736 -0.0099988906 0
0.097447433 -0.20844001 0.010001106 0
0.099799342 -0.2084756 -0.0096499631 0
0.099999994 -0.20861635 -0.0075550224 0
0.099999994 -0.20847733 -0.0045319563 0
0.099999994 -0.20839146 -0.0017446987 0
0.099999957 -0.20880917 0.0018484836 0
0.099999949 -0.20839593 0.0044187489 0
0.099999927 -0.20845254 0.0077341301 0
0.099771336 -0.20851476 0.0096871005 0
-0.0059999935 -0.2058804 -0.0019649134 0
-0.0054064123 -0.205588 -0.0051066387 0
-0.0059999931 -0.20539372 -0.00149851 0
-0.0060000038 -0.20531291 0.0013515959 0
-0.0060000145 -0.20545721 0.0044008512 0
-0.0043804515 -0.20515037 0.0060007256 0
-0.001327901 -0.20498949 -0.005999261 0
-0.0014822325 -0.20562574 0.0060007381 0
0.0016070385 -0.20560811 -0.0059992508 0
0.0016494991 -0.20561713 -0.0059992489 0
0.0017899896 -0.20544641 0.0060007493 0
0.0045742453 -0.20582697 -0.0059992387 0
0.0047059623 -0.20557298 -0.0059484802 0
0.0060000103 -0.20689172 -0.0029183412 0
0.0059214216 -0.20625447 0.0060007675 0
0.0045794318 -0.20552468 0.0060007595 0
0.006000015 -0.20549785 -0.0045567299 0
0.0060000038 -0.2056272 -0.0014752663 0
0.0059999935 -0.20569615 0.0013988358 0
0.0059999814 -0.20540386 0.0045861113 0
0.091184095 -0.20543796 -0.0099584535 0
0.090000004 -0.20552666 -0.0074625178 0
0.089999996 -0.20542102 -0.0044633322 0
0.090000018 -0.20517541 -0.0015148286 0
0.089999966 -0.20531429 0.0015062671 0
0.089999966 -0.20552059 0.0044096461 0
0.089999966 -0.20568313 0.0075369626 0
0.091277055 -0.20558037 0.0098541752 0
0.094679534 -0.20539543 -0.009998912 0
0.094537258 -0.20561643 0.010001085 0
0.097756632 -0.20511715 -0.0099989036 0
0.097587623 -0.20579909 0.010001096 0
0.099708393 -0.20569907 -0.0097839832 0
0.099999994 -0.20543464 -0.0076074619 0
0.099999987 -0.20590742 -0.0042975638 0
0.099999979 -0.20515625 -0.0014556836 0
0.099999949 -0.20546293 0.0014624713 0
0.099999949 -0.20548394 0.0044168341 0
0.099999927 -0.2054072 0.0076847621 0
0.099762872 -0.20545948 0.0097692283 0
-0.0059999856 -0.20206954 -0.004163505 0
-0.0059999935 -0.20363712 -0.0019491571 0
-0.0051043178 -0.20236742 -0.0053489851 0
-0.0059999931 -0.20246652 -0.0014838153 0
-0.0060000042 -0.20245837 0.0015096586 0
-0.0060000154 -0.20268257 0.0046755983 0
-0.0045858431 -0.20241962 0.0060007148 0
-0.0014613898 -0.20257244 -0.0059992704 0
-0.0014239934 -0.20268138 0.0060007279 0
0.0028410673 -0.20247589 -0.0059992573 0
0.001270333 -0.20235568 -0.0059992624 0
0.0015923042 -0.20254222 0.0060007381 0
0.0052404371 -0.2011103 -0.0059992536 0
0.004611304 -0.20238037 -0.0058727609 0
0.0060000089 -0.20230249 -0.002562793 0
0.0044028908 -0.20158832 0.0060007451 0
0.004627509 -0.20261835 0.0060007493 0
0.0060000164 -0.20275505 -0.0047172732 0
0.0060000028 -0.20237625 -0.0012127487 0
0.0059999954 -0.20251769 0.0012888104 0
0.0059999819 -0.20236534 0.0045785462 0
0.091153957 -0.20236641 -0.0098922523 0
0.090000018 -0.20279357 -0.0074250489 0
0.089999989 -0.20233871 -0.0041356655 0
0.089999981 -0.20235661 -0.0014593175 0
0.089999981 -0.20220581 0.0013286491 0
0.089999959 -0.20239782 0.0043497495 0
0.089999944 -0.20243955 0.0073458254 0
0.091320403 -0.20232542 0.00992095 0
0.094478324 -0.20264342 -0.0099989232 0
0.094737567 -0.20244001 0.010001074 0
0.097458325 -0.20237663 -0.0099989111 0
0.097628467 -0.20227535 0.010001082 0
0.099783443 -0.20212261 -0.0097714374 0
0.099999987 -0.20251416 -0.007338237 0
0.099999994 -0.20234546 -0.0044374592 0
0.099999972 -0.20256869 -0.0014305692 0
0.099999949 -0.20275779 0.0012698539 0
0.099999972 -0.20227857 0.0046152449 0
0.099999934 -0.20256542 0.0073850527 0
0.099818498 -0.20252657 0.0096921809 0
-0.0059999884 -0.20038645 -0.0033406045 0
-0.0059999935 -0.20026672 -0.0019257534 0
-0.0052542933 -0.19943179 -0.0052445112 0
-0.0059999926 -0.19943182 -0.0016353814 0
-0.0060000052 -0.19972338 0.0017472865 0
-0.0060000159 -0.19935802 0.0046426705 0
-0.0044374983 -0.19947518 0.0060007051 0
-0.0015055977 -0.19964862 -0.005999282 0
-0.0013700306 -0.19964731 0.0060007172 0
0.00077894802 -0.19965477 -0.005999275 0
0.0017177659 -0.19928589 -0.0059992713 0
0.0023005728 -0.19942175 0.0060007297 0
0.0015347138 -0.19931979 0.006000726 0
0.0045381682 -0.19945739 -0.0059129619 0
0.006000007 -0.20061153 -0.0020570415 0
0.0031603531 -0.20022298 0.0060007363 0
0.0044175531 -0.19965349 0.0060007372 0
0.0060000164 -0.19941935 -0.0047077914 0
0.0060000042 -0.19941705 -0.0013312458 0
0.005999994 -0.19944784 0.0013010995 0
0.0059999814 -0.19958188 0.0047795433 0
0.091205947 -0.19972289 -0.0098784668 0
0.090000011 -0.19958577 -0.007553108 0
0.090000011 -0.19905987 -0.0046973559 0
0.089999996 -0.19944574 -0.001383958 0
0.090000011 -0.19951421 0.0014510523 0
0.089999966 -0.19941457 0.0046326704 0
0.089999959 -0.19941537 0.0073987218 0
0.091270298 -0.19949867 0.009894901 0
0.094266728 -0.19936571 -0.0099989362 0
0.094358012 -0.19963929 0.010001062 0
0.097358175 -0.19947967 -0.0099989241 0
0.097345226 -0.19952279 0.010001073 0
0.099757224 -0.19972339 -0.0097962311 0
0.1 -0.19949955 -0.0075524673 0
0.099999987 -0.19959013 -0.0043948195 0
0.099999979 -0.19931021 -0.0015653089 0
0.099999957 -0.19959195 0.0015617869 0
0.099999964 -0.19921671 0.004401288 0
0.099999949 -0.19961052 0.0074307411 0
0.099661365 -0.19966443 0.0097373128 0
-0.005999994 -0.19720845 -0.0017431966 0
-0.005204102 -0.19642158 -0.0053069796 0
-0.0059999931 -0.19651435 -0.0016036342 0
-0.0060000052 -0.19663586 0.0017275418 0
-0.0060000159 -0.19649774 0.0045703081 0
-0.004454961 -0.19624163 0.0060006934 0
-0.001322067 -0.19640303 -0.0059992932 0
-0.0015878247 -0.1965615 0.0060007046 0
0.0018319908 -0.19600804 -0.0059992843 0
0.0013346417 -0.19650158 -0.0059992825 0
0.0018636866 -0.1964865 0.0060007162 0
0.0040378603 -0.19635215 -0.0059992755 0
0.0045125391 -0.19638222 -0.0059992713 0
0.0060000098 -0.1970295 -0.0028791209 0
0.004915067 -0.19667098 0.0060007293 0
0.0045116902 -0.1965072 0.0060007269 0
0.0060000145 -0.19662967 -0.004469757 0
0.0060000038 -0.19625041 -0.0014595817 0
0.0059999935 -0.19667105 0.0013881234 0
0.0059999814 -0.19674364 0.0047488594 0
0.091176301 -0.1964927 -0.00984558 0
0.090000004 -0.19646138 -0.0074629015 0
0.090000018 -0.1963883 -0.0044859136 0
0.089999974 -0.19664751 -0.0016095689 0
0.089999974 -0.19643959 0.0017513097 0
0.089999959 -0.19649746 0.0043144468 0
0.089999944 -0.19641867 0.0074082906 0
0.09120436 -0.19656225 0.0098390188 0
0.094438076 -0.19655144 -0.0099989455 0
0.094482757 -0.19636944 0.010001049 0
0.097337902 -0.19665806 -0.0099989353 0
0.097564265 -0.19654983 0.010001063 0
0.099802211 -0.19623488 -0.0097166216 0
0.099999994 -0.1964533 -0.0075496766 0
0.099999987 -0.19640133 -0.0046669813 0
0.099999979 -0.19642696 -0.0017144436 0
0.099999949 -0.19651648 0.0014862971 0
0.099999957 -0.19651417 0.0047024689 0
0.099999949 -0.19651587 0.0075702369 0
0.099620782 -0.19647962 0.0098582869 0
-0.0059999814 -0.19404088 -0.0052756649 0
-0.0059999949 -0.1931567 -0.0015961198 0
-0.0051541063 -0.19342567 -0.0052503296 0
-0.0059999931 -0.19388804 -0.0015015638 0
-0.0060000038 -0.19346891 0.0014484386 0
-0.0060000164 -0.19341566 0.0045858053 0
-0.0044122515 -0.1934464 0.0060006832 0
-0.0015634466 -0.19350073 -0.0059993039 0
-0.0017012048 -0.19349216 0.0060006944 0
0.0016235085 -0.19405097 -0.0059992918 0
0.0011992414 -0.19352518 -0.0059992941 0
0.0022892703 -0.19268341 0.0060007055 0
0.0014475791 -0.19368903 0.0060007055 0
0.0048991553 -0.19374007 -0.0059992815 0
0.0042305859 -0.19326994 -0.005977035 0
0.0040432094 -0.19405632 0.0060007167 0
0.0043590739 -0.19387974 0.0060007162 0
0.0060000159 -0.19359513 -0.0047284397 0
0.0060000047 -0.193414 -0.0015775851 0
0.0059999931 -0.19327717 0.0014914878 0
0.0059999824 -0.19379169 0.0046971571 0
0.091034926 -0.19304319 -0.00986272 0
0.090000026 -0.19336729 -0.0077092904 0
0.089999996 -0.19344507 -0.0045691105 0
0.089999989 -0.19330662 -0.0015423062 0
0.089999996 -0.19362429 0.0013825689 0
0.089999996 -0.1933282 0.0047686547 0
0.089999959 -0.19381499 0.0073615708 0
0.091114037 -0.19350742 0.009816993 0
0.094696827 -0.19365992 -0.009998953 0
0.094558358 -0.19346544 0.010001041 0
0.097538911 -0.19349498 -0.0099989437 0
0.097409211 -0.19346063 0.010001049 0
0.099762321 -0.19374965 -0.0097829243 0
0.099999994 -0.1934499 -0.0075694993 0
0.1 -0.19341977 -0.0046689664 0
0.099999972 -0.19364505 -0.0013195978 0
0.099999949 -0.193628 0.0016327729 0
0.099999964 -0.19350818 0.004492423 0
0.099999942 -0.19354559 0.0074749989 0
0.099776819 -0.19368549 0.0097781112 0
-0.0059999828 -0.19028389 -0.0049467478 0
-0.0059999945 -0.19036913 -0.0016829071 0
-0.0052653914 -0.19048588 -0.0052837203 0
-0.005999994 -0.19061463 -0.0014557003 0
-0.0060000047 -0.19063523 0.0015975952 0
-0.006000014 -0.19077614 0.0041989805 0
-0.0045077922 -0.19066812 0.0060006725 0
-0.0013610221 -0.19059034 -0.0059993137 0
-0.0018418103 -0.19056094 0.0060006818 0
0.0012221178 -0.19050749 -0.0059993044 0
0.0016566353 -0.19035444 0.0060006939 0
0.0048631588 -0.19180949 -0.0059992885 0
0.0047326703 -0.19060737 -0.0058401069 0
0.0060000098 -0.18974257 -0.0028097618 0
0.0049361098 -0.18996945 0.0060007055 0
0.0043938016 -0.19056207 0.0060007041 0
0.0060000159 -0.19048074 -0.0046156985 0
0.0060000033 -0.19052456 -0.0012351886 0
0.0059999931 -0.19072251 0.0015609931 0
0.0059999824 -0.19042368 0.004501055 0
0.091171414 -0.19035278 -0.0099178143 0
0.090000011 -0.1907478 -0.0076357322 0
0.090000026 -0.1905921 -0.0045470074 0
0.089999974 -0.19036801 -0.0012620687 0
0.089999974 -0.19033283 0.0014893084 0
0.089999996 -0.1903265 0.0044243755 0
0.089999974 -0.19050205 0.0075671957 0
0.09118329 -0.19048932 0.0098931696 0
0.09467493 -0.19041289 -0.0099989679 0
0.09453252 -0.19020025 0.010001029 0
0.097515278 -0.1903051 -0.0099989558 0
0.097438484 -0.19057848 0.010001043 0
0.099755019 -0.19058624 -0.009746084 0
0.099999994 -0.19029978 -0.0073919804 0
0.099999987 -0.19061342 -0.0044262963 0
0.099999979 -0.19060522 -0.0015409461 0
0.099999949 -0.19047976 0.0013165341 0
0.099999957 -0.19032253 0.0042372183 0
0.099999934 -0.19080448 0.0075039444 0
0.099688865 -0.19035432 0.009815 0
-0.0059999852 -0.18846472 -0.0042376751 0
-0.0059999917 -0.18654935 -0.0024592758 0
-0.0051733134 -0.18741992 -0.0053914706 0
-0.0059999931 -0.18764435 -0.0015743541 0
-0.0060000047 -0.18744498 0.0014978271 0
-0.006000015 -0.18732463 0.0044858628 0
-0.004733114 -0.18735152 0.0060006599 0
-0.0019357442 -0.18734169 -0.0059993276 0
-0.0017851751 -0.18772033 0.006000672 0
0.0019147962 -0.1872797 -0.0059993155 0
0.0013221006 -0.18735605 -0.005999316 0
0.0024988686 -0.18780558 0.0060006883 0
0.0014545718 -0.1874737 0.0060006827 0
0.0044298223 -0.18806721 -0.0059993039 0
0.0047723744 -0.18750353 -0.0059119086 0
0.006000008 -0.18734579 -0.002255199 0
0.0052994522 -0.18721868 0.0060006962 0
0.0044696219 -0.18759489 0.0060006939 0
0.0060000145 -0.18733755 -0.0043036961 0
0.0060000038 -0.18766224 -0.0013708143 0
0.005999994 -0.18736029 0.0013862102 0
0.0059999824 -0.18753701 0.0045047817 0
0.091100261 -0.1874951 -0.0098609664 0
0.090000004 -0.18732636 -0.0077618058 0
0.090000004 -0.18734509 -0.0042183502 0
0.089999989 -0.18739597 -0.0016856412 0
0.089999966 -0.1874781 0.0015594207 0
0.089999951 -0.18750294 0.0047016232 0
0.089999951 -0.1874925 0.0074246433 0
0.091120914 -0.18743899 0.0098587545 0
0.09468437 -0.18750297 -0.0099989772 0
0.094328173 -0.18744925 0.01000102 0
0.09740179 -0.1876951 -0.0099989651 0
0.097459882 -0.18761675 0.010001033 0
0.099722937 -0.18715852 -0.0098669827 0
0.099999994 -0.18744785 -0.0074785748 0
0.099999987 -0.18737873 -0.0044118916 0
0.099999964 -0.18759665 -0.0012356394 0
0.099999957 -0.18763494 0.0016412488 0
0.099999949 -0.18745671 0.004496281 0
0.099999934 -0.18728469 0.0074684448 0
0.099802829 -0.18756157 0.0097093368 0
-0.005999981 -0.1832794 -0.0054171965 0
-0.0060000005 -0.18534876 -1.1369011e-05 0
-0.0050790343 -0.18473566 -0.0054343417 0
-0.0059999926 -0.18461819 -0.0015626013 0
-0.0060000047 -0.18465172 0.0016754392 0
-0.0060000159 -0.18451819 0.0046706796 0
-0.0042729969 -0.18439244 0.006000651 0
-0.0015204255 -0.18469396 -0.005999336 0
-0.0014190046 -0.18475315 0.0060006632 0
0.001133989 -0.18537097 -0.0059993253 0
0.0017230456 -0.1845756 -0.0059993248 0
0.0013434369 -0.18434782 0.0060006706 0
0.0036017965 -0.18404824 -0.0059993211 0
0.0047316165 -0.1846593 -0.005916106 0
0.0060000089 -0.18423431 -0.0026071307 0
0.0033697854 -0.1846641 0.0060006808 0
0.0044260304 -0.18445255 0.0060006827 0
0.0060000145 -0.18437256 -0.0044176779 0
0.0060000042 -0.18461654 -0.0014732383 0
0.0059999926 -0.18432556 0.0016312433 0
0.0059999833 -0.18462098 0.0042913049 0
0.091176815 -0.18428859 -0.0099020535 0
0.089999996 -0.18460608 -0.0076029538 0
0.090000011 -0.18452109 -0.0044327467 0
0.089999981 -0.18459214 -0.0015400046 0
0.089999974 -0.18435951 0.0011754356 0
0.089999974 -0.18445662 0.0047884928 0
0.089999951 -0.18447833 0.0073850313 0
0.091082923 -0.18429573 0.0098782089 0
0.094456539 -0.18430693 -0.0099989893 0
0.094667338 -0.18452439 0.010001007 0
0.097586647 -0.18442571 -0.0099989772 0
0.097495288 -0.18457894 0.010001019 0
0.099695124 -0.18453652 -0.0097158235 0
0.099999994 -0.18445455 -0.0074365293 0
0.099999972 -0.1845538 -0.0044826879 0
0.099999979 -0.18453039 -0.0013415826 0
0.099999987 -0.1844161 0.0013937888 0
0.099999957 -0.18422954 0.0046944311 0
0.099999934 -0.18461861 0.0076351753 0
0.099694796 -0.18464001 0.0098052407 0
-0.0059999824 -0.18233871 -0.0049802051 0
-0.0050459448 -0.18149826 -0.0053213327 0
-0.0059999931 -0.1814642 -0.0015613743 0
-0.0060000047 -0.18157542 0.0017051374 0
-0.0060000159 -0.18157965 0.0047423765 0
-0.0044371299 -0.18167779 0.0060006408 0
-0.00021867284 -0.18102242 -0.0059993463 0
-0.0015654336 -0.18179698 -0.0059993467 0
-0.0015421142 -0.18109111 0.0060006487 0
0.001798293 -0.18243101 -0.0059993337 0
0.0014691338 -0.18120907 -0.0059993379 0
0.0027510396 -0.18034925 0.0060006622 0
0.0013241614 -0.18147777 0.0060006604 0
0.0035422312 -0.18182722 -0.005999329 0
0.004620933 -0.18150076 -0.0059993253 0
0.0060000066 -0.18006897 -0.0019378227 0
0.0045785964 -0.18139501 0.006000672 0
0.006000014 -0.18122552 -0.0042387582 0
0.0060000052 -0.18142165 -0.0015366914 0
0.0059999931 -0.18143076 0.0015723185 0
0.0059999824 -0.18155158 0.0044522821 0
0.091037393 -0.18156712 -0.0098420177 0
0.090000004 -0.18149467 -0.007442269 0
0.089999996 -0.18132351 -0.0043739695 0
0.090000011 -0.18147509 -0.0014813555 0
0.089999974 -0.18184878 0.0014791365 0
0.089999966 -0.18165906 0.0042299479 0
0.089999996 -0.18098474 0.0074308459 0
0.091095902 -0.18152407 0.0099203587 0
0.094457597 -0.18122438 -0.0099990014 0
0.094435133 -0.18141928 0.010000994 0
0.097317837 -0.18176407 -0.0099989884 0
0.097663723 -0.18136217 0.010001008 0
0.099754602 -0.18154912 -0.009799785 0
0.1 -0.18136971 -0.0077291275 0
0.099999979 -0.18173209 -0.0044726687 0
0.099999972 -0.18163757 -0.0012884965 0
0.099999964 -0.18170889 0.001744061 0
0.099999957 -0.18182601 0.0044064517 0
0.099999942 -0.18189441 0.0076848306 0
0.099664405 -0.18139276 0.0097825918 0
-0.0059999852 -0.17823623 -0.0042656236 0
-0.0059999903 -0.17868759 -0.0028145614 0
-0.006000001 -0.17812593 0.00018318385 0
-0.0055025299 -0.1784455 -0.0048384713 0
-0.005999994 -0.17834932 -0.001375615 0
-0.0060000047 -0.17862879 0.0016635262 0
-0.0060000154 -0.17835055 0.004617454 0
-0.0045425622 -0.17837347 0.0060006282 0
-0.0015552853 -0.17878252 -0.005999357 0
-0.0016047986 -0.17853035 0.0060006408 0
0.0020203621 -0.17904228 -0.0059993449 0
0.0015423817 -0.17880656 -0.0059993463 0
0.0024672246 -0.1786458 0.0060006557 0
0.0014570178 -0.17834695 0.0060006492 0
0.0038236077 -0.17898308 -0.0059993388 0
0.0047414009 -0.17868833 -0.0059926156 0
0.0045954492 -0.178277 0.0060006622 0
0.0046125432 -0.17854787 0.0060006613 0
0.0060000154 -0.17829435 -0.004440276 0
0.0060000042 -0.1786115 -0.0014176588 0
0.0059999935 -0.17866738 0.0014526241 0
0.0059999824 -0.17867337 0.0046780254 0
0.091331482 -0.17842487 -0.0098897116 0
0.090000018 -0.17813468 -0.0076408191 0
0.090000018 -0.17848632 -0.0044418667 0
0.089999981 -0.17835125 -0.0016947772 0
0.089999989 -0.17848679 0.0017386018 0
0.089999966 -0.17860539 0.0046773367 0
0.089999959 -0.17830908 0.0074642529 0
0.091280468 -0.17842156 0.0098967468 0
0.094400689 -0.17844649 -0.0099990116 0
0.094606176 -0.17850889 0.01000099 0
0.097354099 -0.17848109 -0.0099990005 0
0.097688451 -0.17844582 0.010000998 0
0.099682637 -0.17848687 -0.0098371925 0
0.099999987 -0.17856133 -0.0074956142 0
0.099999987 -0.1783763 -0.0044482928 0
0.099999979 -0.17843427 -0.001321793 0
0.099999949 -0.17853674 0.0015300338 0
0.099999957 -0.17840713 0.0043886411 0
0.099999934 -0.17867397 0.0074247713 0
0.099873811 -0.17864588 0.0096108085 0
-0.005999987 -0.17636919 -0.0037924454 0
-0.0059999926 -0.17573605 -0.0021722852 0
-0.005298424 -0.17543519 -0.0052976389 0
-0.0059999931 -0.17567317 -0.0015278253 0
-0.0060000033 -0.17538257 0.0013077568 0
-0.0060000145 -0.17557062 0.0044022435 0
-0.0043197516 -0.17573942 0.0060006194 0
-0.0017139522 -0.17529915 -0.00599937 0
-0.0013768374 -0.17572561 0.006000631 0
0.002705056 -0.17686889 -0.0059993505 0
0.001328645 -0.17526053 -0.0059993598 0
0.0011894261 -0.17551444 0.006000638 0
0.0039634365 -0.17464146 -0.0059993537 0
0.0045563467 -0.17559883 -0.0059052249 0
0.0032574891 -0.17670678 0.006000651 0
0.0044900426 -0.1755597 0.0060006506 0
0.0060000159 -0.17549048 -0.0047432533 0
0.0060000038 -0.17561005 -0.0013927342 0
0.0059999935 -0.17538939 0.0014254488 0
0.0059999828 -0.17515095 0.0044061388 0
0.09086369 -0.17530189 -0.0098400461 0
0.090000026 -0.17564133 -0.0078506675 0
0.089999996 -0.17544006 -0.0043640719 0
0.089999996 -0.17539914 -0.0015743355 0
0.089999974 -0.1755058 0.0017719254 0
0.089999959 -0.17554879 0.0045165704 0
0.089999944 -0.17549649 0.0074998015 0
0.091357678 -0.17557047 0.0099317729 0
0.094641715 -0.17584404 -0.009999021 0
0.094650447 -0.1756355 0.010000977 0
0.097621433 -0.17550765 -0.0099990098 0
0.097403333 -0.17546582 0.010000987 0
0.099777073 -0.17540888 -0.0097246785 0
0.099999994 -0.17565444 -0.0074861553 0
0.10000001 -0.17528321 -0.0045417445 0
0.099999957 -0.17556007 -0.001367991 0
0.099999949 -0.17564839 0.0016962967 0
0.099999957 -0.17556234 0.0045853411 0
0.099999934 -0.17544544 0.0074854 0
0.099832162 -0.17546594 0.0097033968 0
-0.0059999968 -0.17373186 -0.00098720065 0
-0.0053299931 -0.17283773 -0.0051264311 0
-0.0059999954 -0.17257595 -0.0014756668 0
-0.0060000047 -0.17278282 0.0015286555 0
-0.0060000145 -0.1724235 0.0043730969 0
-0.0045074779 -0.17232953 0.0060006068 0
-0.0014142203 -0.17244092 -0.0059993793 0
-0.0014175003 -0.1725484 0.006000618 0
0.0015786691 -0.17243263 -0.0059993691 0
0.0016649623 -0.17241433 0.0060006282 0
0.0045488006 -0.17246136 -0.0059993579 0
0.0060000001 -0.17328322 -8.2674567e-05 0
0.0040795216 -0.17211995 0.0060006375 0
0.004784463 -0.17244555 0.0060006408 0
0.0060000154 -0.17259194 -0.0045412877 0
0.0060000028 -0.17252578 -0.0012133025 0
0.0059999935 -0.17255825 0.00140226 0
0.0059999828 -0.17252852 0.0043424075 0
0.091144122 -0.17255858 -0.0098458976 0
0.090000033 -0.17253189 -0.0075220298 0
0.089999996 -0.17243694 -0.0045465138 0
0.089999981 -0.17273526 -0.0016847877 0
0.090000004 -0.17244431 0.0016255777 0
0.089999966 -0.17261976 0.0045063691 0
0.089999951 -0.17210728 0.0073260046 0
0.091090597 -0.17246716 0.0098485947 0
0.094521403 -0.17251156 -0.0099990321 0
0.094454743 -0.17263368 0.010000965 0
0.097156137 -0.17252499 -0.00999902 0
0.097524479 -0.17257215 0.010000978 0
0.099864207 -0.17256364 -0.0096311076 0
0.10000001 -0.1724104 -0.0076494846 0
0.099999979 -0.17231891 -0.0043674102 0
0.099999972 -0.17242324 -0.0015805122 0
0.099999957 -0.17272943 0.001631545 0
0.099999964 -0.17233731 0.0043883407 0
0.099999934 -0.17256652 0.0077079791 0
0.099717386 -0.17237878 0.0098390207 0
-0.0059999945 -0.16800793 -0.0016122063 0
-0.0052794861 -0.16953517 -0.0052354382 0
-0.0059999926 -0.16920935 -0.0016825671 0
-0.0060000047 -0.16959725 0.0016094986 0
-0.0060000154 -0.16950934 0.0046845414 0
-0.0044675441 -0.16949986 0.0060005961 0
-0.0014582528 -0.1695382 -0.0059993914 0
-0.0014928973 -0.1697275 0.0060006073 0
0.001312471 -0.16948463 -0.0059993803 0
0.0015037477 -0.16971804 0.0060006185 0
0.0044310712 -0.16966222 -0.0059993686 0
0.0060000075 -0.17016132 -0.0021831922 0
0.0059999982 -0.16830269 0.00038134633 0
0.0049050367 -0.1683155 0.0060006264 0
0.0042927731 -0.16955137 0.0060006278 0
0.0060000154 -0.16963242 -0.0046281898 0
0.0060000038 -0.16965605 -0.0014176804 0
0.005999994 -0.16962597 0.0014289963 0
0.0059999833 -0.16979869 0.0043720212 0
0.09131711 -0.16966073 -0.00987795 0
0.090000056 -0.16987628 -0.0074762255 0
0.089999989 -0.16950165 -0.0045052669 0
0.089999989 -0.16937317 -0.0011894171 0
0.089999974 -0.16936177 0.0013894949 0
0.089999974 -0.16960955 0.0045044664 0
0.089999989 -0.16963512 0.0074324911 0
0.091057025 -0.16943824 0.009917778 0
0.094416685 -0.16968359 -0.0099990414 0
0.094476826 -0.16936229 0.010000954 0
0.09770187 -0.16944344 -0.0099990312 0
0.097480983 -0.1694859 0.010000964 0
0.099715419 -0.16957124 -0.0097781913 0
0.1 -0.16934584 -0.0076527875 0
0.099999972 -0.16951215 -0.0042444412 0
0.099999972 -0.16958247 -0.0017039345 0
0.099999942 -0.16935885 0.0016244448 0
0.099999957 -0.16969353 0.0044951914 0
0.099999934 -0.1696212 0.0076167253 0
0.099754833 -0.16952303 0.009773382 0
-0.0059999991 -0.16707115 -0.00044780146 0
-0.0053710542 -0.1665037 -0.0051695295 0
-0.0059999931 -0.16664168 -0.0015574154 0
-0.0060000042 -0.16660044 0.0016954703 0
-0.0060000154 -0.16666557 0.0043957117 0
-0.0042164447 -0.16638091 0.0060005854 0
-0.0015523902 -0.1660566 -0.0059994031 0
-0.0014023159 -0.16643815 0.0060005961 0
0.0013242323 -0.16793196 -0.0059993882 0
0.0014673178 -0.16641513 -0.005999391 0
0.0013133899 -0.16567008 0.006000604 0
0.0016440056 -0.16654897 0.0060006077 0
0.0047118342 -0.16645935 -0.0059688105 0
0.0060000089 -0.16667153 -0.0024125441 0
0.0038354483 -0.1673864 0.0060006194 0
0.0043813121 -0.16634534 0.0060006166 0
0.0060000145 -0.16635375 -0.0044838418 0
0.0060000033 -0.16647162 -0.0014182104 0
0.0059999935 -0.16673447 0.0015257256 0
0.0059999824 -0.16641465 0.0045216396 0
0.09091001 -0.16652302 -0.0098482305 0
0.090000018 -0.16639197 -0.0073827254 0
0.090000026 -0.16645892 -0.0047792769 0
0.090000011 -0.16626607 -0.0015634814 0
0.089999981 -0.16660446 0.001479451 0
0.089999966 -0.1665507 0.0043821177 0
0.089999951 -0.1663305 0.0074429894 0
0.091104895 -0.16656418 0.0098921573 0
0.094545275 -0.16645914 -0.0099990526 0
0.094618618 -0.16641513 0.010000946 0
0.097342111 -0.16651246 -0.0099990442 0
0.097614676 -0.16653968 0.010000953 0
0.099744275 -0.16632038 -0.0096864281 0
0.099999994 -0.16635637 -0.0076237028 0
0.099999987 -0.16642183 -0.0042778668 0
0.099999972 -0.16666767 -0.0014088135 0
0.099999957 -0.16626756 0.0013946509 0
0.099999957 -0.16625559 0.004723045 0
0.099999934 -0.16656347 0.0076273512 0
0.099699847 -0.16611588 0.0097308559 0
-0.0060000014 -0.16484971 0.00026574748 0
-0.0052826926 -0.16345164 -0.0052037528 0
-0.0059999926 -0.16352247 -0.0016567006 0
-0.0060000042 -0.16326712 0.0015467873 0
-0.0060000145 -0.16345277 0.0044069374 0
-0.004464135 -0.16342156 0.0060005737 0
-0.0002810398 -0.16219908 -0.0059994143 0
-0.0013870898 -0.1635116 -0.0059994124 0
-0.0014982412 -0.16340595 0.0060005849 0
0.001618728 -0.16345802 -0.0059994007 0
0.00069828791 -0.16426925 0.0060005966 0
0.0016198617 -0.16363718 0.0060005975 0
0.0045576491 -0.16337451 -0.0059310123 0
0.0059999954 -0.16237436 0.0012050527 0
0.0043440075 -0.16362335 0.0060006082 0
0.0043657878 -0.16335817 0.0060006059 0
0.0060000145 -0.16362089 -0.0042817472 0
0.0060000038 -0.16368546 -0.0014027538 0
0.005999994 -0.16352485 0.001331104 0
0.0059999819 -0.16352959 0.0046311221 0
0.090893306 -0.1637006 -0.0098281177 0
0.090000033 -0.16366471 -0.0077234176 0
0.090000004 -0.16362885 -0.0042977249 0
0.089999989 -0.1631988 -0.001438373 0
0.089999989 -0.16346754 0.0015275124 0
0.089999966 -0.16371626 0.0047067599 0
0.089999944 -0.16371797 0.0073690144 0
0.090871342 -0.16353868 0.0098697515 0
0.094532229 -0.16345145 -0.0099990675 0
0.094576634 -0.1634808 0.010000932 0
0.097415946 -0.16351365 -0.0099990526 0
0.097552292 -0.16339205 0.010000944 0
0.099780068 -0.16357507 -0.0097884377 0
0.10000003 -0.16318889 -0.0072018486 0
0.099999979 -0.16353922 -0.0044743908 0
0.099999994 -0.16311345 -0.0011310796 0
0.099999957 -0.16348688 0.0015996621 0
0.099999957 -0.16364245 0.0045039677 0
0.099999927 -0.16347435 0.0074809426 0
0.099702358 -0.16353944 0.0097494209 0
-0.0051760995 -0.16048126 -0.005305049 0
-0.0059999931 -0.16040386 -0.0014923147 0
-0.0060000033 -0.16077526 0.0013391045 0
-0.0060000154 -0.16072369 0.0044681057 0
-0.0043900516 -0.16049361 0.006000564 0
-0.0011196531 -0.16044229 -0.0059994226 0
-0.0013880922 -0.15953095 0.0060005719 0
-0.0015140899 -0.16038714 0.0060005737 0
0.0013406943 -0.16048267 -0.0059994143 0
0.0014013703 -0.16050009 0.0060005854 0
0.0045897923 -0.16036315 -0.0059371577 0
0.004446811 -0.16153924 0.0060006008 0
0.0046390682 -0.16050716 0.0060005966 0
0.0060000159 -0.16044493 -0.0047180471 0
0.0060000042 -0.16007687 -0.0014421043 0
0.0059999935 -0.16076319 0.0015603254 0
0.0059999819 -0.16012284 0.0046935398 0
0.060000028 -0.15933238 -0.0093694609 0
0.060000006 -0.15955679 -0.0033783256 0
0.060000006 -0.159523 -0.0015727533 0
0.059999995 -0.15955412 0.0014112511 0
0.059999976 -0.15977812 0.0053928546 0
0.059999965 -0.15965067 0.0082492121 0
0.061276138 -0.15973325 -0.0097972117 0
0.061088014 -0.16004561 -0.0076766429 0
0.06117446 -0.16003489 -0.0047543966 0
0.060998227 -0.16006592 -0.0013799405 0
0.061199628 -0.16012204 0.0014732619 0
0.061019626 -0.15999134 0.0045276512 0
0.061270103 -0.16001929 0.0077294079 0
