# .PCD v0.7 - Point Cloud Data file format
VERSION 0.7
FIELDS x y z rgb
SIZE 4 4 4 4
TYPE F F F F
COUNT 1 1 1 1
WIDTH 1191
HEIGHT 1
VIEWPOINT 0 0 0 1 0 0 0
POINTS 1191
DATA ascii
0.055445932 -0.30145565 0.0013834256 0
0.055440474 -0.30037475 0.0039668363 0
0.057292543 -0.30015367 -0.0031685035 0
0.057921361 -0.30046338 -0.0012071296 0
0.057890531 -0.30045366 0.0012905989 0
0.057420451 -0.30008465 0.0031968306 0
0.0026891269 -0.29707423 -0.00033979773 0
0.0028082519 -0.29708061 0.00072728773 0
0.0053222235 -0.29733181 -0.003638861 0
0.0047771493 -0.29786912 -0.0015912112 0
0.0044685146 -0.29774067 0.001496762 0
0.0051429491 -0.29739642 0.0034172914 0
0.0077171177 -0.29805186 -0.0041547134 0
0.0073745931 -0.29915926 -0.0014925282 0
0.0074413666 -0.29923853 0.0013465683 0
0.0077302912 -0.29800531 0.0042036255 0
0.01051763 -0.29862589 -0.0048049055 0
0.0092596384 -0.29982272 -0.0026417933 0
0.0093875956 -0.29991361 0.0025579501 0
0.010344848 -0.29869363 0.004684072 0
0.013447487 -0.29846787 -0.0057000127 0
0.013295629 -0.29860529 0.0056783855 0
0.016279614 -0.29831275 -0.005839373 0
0.016473858 -0.29837862 0.0058426447 0
0.019309763 -0.29851428 -0.0057895314 0
0.01938688 -0.29851151 0.0057942974 0
0.022428442 -0.29826972 -0.00554696 0
0.022559909 -0.29841039 0.0055671339 0
0.025369404 -0.29833186 -0.005264814 0
0.025487619 -0.29846945 0.0053450004 0
0.028560873 -0.29830593 -0.004798546 0
0.029962773 -0.29703236 0.0028722156 0
0.028700121 -0.29835245 0.0047877687 0
0.031455439 -0.29862562 -0.0046692402 0
0.031615902 -0.29718694 -0.0025490078 0
0.031641088 -0.29715556 0.0024528429 0
0.031326372 -0.29864284 0.0046975529 0
0.034449253 -0.2983374 -0.0044140508 0
0.034172058 -0.29716125 -0.002608456 0
0.034074388 -0.29718131 0.0026363009 0
0.034443263 -0.29857323 0.004684845 0
0.037592944 -0.2983532 -0.0048265825 0
0.036357258 -0.297048 -0.0029796446 0
0.036497068 -0.29700804 0.0029142762 0
0.037511315 -0.29821253 0.0046560075 0
0.040294319 -0.29845276 -0.0051196204 0
0.040493608 -0.29837069 0.0051373933 0
0.043510575 -0.29845831 -0.005367646 0
0.043471407 -0.29824957 0.0052591492 0
0.046537966 -0.29841337 -0.0055257897 0
0.046589285 -0.29833665 0.0054895245 0
0.049632825 -0.29848489 -0.0057432866 0
0.049471959 -0.29840225 0.0057262783 0
0.052564394 -0.29849496 -0.0057970989 0
0.052414704 -0.2982558 0.0058444412 0
0.055469118 -0.29861039 -0.0053807925 0
0.05543584 -0.29879901 0.0053159622 0
0.058231 -0.29853547 -0.0046453574 0
0.059250176 -0.299775 -0.0018619965 0
0.059034925 -0.29982424 0.0019320777 0
0.058345798 -0.29863447 0.0045131068 0
0.061098024 -0.29784626 -0.0041754367 0
0.061487503 -0.29890624 -0.0015570329 0
0.061504703 -0.29891747 0.0014420154 0
0.06145256 -0.29784045 0.0040305308 0
0.063895866 -0.29721883 -0.0035073643 0
0.064513899 -0.29769444 -0.0013087731 0
0.064514965 -0.29768077 0.0014318348 0
0.063924767 -0.2971718 0.0035657338 0
0.066378534 -0.29707524 -0.00048514755 0
0.066273861 -0.2971209 0.00047341909 0
-0.00078223727 -0.29440254 -0.0035109781 0
-0.0015505393 -0.29477641 -0.0015008338 0
-0.0014503364 -0.29480717 0.0015650948 0
-0.00096670206 -0.29429299 0.0035486601 0
0.0016713232 -0.29513893 -0.0041149277 0
0.0015610955 -0.29628938 -0.0015646168 0
0.0014400728 -0.29624233 0.001520542 0
0.0017643715 -0.29515871 0.004116619 0
0.0046127755 -0.29568759 -0.0049014119 0
0.0032205565 -0.29682443 -0.0026904445 0
0.0033763892 -0.29683751 0.0028915626 0
0.0043553752 -0.29559934 0.0048578237 0
0.0074441251 -0.2954843 -0.0057209264 0
0.0074864752 -0.29543024 0.0057497197 0
0.010432052 -0.295526 -0.0058142371 0
0.010578792 -0.29542199 0.0057803718 0
0.013605106 -0.29543182 -0.0051416326 0
0.013486784 -0.29531902 0.0051747933 0
0.016450545 -0.29587099 -0.0046188165 0
0.016786974 -0.29440549 -0.0019169444 0
0.01698985 -0.29445609 0.0017617408 0
0.016487507 -0.29563221 0.0043329 0
0.019419933 -0.29604918 -0.0041908035 0
0.019441152 -0.29489931 -0.0016633271 0
0.019266427 -0.29477331 0.001301708 0
0.019653488 -0.29608673 0.0042031845 0
0.022684066 -0.29643679 -0.0039888965 0
0.022595277 -0.2954278 -0.0016403091 0
0.022599205 -0.29543227 0.0016327846 0
0.022558952 -0.29638523 0.0039728512 0
0.025411233 -0.29656631 -0.0034909982 0
0.025370913 -0.29587632 -0.0014931195 0
0.025487995 -0.29588467 0.0014617934 0
0.025218982 -0.29656729 0.0035485211 0
0.027968558 -0.29688045 -0.0032677453 0
0.028458932 -0.2964026 -0.0014366599 0
0.028408434 -0.29643112 0.0015990783 0
0.027661361 -0.2968936 0.0033825496 0
0.031222593 -0.29678589 -0.0010256181 0
0.031293593 -0.29680467 0.0011774631 0
0.034602828 -0.29677191 -0.001196489 0
0.034535088 -0.29675645 0.00093006837 0
0.038972802 -0.29694551 -0.0033059353 0
0.037684325 -0.296527 -0.0016644078 0
0.037448846 -0.2965005 0.001326003 0
0.038373295 -0.29686111 0.0030561327 0
0.041108791 -0.29668853 -0.0032786077 0
0.040603567 -0.29622635 -0.0017274148 0
0.040591937 -0.29617506 0.0014256886 0
0.040603433 -0.29677063 0.0033236486 0
0.043508228 -0.29651815 -0.0034453494 0
0.04336245 -0.29586419 -0.001402694 0
0.043548986 -0.29582825 0.0013457391 0
0.043901812 -0.29665634 0.0037525629 0
0.046370123 -0.29647011 -0.0038632369 0
0.04626384 -0.2955808 -0.0015731119 0
0.046660855 -0.29554927 0.0016337712 0
0.046394262 -0.29643074 0.003809405 0
0.04973767 -0.29602203 -0.004206486 0
0.049437135 -0.2948986 -0.0016750393 0
0.04944909 -0.29485863 0.0015193804 0
0.049440239 -0.29596066 0.0040066508 0
0.052725852 -0.29538354 -0.0047467453 0
0.051415097 -0.29425931 -0.0023812731 0
0.051393561 -0.29424009 0.0023349414 0
0.052457843 -0.29523402 0.0044653933 0
0.055491913 -0.29564083 -0.0056507317 0
0.055464655 -0.29540223 0.0055199997 0
0.05840119 -0.29537588 -0.0058268532 0
0.058476869 -0.29553193 0.0058409167 0
0.061468489 -0.29535985 -0.005672181 0
0.061694745 -0.2953431 0.0056654369 0
0.064633138 -0.29573351 -0.0047175116 0
0.065875635 -0.29679286 -0.0027934331 0
0.06595625 -0.29679197 0.0026619697 0
0.064617768 -0.29574108 0.0047451076 0
0.067247927 -0.29508755 -0.0041753384 0
0.067760378 -0.29611471 -0.0016028115 0
0.067601539 -0.29624066 0.0014767307 0
0.06721428 -0.2951816 0.0040967916 0
0.069432303 -0.29419559 -0.003309669 0
0.06973695 -0.29468036 -0.001302962 0
0.069744699 -0.29473126 0.0010547264 0
-0.0062470902 -0.29117131 -0.00070354046 0
-0.0060997293 -0.29128274 0.00072920194 0
-0.0039368193 -0.291931 -0.003713697 0
-0.0045609521 -0.29249248 -0.0015578844 0
-0.0045483359 -0.29258001 0.0013543026 0
-0.0040690377 -0.29178825 0.0037596356 0
-0.0016738585 -0.29257017 -0.0048233345 0
-0.002724346 -0.29389191 -0.0025015215 0
-0.0025430489 -0.2939254 0.0028374563 0
-0.0016443132 -0.29264659 0.0047460729 0
0.0016168358 -0.29236895 -0.0057975021 0
0.0016950887 -0.29258582 0.0057382588 0
0.0046951086 -0.29243106 -0.0057646772 0
0.0045350892 -0.29242879 0.0057892078 0
0.0074868165 -0.29230988 -0.0050808364 0
0.0076080547 -0.29231012 0.0050725732 0
0.010367214 -0.29274553 -0.0043211849 0
0.010822856 -0.29154268 -0.0016629542 0
0.010997606 -0.29162225 0.0015996477 0
0.010399268 -0.29295146 0.0045254738 0
0.013353742 -0.29355451 -0.0035402712 0
0.01356759 -0.29285139 -0.0014344607 0
0.01354353 -0.29287142 0.0015360541 0
0.013043284 -0.29342011 0.0035969291 0
0.015391559 -0.29364404 -0.00080275582 0
0.015420499 -0.29380012 0.0015772001 0
0.053434201 -0.29377347 -0.0032779202 0
0.052832205 -0.2934404 -0.0014631141 0
0.052678488 -0.29347828 0.0013753065 0
0.056008112 -0.2932086 -0.0039954414 0
0.055471394 -0.2923851 -0.0016638505 0
0.05563489 -0.29226124 0.0014355915 0
0.055523187 -0.29332149 0.0038627372 0
0.058620717 -0.2925474 -0.0044096014 0
0.057965826 -0.29131877 -0.0015668572 0
0.057979744 -0.29134348 0.0016976328 0
0.058649752 -0.29282185 0.0047066496 0
0.061368134 -0.29242516 -0.0052461443 0
0.061388627 -0.29239538 0.0052655567 0
0.064651944 -0.2925359 -0.005804617 0
0.064462893 -0.2925967 0.0058108564 0
0.067567587 -0.29238233 -0.0056227068 0
0.067732401 -0.29244161 0.0055630966 0
0.070490912 -0.29229683 -0.0043743853 0
0.071164414 -0.2934387 -0.0016350253 0
0.071230903 -0.29334304 0.0017243808 0
0.07035584 -0.29227775 0.0044422266 0
0.072513334 -0.29148307 -0.0035420796 0
0.073202878 -0.29184696 -0.0013796366 0
0.073006772 -0.29196283 0.0015603376 0
0.072642379 -0.29149228 0.0034122393 0
-0.0092753703 -0.28830555 -0.00092782907 0
-0.0092637073 -0.28820884 0.0014143742 0
-0.0071606678 -0.28875515 -0.00391581 0
-0.0075248322 -0.28969818 -0.0016656521 0
-0.0076966118 -0.28954065 0.0016465059 0
-0.0069061173 -0.28895092 0.0039663999 0
-0.0046232808 -0.28953123 -0.0051041231 0
-0.0059521156 -0.2906937 0.0029715747 0
-0.0047272341 -0.28952247 0.0050013214 0
-0.0014835746 -0.28937721 -0.0058551026 0
-0.0017046889 -0.28965294 0.0058857412 0
0.001613301 -0.28924206 -0.0050334432 0
0.0028734857 -0.28802547 0.0028714309 0
0.0015160827 -0.28944165 0.0051623066 0
0.004407235 -0.28989622 -0.0043840148 0
0.0048901527 -0.28860232 -0.0015324469 0
0.0048265839 -0.28859428 0.0015269673 0
0.0043459209 -0.28975827 0.0042731445 0
0.0072676041 -0.29056036 -0.0035388449 0
0.007573979 -0.28993368 -0.0015559234 0
0.0076366761 -0.28994867 0.0015017191 0
0.006900195 -0.29049012 0.0037121037 0
0.009472914 -0.29072124 -0.00077437132 0
0.009386031 -0.29072356 0.0010747358 0
0.059330728 -0.2906864 -0.0012618278 0
0.059191093 -0.2907438 0.0012785323 0
0.061736833 -0.29052761 -0.0036324149 0
0.061508957 -0.28984478 -0.0015981996 0
0.0614697 -0.28980958 0.001376847 0
0.062124934 -0.29040408 0.0036839962 0
0.064457081 -0.28990066 -0.004501957 0
0.063748822 -0.288607 -0.0016484321 0
0.063765392 -0.28864542 0.0017410502 0
0.064357474 -0.28971112 0.0043141348 0
0.067463629 -0.28931287 -0.0055471826 0
0.067708917 -0.28928691 0.0055739069 0
0.070739895 -0.28951523 -0.0057357936 0
0.070636988 -0.28948164 0.0057219607 0
0.073559761 -0.28939489 -0.0046911808 0
0.074604616 -0.29062819 -0.001645525 0
0.074584007 -0.29060715 0.0017831171 0
0.073482528 -0.28934497 0.0047366587 0
0.075840838 -0.2887049 -0.0036236569 0
0.076279387 -0.28935558 -0.0013111852 0
0.076427862 -0.28918079 0.001496373 0
0.075684451 -0.28884655 0.003589967 0
0.078170411 -0.28804314 3.2719599e-05 0
-0.012411318 -0.28538892 -0.00086962176 0
-0.012424667 -0.28524292 0.0013633961 0
-0.010111186 -0.28602037 -0.0038868764 0
-0.010782339 -0.28668287 -0.0016455796 0
-0.010701481 -0.28678623 0.0015696593 0
-0.010192073 -0.28591543 0.0039017666 0
-0.0076377122 -0.28680599 -0.0050014583 0
-0.0076208049 -0.28667 0.0050957464 0
-0.004593418 -0.28660989 -0.0058310898 0
-0.0044494919 -0.28647861 0.0058359522 0
-0.0015003232 -0.28644946 -0.0049419086 0
-0.00023487194 -0.28529233 -0.0024736484 0
-0.00034769197 -0.28528142 0.0026866996 0
-0.0014189496 -0.28652507 0.0048921495 0
0.00061802805 -0.28694731 -0.0038273027 0
0.0016443756 -0.28675562 -0.0016697252 0
0.0015516692 -0.28659439 0.0015157778 0
0.00094750396 -0.28727272 0.0038586333 0
0.003434845 -0.28775829 -0.0008669424 0
0.0033710655 -0.28772879 0.00088289997 0
0.065786995 -0.28769207 -0.003381751 0
0.06532526 -0.28729329 -0.0015402113 0
0.065182023 -0.28733319 0.001165118 0
0.06571462 -0.28761846 0.003212472 0
0.067880355 -0.28660443 -0.0040224851 0
0.067128226 -0.28588307 -0.0017635124 0
0.067098774 -0.28585571 0.0015164367 0
0.067543566 -0.28676811 0.0039313957 0
0.070482083 -0.28646511 -0.0054172394 0
0.070472948 -0.28637668 0.0053226496 0
0.073393986 -0.28650728 -0.0058616246 0
0.073576175 -0.28637153 0.0057984376 0
0.076515064 -0.28654084 -0.0049818857 0
0.077660583 -0.28791595 -0.0024850897 0
0.07769727 -0.28776616 0.0028071837 0
0.076630332 -0.28648436 0.0049052848 0
0.079138264 -0.28586182 -0.0037683984 0
0.079535097 -0.28667629 -0.0015139349 0
0.079451457 -0.28674808 0.0014674404 0
0.079065226 -0.28579131 0.0039155828 0
0.081355833 -0.28523633 -0.001403975 0
0.081454687 -0.28512305 0.001481802 0
-0.015354461 -0.2826077 -0.0011639084 0
-0.015394203 -0.28250998 0.0013561245 0
-0.015011479 -0.28210413 0.0031648846 0
-0.012937145 -0.28300717 -0.0042662304 0
-0.014073567 -0.28362498 -0.0016882416 0
-0.013655884 -0.28405052 0.001536827 0
-0.013205128 -0.2829465 0.0040872707 0
-0.010767571 -0.28341016 -0.005314122 0
-0.010623288 -0.28375292 0.0052283327 0
-0.0073682969 -0.28357956 -0.0058404114 0
-0.0076397127 -0.283535 0.0058686659 0
-0.0046225674 -0.28332692 -0.0048527336 0
-0.0033886062 -0.28224215 -0.0021982098 0
-0.0033183512 -0.28233153 0.0022355232 0
-0.0043155528 -0.28353891 0.0047263969 0
-0.0022907974 -0.28428751 -0.0038567267 0
-0.0014889714 -0.28372246 -0.0012521517 0
-0.0015077557 -0.28376219 0.0014406105 0
-0.0022001655 -0.28440496 0.0038852652 0
0.068608344 -0.28454363 -0.0013176674 0
0.06856443 -0.2845889 0.0013618008 0
0.070855886 -0.28398994 -0.0038571309 0
0.070400491 -0.28317681 -0.0016865724 0
0.070403717 -0.28317663 0.0016706464 0
0.070774786 -0.28400689 0.0038092276 0
0.073389798 -0.28344023 -0.0050277552 0
0.072340705 -0.28204492 -0.0029457649 0
0.073587768 -0.28328001 0.0050398191 0
0.076738954 -0.28327176 -0.0058108377 0
0.076452479 -0.28324139 0.0058137719 0
0.079582587 -0.28345367 -0.0052533038 0
0.079549208 -0.28349057 0.0052457643 0
0.081837587 -0.28319734 -0.0037332771 0
0.08267235 -0.28349307 -0.001551718 0
0.082731605 -0.28331307 0.0016882034 0
0.081850462 -0.28312373 0.0037711477 0
-0.015961384 -0.28004423 -0.0038289796 0
-0.016792713 -0.2805796 -0.0013290932 0
-0.016887728 -0.28026569 0.0017188274 0
-0.015860461 -0.28030947 0.0038048003 0
-0.01357942 -0.2803925 -0.0054610106 0
-0.013598142 -0.28061566 0.005327547 0
-0.010720262 -0.2805995 -0.0058225496 0
-0.010596253 -0.28051227 0.005852072 0
-0.0074218088 -0.28066701 -0.0047564954 0
-0.00641623 -0.27940461 -0.0020863849 0
-0.0065046055 -0.27931985 0.0020753238 0
-0.0073855701 -0.28053406 0.0046558324 0
-0.0052033355 -0.28153193 -0.0038346387 0
-0.0047703735 -0.28071648 -0.0013716491 0
-0.004793813 -0.28072646 0.0014357307 0
-0.0053697973 -0.28131059 0.0037622123 0
0.071733028 -0.28192228 -0.0012683484 0
0.071714699 -0.28185004 0.00051372673 0
0.074209757 -0.28132108 -0.0039383732 0
0.073382169 -0.28072724 -0.0015846178 0
0.073496558 -0.28062564 0.0015513103 0
0.074312732 -0.28113675 0.0038387477 0
0.076290578 -0.28023642 -0.0045159967 0
0.07513617 -0.2792359 -0.0015323209 0
0.075328879 -0.27926102 0.0021959334 0
0.076373816 -0.28040642 0.0047359085 0
0.079501256 -0.28035763 -0.0058881878 0
0.079347201 -0.28065613 0.0058384961 0
0.082608595 -0.28060699 -0.0046601058 0
0.083804086 -0.28164601 -0.0020578336 0
0.083719254 -0.28163549 0.0023416413 0
0.082551762 -0.28070137 0.0046477076 0
0.084360287 -0.27981246 -0.003442978 0
0.084823698 -0.28037554 -0.0013315788 0
0.084790245 -0.28024709 0.0017386448 0
0.084317818 -0.27964276 0.0036873741 0
-0.018409261 -0.27634868 -0.0032651268 0
-0.01872972 -0.27705234 -0.0012174181 0
-0.018577782 -0.27734014 0.0012562921 0
-0.018292841 -0.27646679 0.0033469128 0
-0.016469173 -0.27738032 -0.0047385907 0
-0.017694917 -0.27847224 -0.0022607376 0
-0.017773198 -0.27866155 0.0015489776 0
-0.016582854 -0.27743366 0.0046138759 0
-0.013699024 -0.27737561 -0.0058487286 0
-0.013603268 -0.27753606 0.0058499854 0
-0.010590593 -0.27757278 -0.0048150918 0
-0.0093236314 -0.27651402 -0.001960492 0
-0.0092715463 -0.27646175 0.0015829523 0
-0.010469716 -0.27729595 0.0045565935 0
-0.0084083732 -0.27836162 -0.003620455 0
-0.0078767519 -0.27786416 -0.0014191823 0
-0.0078555187 -0.27790353 0.0015422774 0
-0.0083661936 -0.27829814 0.0034945207 0
0.07726182 -0.27793419 -0.0039361166 0
0.076487884 -0.27729523 -0.0015070599 0
0.076318316 -0.27751744 0.0014551966 0
0.077341303 -0.27778536 0.0038818389 0
0.079600267 -0.27751434 -0.005400117 0
0.079504393 -0.27758613 0.0054006479 0
0.082488179 -0.27739531 -0.0057821623 0
0.08273001 -0.27752498 0.0057110889 0
0.08528237 -0.27728379 -0.0042845597 0
0.086400129 -0.27796471 -0.0015641955 0
0.086355358 -0.2779775 0.001680906 0
0.085369654 -0.2773625 0.0041791075 0
0.087513998 -0.27645203 -0.0010867324 0
0.087296613 -0.27669585 0.0014703412 0
-0.021022251 -0.27309835 0.0004320571 0
-0.019012855 -0.27413219 -0.0040313522 0
-0.02009842 -0.27444887 -0.0013812674 0
-0.020153962 -0.27428114 0.0015870039 0
-0.019034579 -0.27414688 0.0040144385 0
-0.016515201 -0.27454394 -0.0056278142 0
-0.016741954 -0.27449021 0.0055622435 0
-0.013485765 -0.27456394 -0.0055261762 0
-0.013479414 -0.27448034 0.0054379245 0
-0.011229279 -0.27477065 -0.0038672797 0
-0.010287298 -0.27448556 -0.0013821782 0
-0.01015813 -0.27479941 0.0015204147 0
-0.011342937 -0.274923 0.0040953862 0
0.077608056 -0.27553445 -0.001133333 0
0.077577621 -0.27557164 0.001206987 0
0.079768337 -0.27486193 -0.0043366696 0
0.078644834 -0.27410638 -0.0014925315 0
0.078773856 -0.27399999 0.0017218582 0
0.079724967 -0.27469906 0.0042035612 0
0.082446948 -0.27438641 -0.0057290294 0
0.08238551 -0.27452368 0.0056923474 0
0.085408777 -0.27452016 -0.0054688067 0
0.085734047 -0.27469441 0.0051926519 0
0.087873779 -0.27417812 -0.0037860745 0
0.088665597 -0.27457312 -0.0015833322 0
0.088753685 -0.27439615 0.0017090696 0
0.087609023 -0.27438602 0.0039557382 0
-0.021351956 -0.27058804 -0.0035275917 0
-0.021849245 -0.27115878 -0.0014936011 0
-0.021706561 -0.27149934 0.0014232214 0
-0.021477589 -0.27041933 0.0034821129 0
-0.019552682 -0.27151546 -0.0048440108 0
-0.020869598 -0.2728847 -0.0019027079 0
-0.020848194 -0.27274925 0.0021464264 0
-0.019498013 -0.27166346 0.0048088161 0
-0.016608866 -0.27147466 -0.0058561522 0
-0.016256701 -0.27142197 0.0058309659 0
-0.013735773 -0.27154401 -0.0046550701 0
-0.012396954 -0.2706365 -0.0015173214 0
-0.012430082 -0.27073103 0.0018207942 0
-0.013404694 -0.27173263 0.0044178362 0
-0.011819845 -0.27282554 -0.0032923771 0
-0.011515992 -0.272174 -0.0012866345 0
-0.011540508 -0.27209309 0.0011951838 0
-0.011951101 -0.27256 0.0032907985 0
0.080777675 -0.27256209 -0.0038442968 0
0.080092624 -0.27195433 -0.0014290722 0
0.080217876 -0.27179089 0.0015190035 0
0.080776878 -0.27233234 0.0036135879 0
0.082463734 -0.27164623 -0.0047238045 0
0.081284747 -0.27045313 -0.002054984 0
0.081198983 -0.27054507 0.0019997698 0
0.082557656 -0.27141845 0.0047358815 0
0.085599422 -0.27169254 -0.0058382018 0
0.085570663 -0.27138051 0.0058409595 0
0.088431381 -0.27155763 -0.0048863892 0
0.089872792 -0.27260694 -0.0021529933 0
0.089572266 -0.27277026 0.0025948503 0
0.088718921 -0.27142879 0.0046958453 0
0.090408623 -0.270619 -0.0036543533 0
0.090798154 -0.27133596 -0.0014542539 0
0.090905488 -0.27116394 0.0014017065 0
0.090633497 -0.2706067 0.0033157496 0
-0.024197888 -0.2671535 -0.00066697574 0
-0.024195109 -0.26724872 0.00032259265 0
-0.022013515 -0.26853436 -0.0040838839 0
-0.023168543 -0.26868817 -0.0015621677 0
-0.023163971 -0.26871479 0.0016157749 0
-0.021987986 -0.26820856 0.0043085627 0
-0.019610006 -0.26865244 -0.0056197816 0
-0.01925963 -0.26851606 0.0057482803 0
-0.016476398 -0.26837593 -0.0053516976 0
-0.016224904 -0.26862365 0.0052389377 0
-0.014174945 -0.26893425 -0.0036310004 0
-0.01353168 -0.26844519 -0.0013930387 0
-0.013522382 -0.26849821 0.0014126399 0
-0.014503737 -0.26895967 0.0040908149 0
0.083279654 -0.26877207 -0.0037398874 0
0.082591996 -0.26830226 -0.0015421724 0
0.082360923 -0.26855212 0.0013636124 0
0.083271816 -0.26898414 0.0038895265 0
0.085751474 -0.2679767 -0.0049186531 0
0.08659745 -0.26729801 -0.0016495485 0
0.086646698 -0.26733074 0.0016766917 0
0.085772961 -0.26813769 0.0050549069 0
0.088381194 -0.26859891 -0.0047082216 0
0.088607043 -0.26853853 -0.0014617068 0
0.088469818 -0.26845515 0.0017092384 0
0.088376075 -0.26856694 0.0046399222 0
0.090284504 -0.26975656 -0.0042253016 0
0.090585247 -0.26977459 -0.0013335067 0
0.090565637 -0.26976183 0.0016577513 0
0.090367377 -0.26973125 0.0040901215 0
-0.024302155 -0.26502001 -0.003624893 0
-0.024976244 -0.26542345 -0.0014185651 0
-0.024923055 -0.26554412 0.0014199673 0
-0.024308836 -0.26484746 0.0037367609 0
-0.022636838 -0.26558337 -0.0049052816 0
-0.023905104 -0.26675233 -0.0026774709 0
-0.023819549 -0.2666977 0.0029964305 0
-0.022826243 -0.26547751 0.0048224744 0
-0.019171702 -0.26559255 -0.0057705264 0
-0.019530756 -0.26545003 0.00580743 0
-0.016603045 -0.26576006 -0.0043944046 0
-0.015456486 -0.2650471 -0.0017636755 0
-0.015518149 -0.2649138 0.0017039991 0
-0.016577117 -0.26573074 0.0043864441 0
-0.014683824 -0.26640517 -0.0016714396 0
-0.014659362 -0.26633647 0.0013031564 0
0.083726592 -0.26648435 -0.0011527202 0
0.083665818 -0.26665986 0.0013185575 0
0.085313298 -0.26671809 -0.0039986623 0
0.08495985 -0.26630196 -0.0016015682 0
0.08494848 -0.26636237 0.0015672002 0
0.085105143 -0.26657867 0.0037261341 0
-0.024967693 -0.26248229 -0.0043165577 0
-0.026319072 -0.262714 -0.0014883192 0
-0.026305253 -0.26278391 0.0014531281 0
-0.025159797 -0.26265851 0.004020812 0
-0.022397986 -0.26241273 -0.0057758247 0
-0.02226631 -0.26256537 0.0058012391 0
-0.019534217 -0.26235098 -0.0052230502 0
-0.01917246 -0.26212344 0.0049425312 0
-0.017352108 -0.26290175 -0.0035292367 0
-0.016696038 -0.26253939 -0.0013031866 0
-0.016747275 -0.26252985 0.0015143832 0
-0.017469298 -0.2628881 0.0036910998 0
-0.027122915 -0.25897339 -0.00081419188 0
-0.027112449 -0.25916851 0.00075982779 0
-0.025329895 -0.2596128 -0.0044752778 0
-0.026781844 -0.26010859 -0.0018179871 0
-0.026799163 -0.25980732 0.0019244719 0
-0.025374036 -0.25950953 0.0045013558 0
-0.022569949 -0.25945607 -0.0058420282 0
-0.022512363 -0.25943926 0.0058440841 0
-0.019525146 -0.2595343 -0.0043151365 0
-0.018319512 -0.25906608 -0.001853988 0
-0.01824379 -0.25893041 0.0015120959 0
-0.019716473 -0.25954369 0.0045392439 0
-0.017798401 -0.26034546 -0.001063518 0
-0.017825799 -0.26035553 0.0011722866 0
-0.02704668 -0.25519684 -0.0030195459 0
-0.027325515 -0.25655329 -0.0013451456 0
-0.027314266 -0.25642169 0.0014154511 0
-0.025623264 -0.25664929 -0.004596455 0
-0.026925212 -0.25691295 -0.0027908366 0
-0.026924327 -0.25732386 0.0025963653 0
-0.02557176 -0.25638506 0.0046532471 0
-0.022537263 -0.25638247 -0.0058274157 0
-0.022331338 -0.25671527 0.0058162096 0
-0.019833542 -0.25649458 -0.0042690607 0
-0.018573515 -0.25649518 -0.0015371863 0
-0.018567581 -0.25647092 0.001557514 0
-0.019916506 -0.25663379 0.0043926244 0
-0.027113292 -0.25386927 -0.0031752042 0
-0.027594687 -0.25357807 -0.001725886 0
-0.027670268 -0.2533783 0.0015476126 0
-0.027128726 -0.25318739 0.0032976 0
-0.025952643 -0.25354493 -0.0046461569 0
-0.025601985 -0.25341398 0.0049252287 0
-0.022522137 -0.25334337 -0.0057566981 0
-0.022220867 -0.25354519 0.0056798006 0
-0.020116046 -0.25364694 -0.0041971551 0
-0.018935347 -0.25345814 -0.0014729954 0
-0.01892182 -0.25353199 0.0014890734 0
-0.020140873 -0.25354171 0.0042080274 0
-0.027253456 -0.25041243 -0.0036423081 0
-0.028044019 -0.25053713 -0.0013859131 0
-0.027987517 -0.25060314 0.0016408646 0
-0.027327389 -0.2498937 0.0036341294 0
-0.025729997 -0.25065577 -0.0051030344 0
-0.025539329 -0.25082344 0.0052182549 0
-0.022104895 -0.25034824 -0.0054759341 0
-0.02225028 -0.25051323 0.0055604894 0
-0.020219322 -0.25047091 -0.0038201134 0
-0.01930728 -0.25056809 -0.0015745542 0
-0.019284749 -0.2505275 0.0014432855 0
-0.020254465 -0.25063008 0.0038872899 0
-0.027613861 -0.24727562 -0.0036667339 0
-0.028387232 -0.24742492 -0.0015893177 0
-0.028399698 -0.2477091 0.0012992517 0
-0.027596597 -0.24735077 0.0036759402 0
-0.025800014 -0.24740256 -0.0053504808 0
-0.025458768 -0.24761961 0.0054827393 0
-0.022493577 -0.24743845 -0.0054683457 0
-0.022318752 -0.24743448 0.0053809993 0
-0.020501085 -0.24758138 -0.0037317767 0
-0.019676145 -0.24731342 -0.0013770774 0
-0.019735178 -0.24727722 0.0017044812 0
-0.02055895 -0.24782063 0.0038503441 0
-0.027750244 -0.24428418 -0.003962771 0
-0.028758951 -0.24465574 -0.0013161433 0
-0.028766433 -0.24428427 0.0016810503 0
-0.027719278 -0.24432285 0.0040113688 0
-0.025658287 -0.24432597 -0.005618169 0
-0.025590643 -0.24431214 0.0056276498 0
-0.02250977 -0.24447922 -0.0052277939 0
-0.022345493 -0.24447879 0.0051694126 0
-0.020693518 -0.24458094 -0.0034639232 0
-0.020082375 -0.24456044 -0.0017299226 0
-0.020103395 -0.24421895 0.0016227198 0
-0.020685965 -0.24459264 0.0034418646 0
-0.027929131 -0.24139595 -0.0041373232 0
-0.029113211 -0.24134527 -0.001336099 0
-0.029107714 -0.24164821 0.0014141847 0
-0.027911058 -0.24148771 0.0041456893 0
-0.025510132 -0.24143872 -0.0057474389 0
-0.025625464 -0.24140118 0.0057078656 0
-0.02223043 -0.24149446 -0.0047923294 0
-0.022272505 -0.24158099 0.0048797908 0
-0.020821823 -0.24143609 -0.003308313 0
-0.020357553 -0.24156313 -0.0017262739 0
-0.020340076 -0.24141115 0.0015627096 0
-0.020833636 -0.24146093 0.0032407914 0
-0.027625913 -0.23888834 -0.00404196 0
-0.028620699 -0.23861139 -0.0015901979 0
-0.0286327 -0.238574 0.0015443678 0
-0.02769056 -0.23896068 0.00400258 0
-0.025621431 -0.23846029 -0.0055032107 0
-0.025697935 -0.2385103 0.005502454 0
-0.022451099 -0.23846518 -0.0053800442 0
-0.022425497 -0.23866275 0.0053679287 0
-0.020562151 -0.23805347 -0.003848165 0
-0.019751329 -0.23846814 -0.0016922448 0
-0.019672161 -0.23825659 0.0015608824 0
-0.02050931 -0.23840965 0.0036572665 0
-0.027282404 -0.23592311 -0.0034614236 0
-0.027839098 -0.23543996 -0.0015502813 0
-0.027798826 -0.23543566 0.0016655085 0
-0.027276989 -0.23568906 0.0033761354 0
-0.025703005 -0.23553875 -0.0050064288 0
-0.025664037 -0.23568033 0.0050501614 0
-0.022460766 -0.23555385 -0.0057197781 0
-0.022395212 -0.2354887 0.005730798 0
-0.020123743 -0.23558038 -0.0040944791 0
-0.018938404 -0.2355026 -0.001361989 0
-0.01887426 -0.23534212 0.001372259 0
-0.020011967 -0.23538329 0.0040192623 0
-0.027249971 -0.23263334 -0.00099778373 0
-0.027263455 -0.23295507 0.0013214042 0
-0.0255327 -0.23272245 -0.0045661409 0
-0.026790462 -0.23181178 -0.0020866436 0
-0.026733249 -0.23172177 0.0021546909 0
-0.02538904 -0.23245379 0.0045847218 0
-0.02251368 -0.23231077 -0.0058863224 0
-0.022450389 -0.2325654 0.0058515808 0
-0.019626863 -0.23243287 -0.0043922123 0
-0.018310783 -0.23278975 -0.0017679498 0
-0.018324383 -0.23282143 0.0017828575 0
-0.019703202 -0.23247065 0.0044873194 0
-0.017853998 -0.23151107 -0.0010241477 0
-0.017818635 -0.23157838 0.00082216022 0
-0.025165474 -0.22948427 -0.0041061821 0
-0.026342466 -0.22956042 -0.0015132317 0
-0.026239244 -0.22918031 0.0015921867 0
-0.025054889 -0.22951443 0.00424521 0
-0.022437008 -0.22948948 -0.0058022956 0
-0.022538783 -0.22950743 0.0057986793 0
-0.01927154 -0.22945458 -0.0047132848 0
-0.01807731 -0.23069243 -0.0029584526 0
-0.018142344 -0.23098275 0.0029227713 0
-0.019318519 -0.22963695 0.0047579934 0
-0.017869085 -0.22878182 -0.0033933488 0
-0.017420147 -0.2294721 -0.0015253706 0
-0.017375609 -0.22953165 0.0012716162 0
-0.017839875 -0.22876091 0.0033758942 0
-0.024622569 -0.22685452 -0.0039799749 0
-0.025643185 -0.22667889 -0.0013874229 0
-0.025552718 -0.22656716 0.0016682047 0
-0.024561219 -0.22655982 0.0039650626 0
-0.022445252 -0.22626467 -0.0055647539 0
-0.022463027 -0.22644255 0.0055867829 0
-0.019551439 -0.22666435 -0.0054464536 0
-0.019249691 -0.22668743 0.0052750278 0
-0.017549584 -0.22635309 -0.0038504903 0
-0.016716849 -0.22664516 -0.0016383237 0
-0.016685244 -0.2265123 0.0016323962 0
-0.017578188 -0.22631875 0.0038905004 0
-0.024241358 -0.22407892 -0.0034866929 0
-0.02477227 -0.22352864 -0.0016522165 0
-0.024758585 -0.22333911 0.0014854819 0
-0.024241213 -0.22388917 0.0034092264 0
-0.022428378 -0.22336198 -0.005176838 0
-0.022620676 -0.22341658 0.0050072032 0
-0.019414084 -0.22345191 -0.0057125757 0
-0.019400392 -0.22343469 0.0057206294 0
-0.017037097 -0.22339514 -0.0041606268 0
-0.015872382 -0.22359595 -0.001721406 0
-0.015830966 -0.22355053 0.001560246 0
-0.017131399 -0.223362 0.0042951559 0
-0.01493953 -0.2221027 0.00076136895 0
-0.024255989 -0.22107075 -0.0012430485 0
-0.024227483 -0.22104135 0.0013462504 0
-0.022429366 -0.22069936 -0.004518766 0
-0.023725586 -0.21995595 -0.0019727505 0
-0.023763334 -0.21990465 0.0018489736 0
-0.022379326 -0.22081149 0.0045909444 0
-0.01941156 -0.22050503 -0.0058671613 0
-0.019466754 -0.22068173 0.0058239 0
-0.016538724 -0.22064456 -0.0049421899 0
-0.015269342 -0.22185306 -0.0027728453 0
-0.015143893 -0.22189637 0.0023760258 0
-0.016361266 -0.2207388 0.0047979318 0
-0.014278402 -0.21973243 -0.0035506163 0
-0.013901286 -0.22042093 -0.0015047899 0
-0.013966043 -0.22050793 0.0014448685 0
-0.014453533 -0.2199052 0.0036350223 0
-0.021690469 -0.21812136 -0.0038076674 0
-0.022358937 -0.21754119 -0.0014293744 0
-0.022503164 -0.21771269 0.0014045415 0
-0.02164311 -0.21811736 0.0038526899 0
-0.019525841 -0.21736367 -0.0051139453 0
-0.020859497 -0.21601917 -0.0028053185 0
-0.020913359 -0.2161698 0.0029565671 0
-0.019544128 -0.21718743 0.0050516962 0
-0.016560815 -0.2176227 -0.0058270753 0
-0.016460154 -0.21743588 0.0058247591 0
-0.013606477 -0.21743625 -0.0045182253 0
-0.012384238 -0.21834216 -0.0013821357 0
-0.012594468 -0.21851173 0.0017150879 0
-0.01347392 -0.21739958 0.0044070617 0
-0.011720398 -0.21649809 -0.0032299827 0
-0.011362239 -0.2169261 -0.0012818794 0
-0.011267086 -0.21673535 0.0014735278 0
-0.011791935 -0.21627532 0.00355928 0
-0.021106523 -0.21554773 -0.0008385246 0
-0.021293717 -0.21585181 0.00090175733 0
-0.019175328 -0.21486513 -0.0040272241 0
-0.020099878 -0.21437503 -0.0015062663 0
-0.020045776 -0.21427037 0.0014313261 0
-0.019080725 -0.21495017 0.0041729338 0
-0.016827121 -0.21427225 -0.0054177064 0
-0.016619537 -0.21429077 0.0054728515 0
-0.013514334 -0.21461882 -0.0056388024 0
-0.013528868 -0.21457435 0.00561086 0
-0.010942957 -0.21421973 -0.0041974117 0
-0.0098853223 -0.214762 -0.0015765537 0
-0.0098668812 -0.21476389 0.0014302061 0
-0.010996853 -0.21432528 0.0041910456 0
-0.0086799115 -0.21332277 -0.00077103107 0
-0.0087612867 -0.21331657 0.0013602744 0
-0.018033018 -0.21266961 -0.003558683 0
-0.018528694 -0.21214303 -0.0014249997 0
-0.018566249 -0.21210089 0.0011064607 0
-0.01829025 -0.212954 0.0034548678 0
-0.016407382 -0.21155295 -0.0043992293 0
-0.017487159 -0.21083391 -0.0018956852 0
-0.017411215 -0.21069406 0.0017784932 0
-0.016560186 -0.21160749 0.0042830207 0
-0.013326272 -0.2115387 -0.0058233184 0
-0.013707102 -0.21139014 0.0057769306 0
-0.010233749 -0.21163218 -0.0050636199 0
-0.010324663 -0.21147493 0.005175631 0
-0.0082063805 -0.21094774 -0.0037859641 0
-0.0075928285 -0.21150133 -0.0016903661 0
-0.0076000113 -0.21156399 0.0015120568 0
-0.0082156723 -0.21090107 0.0038347719 0
-0.01536856 -0.20917271 -0.0037830684 0
-0.016123049 -0.20871982 -0.0013720221 0
-0.016058413 -0.20858006 0.0012059696 0
-0.015540874 -0.20922506 0.003597992 0
-0.013593281 -0.20847487 -0.0048122676 0
-0.014628437 -0.20712726 -0.0025931161 0
-0.01466546 -0.20723496 0.0027299286 0
-0.013320793 -0.20867795 0.0050849565 0
-0.010353616 -0.20842612 -0.0058847889 0
-0.010670464 -0.20850059 0.0058695027 0
-0.007341275 -0.20825686 -0.0047563366 0
-0.0063320692 -0.20975389 -0.0016354817 0
-0.0063181915 -0.20954844 0.0021123344 0
-0.007556601 -0.20847316 0.0047890251 0
-0.0054874695 -0.20748089 -0.0035008236 0
-0.0051363073 -0.20815861 -0.0013660525 0
-0.0051814122 -0.20818391 0.0014753581 0
-0.0055814222 -0.20742375 0.0036930414 0
-0.01511293 -0.20698327 -0.00033166455 0
-0.012804887 -0.2059228 -0.0040263664 0
-0.013810746 -0.20557231 -0.0016547655 0
-0.013826866 -0.20554115 0.0014937844 0
-0.012878985 -0.20573749 0.0038093929 0
-0.010577746 -0.20535648 -0.0052651311 0
-0.010612081 -0.2054621 0.0053661712 0
-0.0073443395 -0.20567496 -0.0057144258 0
-0.0075630094 -0.20548002 0.0057578189 0
-0.004807475 -0.20546532 -0.0043433057 0
-0.003628178 -0.20611106 -0.0017557758 0
-0.0036253303 -0.20611063 0.0016551544 0
-0.004918477 -0.20534681 0.004487271 0
-0.0028300348 -0.20443098 -0.0030928436 0
-0.0024525528 -0.20480575 -0.0011788274 0
-0.0024757676 -0.20473777 0.0015273101 0
-0.0028927792 -0.20421551 0.0033385346 0
-0.01244341 -0.20345199 -0.0011231656 0
-0.012380832 -0.20349371 0.0014054931 0
-0.012064765 -0.20380434 0.0030811874 0
-0.010450797 -0.20275809 -0.0041359267 0
-0.011342281 -0.20209475 -0.0017458174 0
-0.011307439 -0.2019985 0.0016368026 0
-0.01028483 -0.20274623 0.0043356428 0
-0.0075378409 -0.20258352 -0.0057944455 0
-0.0075750998 -0.20254683 0.00576013 0
-0.0042014918 -0.20279902 -0.0052523785 0
-0.0043931664 -0.20259725 0.0054123225 0
-0.0021165132 -0.20223457 -0.0040946985 0
-0.0010047749 -0.20287789 -0.0015676154 0
-0.00086499844 -0.20276098 0.0014323351 0
-0.002044315 -0.20226923 0.0040687216 0
0.00034356819 -0.20141686 -0.00099410722 0
0.00037959148 -0.20128818 0.0012757472 0
-0.0095758922 -0.2000155 -0.0037075647 0
-0.01030732 -0.19956289 -0.0015024579 0
-0.010337906 -0.19963528 0.0014864835 0
-0.0095058326 -0.19977476 0.003657846 0
-0.0076346775 -0.19949444 -0.0051394999 0
-0.0077803023 -0.19928764 0.0049125594 0
-0.0043976177 -0.19944686 -0.0058966507 0
-0.004614959 -0.19926448 0.0059028571 0
-0.0012902888 -0.19965829 -0.0048777224 0
-0.001394889 -0.19952877 0.0050981808 0
0.00063332729 -0.19907382 -0.0038444654 0
0.0017164927 -0.19948424 -0.0016098141 0
0.0016333535 -0.19964388 0.0014589501 0
0.00053984189 -0.19914116 0.0039050663 0
0.0030571856 -0.19813561 -0.00078621448 0
0.0031323982 -0.19812852 0.00022675915 0
-0.0090370439 -0.19760801 -0.0031061333 0
-0.0094084274 -0.1967013 -0.0013239448 0
-0.0094079459 -0.19665717 0.0012428827 0
-0.0091424063 -0.19789581 0.0031155008 0
-0.0074915518 -0.1965526 -0.0042882725 0
-0.0086266389 -0.19576563 -0.0025796655 0
-0.0088031264 -0.19564927 0.0020894823 0
-0.0075389603 -0.19671217 0.0042377841 0
-0.004600835 -0.19660451 -0.005722471 0
-0.0046200221 -0.19652654 0.0056603826 0
-0.0013837091 -0.19650385 -0.0057768929 0
-0.001496652 -0.19644389 0.0058260346 0
0.0015182485 -0.19664916 -0.0045160991 0
0.002882109 -0.19770877 -0.0023865032 0
0.0028743483 -0.19765711 0.0024444596 0
0.0015778099 -0.19661629 0.0045660343 0
0.0035455725 -0.19571353 -0.0035844669 0
0.0041070026 -0.19656995 -0.0015170909 0
0.0042954674 -0.19625771 0.0016254125 0
0.0037810365 -0.19559972 0.0034559299 0
-0.009054753 -0.19492024 -7.3070405e-05 0
-0.0070509259 -0.19370776 -0.0036551964 0
-0.0081738243 -0.19333577 -0.0015035874 0
-0.0081684338 -0.19353671 0.001736374 0
-0.0068533449 -0.19365056 0.003802266 0
-0.0044914386 -0.19359702 -0.0052548698 0
-0.0046234387 -0.19348103 0.0051631141 0
-0.0015405647 -0.19354136 -0.00590639 0
-0.001546846 -0.19366109 0.0059043136 0
0.0015090423 -0.19358262 -0.0055908128 0
0.0017677239 -0.19365627 0.0055144839 0
0.0043403618 -0.19337429 -0.0043094861 0
0.0056411354 -0.19449638 -0.0017585839 0
0.0057350607 -0.19443457 0.0016756207 0
0.0043672821 -0.19335383 0.0043354761 0
0.0061894385 -0.19288653 -0.0030794656 0
0.0067112865 -0.19312875 -0.0015305789 0
0.0067271483 -0.19308859 0.0014258588 0
0.0063055521 -0.19275513 0.0030767883 0
-0.0066896002 -0.19041562 -0.0037614349 0
-0.0075653596 -0.19052064 -0.0015549603 0
-0.0075727091 -0.19062211 0.0015961786 0
-0.0065062195 -0.19063459 0.0040243575 0
-0.0045431568 -0.19046672 -0.0051604053 0
-0.0047047613 -0.19072308 0.0051286882 0
-0.0012774422 -0.19024794 -0.005889181 0
-0.0015107022 -0.19036037 0.0058594192 0
0.0014527836 -0.19029365 -0.005739158 0
0.0015600972 -0.19067276 0.0057182037 0
0.0044661658 -0.19077513 -0.004870906 0
0.004489556 -0.19049889 0.0048934021 0
0.0061972649 -0.19026947 -0.0035669652 0
0.0068810238 -0.19060506 -0.0013718873 0
0.0067367796 -0.19052958 0.0017228581 0
0.0061647347 -0.1899469 0.0034508137 0
-0.0064916685 -0.18750739 -0.003970982 0
-0.0069594202 -0.18730977 -0.0015170908 0
-0.0069974251 -0.18750186 0.0016066605 0
-0.0064519215 -0.18735133 0.0040981215 0
-0.0044691605 -0.18748812 -0.0053442996 0
-0.0044270186 -0.18760508 0.0053439275 0
-0.0017102994 -0.18759383 -0.005805321 0
-0.0015207728 -0.18727987 0.0058245859 0
0.0014682582 -0.18768702 -0.0057391045 0
0.0015414159 -0.1876778 0.0057434184 0
0.0047226697 -0.18750538 -0.0050261491 0
0.0059403004 -0.18663199 -0.0027673515 0
0.0059563322 -0.18683182 0.0026980413 0
0.0047358884 -0.18736716 0.0049100164 0
0.0061121532 -0.18802041 -0.0037448257 0
0.0064624096 -0.18747613 -0.0016422572 0
0.0065331375 -0.18767309 0.0014230378 0
0.0061133499 -0.18747196 0.0039820164 0
-0.0062282397 -0.18466528 -0.0042719883 0
-0.0065362481 -0.18478872 -0.0014128839 0
-0.0065285214 -0.18449889 0.001359196 0
-0.0062232479 -0.18455707 0.0042498899 0
-0.0046302229 -0.18435629 -0.0053422446 0
-0.0059631481 -0.18418314 -0.0027554503 0
-0.0059169303 -0.18343905 0.0026684268 0
-0.0047226078 -0.18446107 0.0051762844 0
-0.0013766686 -0.18448524 -0.005823751 0
-0.001382591 -0.18451339 0.0058134636 0
0.001624865 -0.18439223 -0.0057041561 0
0.0014302562 -0.18435435 0.0057468838 0
0.0049290038 -0.18445191 -0.0048759398 0
0.0058209104 -0.18450038 -0.002598793 0
0.0058308612 -0.18451174 0.0024801753 0
0.0048830211 -0.18435767 0.0050042109 0
0.0060773175 -0.18456787 -0.0048005441 0
0.0063315597 -0.18482837 -0.0011505889 0
0.0063086511 -0.18442644 0.0010642337 0
0.0060779206 -0.18470693 0.0047428985 0
-0.0060860976 -0.18201214 -0.0053370646 0
-0.0061980556 -0.18190731 -0.00087155018 0
-0.0061977012 -0.18214589 0.0010686399 0
-0.0060921959 -0.18170223 0.00560376 0
-0.0049321698 -0.1812938 -0.0049596964 0
-0.0057685343 -0.1808487 -0.0019728332 0
-0.0057945531 -0.1811426 0.0021190443 0
-0.0050681448 -0.18126625 0.0049269511 0
-0.004834753 -0.18011963 0.0060006343 0
-0.0017294976 -0.18145934 -0.005744454 0
-0.0014901696 -0.18131259 0.0057740794 0
-0.0014873443 -0.18010935 0.0060006464 0
0.00141911 -0.18136662 -0.0057689669 0
0.0016641243 -0.18170998 0.0056841346 0
0.0021839759 -0.18007146 0.0060006599 0
0.0049660308 -0.18150744 -0.0049392618 0
0.0057658632 -0.18117754 -0.0020029705 0
0.0057045678 -0.18124993 0.0021265601 0
0.0049875225 -0.18140505 0.0050563929 0
0.006009555 -0.1814952 -0.005308263 0
0.0061089732 -0.181913 -0.00077123207 0
0.0060988092 -0.18171316 0.00071888173 0
0.0060136355 -0.18138129 0.0053563318 0
-0.0060000038 -0.17823796 0.00090846489 0
-0.0051476499 -0.17849809 -0.0053576571 0
-0.0059999935 -0.17856406 -0.0014021017 0
-0.0060000061 -0.17858484 0.0015845478 0
-0.0060000164 -0.17840719 0.0045926115 0
-0.0043619401 -0.1784455 0.0060006324 0
-0.0013831112 -0.17853966 -0.0059993602 0
-0.0016037037 -0.17844215 0.0060006427 0
0.0022030729 -0.17919973 -0.0059993439 0
0.0012552243 -0.17846295 -0.0059993481 0
0.0021362163 -0.17849553 0.0060006538 0
0.0014759086 -0.17838435 0.0060006501 0
0.0040215249 -0.17939866 -0.0059993365 0
0.0047605564 -0.17854324 -0.0058711893 0
0.0059999968 -0.1782088 0.0007433581 0
0.0047714342 -0.1785901 0.0060006636 0
0.0044965758 -0.17848589 0.0060006622 0
0.0060000164 -0.17869757 -0.0043150238 0
0.0060000042 -0.17857753 -0.0013184955 0
0.0059999931 -0.17836937 0.0016610428 0
0.0059999838 -0.17854071 0.0043533738 0
-0.0059999819 -0.17550962 -0.0051368787 0
-0.0060000024 -0.17615421 0.00057256303 0
-0.0052264249 -0.17552635 -0.0052634301 0
-0.0059999959 -0.17554833 -0.0016146288 0
-0.0060000084 -0.17535479 0.0016245536 0
-0.0060000168 -0.17539583 0.0048876349 0
-0.0044910321 -0.17546175 0.0060006185 0
-0.0012956467 -0.1754605 -0.0059993677 0
-0.0014541984 -0.17559721 0.006000632 0
0.0014779436 -0.17451204 -0.0059993635 0
0.0014759059 -0.17557362 -0.0059993579 0
0.0020387706 -0.17464198 0.0060006394 0
0.0015260874 -0.17558961 0.0060006427 0
0.0044073495 -0.17614369 -0.0059993472 0
0.0045010396 -0.17552352 -0.0059578619 0
0.0059999977 -0.17459141 0.00049594103 0
0.0044841864 -0.1750377 0.0060006496 0
0.0041822144 -0.1754566 0.0060006492 0
0.0060000145 -0.17557314 -0.0043172007 0
0.0060000056 -0.17528632 -0.0015106678 0
0.005999994 -0.17543121 0.0013350719 0
0.0059999828 -0.17532964 0.0044220146 0
-0.0060000024 -0.17115739 0.00054303167 0
-0.0053071957 -0.17247435 -0.005172309 0
-0.0059999921 -0.17233314 -0.0016643573 0
-0.0060000042 -0.17277978 0.0015164822 0
-0.006000014 -0.17251505 0.0044318186 0
-0.0044171396 -0.17241839 0.0060006077 0
-0.0014483681 -0.17228574 -0.0059993817 0
-0.0015296395 -0.17220183 0.0060006166 0
0.0026303397 -0.17111313 -0.0059993719 0
0.0016687729 -0.17272155 -0.0059993672 0
0.0024537856 -0.17238139 0.0060006324 0
0.0017256389 -0.17264429 0.0060006296 0
0.0048857299 -0.17281218 -0.0059993574 0
0.00454285 -0.17247571 -0.0059909006 0
0.0046851817 -0.17110001 0.0060006357 0
0.0043387045 -0.17232563 0.0060006385 0
0.0060000145 -0.17251904 -0.0044111735 0
0.0060000042 -0.17232811 -0.0015104726 0
0.0059999935 -0.1723846 0.0014741275 0
0.0059999838 -0.17253277 0.0046488419 0
-0.0059999847 -0.16915251 -0.0043090051 0
-0.0052658757 -0.16961542 -0.0053567295 0
-0.0059999931 -0.16947614 -0.0016162382 0
-0.0060000061 -0.16931073 0.0016301165 0
-0.0060000164 -0.16932444 0.0045652157 0
-0.0044376887 -0.16935843 0.0060005966 0
-0.0015369297 -0.16953082 -0.00599939 0
-0.0013855394 -0.16959484 0.0060006087 0
0.0016037613 -0.1697823 -0.0059993803 0
0.0015571131 -0.16925962 -0.0059993831 0
0.0014275599 -0.16959089 0.006000618 0
0.004396135 -0.16879198 -0.0059993737 0
0.0046310411 -0.16923559 -0.0058830832 0
0.0045274324 -0.16951063 0.0060006301 0
0.0046338416 -0.16949001 0.0060006306 0
0.0060000154 -0.16935672 -0.0043315664 0
0.0060000061 -0.16944809 -0.0017260683 0
0.0059999959 -0.16940355 0.0013217612 0
0.0059999833 -0.16964087 0.00438233 0
-0.005999987 -0.16700427 -0.0036752983 0
-0.0060000094 -0.16529219 0.0024027941 0
-0.0052777599 -0.16648471 -0.0052812262 0
-0.0059999973 -0.16652507 -0.001408358 0
-0.0060000033 -0.166467 0.0014040173 0
-0.0060000154 -0.16637193 0.0045693382 0
-0.0044274116 -0.16651347 0.0060005891 0
-0.0013805665 -0.16633306 -0.0059994026 0
-0.0014766749 -0.16632709 0.0060005994 0
0.0022272202 -0.1669229 -0.0059993882 0
0.0014523368 -0.1665846 -0.0059993947 0
0.0015104138 -0.16673185 0.0060006096 0
0.0043145246 -0.16668603 -0.0059993812 0
0.0045540542 -0.16666916 -0.005947331 0
0.0059999931 -0.16631469 0.0018786649 0
0.0059649646 -0.16764404 0.0060006278 0
0.004480239 -0.16635244 0.006000618 0
0.0060000168 -0.16623002 -0.0044516218 0
0.0060000042 -0.16655399 -0.0016651554 0
0.0059999973 -0.16639875 0.0013652559 0
0.0059999828 -0.16657381 0.0044352682 0
-0.0059999824 -0.16422461 -0.0050595812 0
-0.0059999907 -0.16425212 -0.0026432888 0
-0.006000007 -0.1634323 0.0017968136 0
-0.0050528916 -0.16356105 -0.0054581189 0
-0.005999994 -0.16354355 -0.001618771 0
-0.0060000066 -0.16337053 0.0014464074 0
-0.0060000168 -0.16355753 0.0044532944 0
-0.0045429175 -0.16348922 0.0060005742 0
-0.0016003994 -0.16327704 -0.0059994129 0
-0.0013407847 -0.16333167 0.0060005873 0
0.0011218616 -0.16376509 -0.0059994035 0
0.0013500662 -0.16362821 -0.0059994017 0
0.0026163489 -0.16320981 0.0060005998 0
0.0015345896 -0.16339754 0.0060005956 0
0.0047713839 -0.16345422 -0.0059993914 0
0.0045342194 -0.16358157 -0.00590713 0
0.0059999931 -0.16325858 0.0017778078 0
0.0047706519 -0.16392432 0.0060006101 0
0.0047091413 -0.16343474 0.0060006073 0
0.0060000164 -0.16368848 -0.0047076927 0
0.0060000056 -0.16363697 -0.0014998756 0
0.0059999954 -0.16350076 0.0014779813 0
0.0059999833 -0.16338745 0.0044528409 0
-0.0059999833 -0.15988693 -0.0048080781 0
-0.0059999921 -0.15958005 -0.0023153448 0
-0.0052466076 -0.16048776 -0.0052572857 0
-0.0059999963 -0.16083309 -0.0015463174 0
-0.0060000052 -0.16053435 0.001577076 0
-0.0060000173 -0.16056627 0.004386506 0
-0.0043791886 -0.1606323 0.006000564 0
-0.0014621696 -0.16058567 -0.0059994236 0
-0.001555935 -0.16061573 0.0060005775 0
0.0020153073 -0.16107729 -0.0059994101 0
0.0015903797 -0.160329 -0.0059994138 0
0.0013427975 -0.16052495 0.0060005845 0
0.004098468 -0.16038036 -0.0059994049 0
0.0046213381 -0.16052701 -0.0059994021 0
0.005999994 -0.16096209 0.0015259699 0
0.0054598562 -0.15959235 0.006000597 0
0.004400108 -0.16043106 0.0060005952 0
0.0060000145 -0.1603864 -0.0042717829 0
0.0060000066 -0.16063304 -0.001388207 0
0.0059999949 -0.16048104 0.0015066491 0
0.0059999828 -0.1605496 0.0046073864 0
-0.0059999852 -0.15693252 -0.0042251195 0
-0.0052086529 -0.15752043 -0.0053230203 0
-0.0059999945 -0.15753929 -0.0015822701 0
-0.006000007 -0.15755174 0.0015205761 0
-0.006000015 -0.15755615 0.0044599962 0
-0.0043503726 -0.15748326 0.0060005542 0
-0.001498517 -0.15738304 -0.005999438 0
-0.0014941347 -0.15759303 0.0060005672 0
0.0014622357 -0.15757093 -0.0059994259 0
0.0023206372 -0.15718706 0.006000577 0
0.0015806374 -0.15752618 0.0060005775 0
0.0033039113 -0.15835591 -0.0059994152 0
0.0047332034 -0.15757748 -0.0058727255 0
0.005999994 -0.15648578 0.0015198134 0
0.0042970935 -0.1577422 0.0060005859 0
0.0043054181 -0.15756942 0.0060005854 0
0.0060000154 -0.15760261 -0.0043672826 0
0.0060000075 -0.1575017 -0.001648991 0
0.0059999973 -0.15739228 0.0013848791 0
0.0059999861 -0.15743984 0.0044615893 0
-0.0059999828 -0.15425201 -0.0048539834 0
-0.0059999912 -0.15333275 -0.0026213143 0
-0.0060000084 -0.15491085 0.0022054277 0
-0.0050987196 -0.15460102 -0.0053521111 0
-0.0059999959 -0.15436116 -0.0014789333 0
-0.0060000052 -0.15458691 0.0014597091 0
-0.0060000159 -0.15438229 0.0044810656 0
-0.0044806777 -0.15484001 0.0060005449 0
-0.0012712672 -0.15474693 -0.0059994427 0
-0.0015187152 -0.15432557 0.0060005556 0
0.0025084668 -0.15468973 -0.005999431 0
0.0016088602 -0.15434359 -0.0059994352 0
0.0028894965 -0.15507406 0.0060005714 0
0.0014969248 -0.15442078 0.006000563 0
0.0046703783 -0.15457916 -0.0059665618 0
0.0045101345 -0.15438412 0.0060005756 0
0.0060000168 -0.15421018 -0.0046810745 0
0.0060000047 -0.15458575 -0.0013584133 0
0.005999994 -0.15450485 0.001590326 0
0.0059999865 -0.15454686 0.004550695 0
-0.0059999819 -0.15251529 -0.0050931997 0
-0.0059999898 -0.15213554 -0.0028989618 0
-0.0060000098 -0.15070757 0.0025125812 0
-0.0052681672 -0.15158221 -0.0052380231 0
-0.0059999963 -0.15158626 -0.0014295697 0
-0.0060000033 -0.15161255 0.0012924549 0
-0.0060000177 -0.15154669 0.0047214325 0
-0.0045091654 -0.15161622 0.0060005332 0
-0.0016055674 -0.15154576 -0.0059994585 0
-0.0015406334 -0.15151474 0.006000543 0
0.0029586738 -0.15290897 -0.0059994361 0
0.0015134793 -0.15153907 -0.0059994478 0
0.0021964258 -0.15005594 0.0060005509 0
0.0014308625 -0.15153427 0.0060005537 0
0.005055679 -0.15207143 -0.0059994319 0
0.0043927897 -0.15160543 -0.0059565194 0
0.0059999935 -0.15187943 0.0016135446 0
0.0043521528 -0.15170164 0.0060005649 0
0.0042645237 -0.15153627 0.0060005635 0
0.0060000145 -0.15159713 -0.0044363728 0
0.0060000056 -0.15129849 -0.0014784198 0
0.0059999973 -0.15133511 0.0015332325 0
0.0059999842 -0.15147598 0.0044487496 0
-0.0059999847 -0.14809042 -0.0044353022 0
-0.0059999912 -0.14905585 -0.0025110755 0
-0.0051399651 -0.14848883 -0.0053365598 0
-0.0059999977 -0.14833115 -0.0013784068 0
-0.006000008 -0.14859617 0.00150677 0
-0.0060000168 -0.14837711 0.0045117736 0
-0.0044592191 -0.14878941 0.0060005221 0
-0.0015639908 -0.14858142 -0.0059994659 0
-0.001355417 -0.14866307 0.0060005318 0
0.00131802 -0.14918317 -0.0059994557 0
0.0015678903 -0.14850314 -0.0059994571 0
0.0014359191 -0.14846791 0.0060005416 0
0.0037226249 -0.14835423 -0.0059994501 0
0.00466251 -0.14854313 -0.0058766953 0
0.0049794475 -0.14796226 0.0060005533 0
0.0043333811 -0.14834216 0.0060005514 0
0.0060000159 -0.1487637 -0.0044159871 0
0.0060000042 -0.14875279 -0.0014040187 0
0.005999994 -0.14841472 0.0014476178 0
0.0059999833 -0.14837688 0.0043019648 0
-0.0059999879 -0.14495204 -0.0034220621 0
-0.0059999945 -0.14411519 -0.0017106801 0
-0.0052419165 -0.14557663 -0.0052566766 0
-0.0059999935 -0.1453505 -0.0016065596 0
-0.0060000056 -0.14506578 0.0016946847 0
-0.0060000145 -0.14551236 0.0044055562 0
-0.0045828042 -0.14564928 0.0060005109 0
-0.0017051396 -0.14571014 -0.005999479 0
-0.0015458562 -0.14542952 0.0060005235 0
0.0022221531 -0.14608745 -0.0059994636 0
0.0014559083 -0.14554772 -0.0059994678 0
0.0024082817 -0.14545833 0.0060005351 0
0.0015132092 -0.14584434 0.0060005337 0
0.0033121633 -0.14603892 -0.0059994599 0
0.0046506622 -0.14555189 -0.0058964994 0
0.0042647049 -0.14498533 0.0060005402 0
0.0044633872 -0.14563467 0.0060005435 0
0.0060000159 -0.14546205 -0.0042822952 0
0.0060000038 -0.14569569 -0.0015168879 0
0.0059999949 -0.14572851 0.0015648311 0
0.0059999842 -0.14534995 0.0043283016 0
-0.0059999842 -0.14396915 -0.004485026 0
