# .PCD v0.7 - Point Cloud Data file format
VERSION 0.7
FIELDS x y z rgb
SIZE 4 4 4 4
TYPE F F F F
COUNT 1 1 1 1
WIDTH 1190
HEIGHT 1
VIEWPOINT 0 0 0 1 0 0 0
POINTS 1190
DATA ascii
-0.025517913 -0.24457359 0.0060007973 0
-0.023222661 -0.24443962 -0.0059992 0
-0.022196522 -0.24466449 -0.0051527405 0
-0.021685032 -0.2446297 -0.0013645866 0
-0.021724401 -0.24474232 0.0014864588 0
-0.021740643 -0.24503757 0.0043514697 0
-0.022904955 -0.24434103 0.0060008019 0
-0.020696057 -0.24334925 -0.0042428798 0
-0.020723246 -0.24338278 -0.002006727 0
-0.020770162 -0.24330935 0.0016142331 0
-0.020761412 -0.24345478 0.0044890903 0
-0.020855056 -0.24334015 0.0060008056 0
0.082267329 -0.24438836 -0.0049993149 0
0.081744388 -0.24445498 -0.0017080371 0
0.081779681 -0.24473751 0.0017328482 0
0.08181113 -0.24444428 0.0044766646 0
0.082922362 -0.24449602 0.0060011852 0
0.086009629 -0.24455269 -0.0051256842 0
0.086605325 -0.24462751 -0.0014771475 0
0.086587757 -0.24447751 0.0015458517 0
0.086553812 -0.24436215 0.0045139338 0
0.085225254 -0.24451804 0.0060011921 0
-0.027301976 -0.24230671 -0.0043024793 0
-0.027270803 -0.24224196 -0.0016443337 0
-0.027294965 -0.24228969 0.0015039914 0
-0.027398478 -0.24249426 0.0043302886 0
-0.027092781 -0.24236622 0.0060007791 0
-0.025897108 -0.24130882 -0.0053883167 0
-0.026547763 -0.24081288 -0.0014044599 0
-0.026583381 -0.24088326 0.0017969426 0
-0.026568912 -0.24085465 0.0042461911 0
-0.025253754 -0.24155642 0.0060007861 0
-0.022966838 -0.24073575 -0.0059992126 0
-0.022561727 -0.2415655 -0.0059992098 0
-0.021107849 -0.24239102 -0.00026287927 0
-0.021069761 -0.24212234 0.00016647021 0
-0.023023564 -0.24232154 0.0060007935 0
-0.022496406 -0.24174133 0.0060007949 0
-0.019772364 -0.24140728 -0.0050023291 0
-0.019705959 -0.24126871 -0.0015631058 0
-0.019739006 -0.24132916 0.0015826612 0
-0.019608181 -0.24156415 0.0046585095 0
-0.020188347 -0.24097568 0.0060007982 0
0.082599327 -0.24157077 -0.0059988271 0
0.082053363 -0.24141991 -0.0054034749 0
0.081381731 -0.24155381 -0.0016142363 0
0.081329554 -0.24113642 0.0013588066 0
0.081377491 -0.24151993 0.0044335164 0
0.082728408 -0.24151559 0.0060011763 0
0.085143335 -0.24174732 -0.0059988173 0
0.085841857 -0.24150267 -0.0050397958 0
0.086234555 -0.24146111 -0.0014899635 0
0.086236872 -0.24148086 0.0015097688 0
0.086231701 -0.24143693 0.0045196251 0
0.085053533 -0.24145575 0.0060011833 0
-0.025113774 -0.23841119 -0.004957478 0
-0.025339305 -0.23842435 -0.0014571688 0
-0.025408138 -0.23856036 0.0015199897 0
-0.025314484 -0.23837523 0.0044880607 0
-0.024834625 -0.23874313 0.0060007735 0
-0.021016659 -0.2384894 -0.0059992131 0
-0.022654984 -0.23840065 -0.0059992196 0
-0.02248984 -0.23837505 0.0060007838 0
-0.019377252 -0.23801291 -0.0059992094 0
-0.019220145 -0.23874804 -0.0053594094 0
-0.018715544 -0.23896344 -0.001054242 0
-0.018725811 -0.23872948 0.00085771357 0
-0.018416924 -0.23939814 0.0046712025 0
-0.019590195 -0.23836237 0.0060007926 0
-0.017358281 -0.23790857 -0.0047406843 0
-0.017515996 -0.23785259 -0.001940822 0
-0.017504646 -0.23781134 0.001804193 0
-0.017418532 -0.23805171 0.0046394747 0
-0.017572124 -0.2378699 0.0060007977 0
0.080912367 -0.23779874 -0.0044100126 0
0.080906823 -0.23775448 -0.0015243639 0
0.080906011 -0.2377481 0.001515373 0
0.080895573 -0.23766479 0.0046438091 0
0.080906369 -0.23719962 0.0060011516 0
0.083655313 -0.23854892 -0.0059988345 0
0.082214251 -0.23864393 -0.0055930722 0
0.081091315 -0.23923029 -0.0014950306 0
0.081088632 -0.2392091 0.0015141541 0
0.08138252 -0.23911466 0.0047557256 0
0.082669534 -0.23849256 0.0060011633 0
0.085107975 -0.23799767 -0.0059988308 0
0.085505925 -0.23854437 -0.0050053201 0
0.08587189 -0.23836383 -0.0016154567 0
0.085893907 -0.23855209 0.0012587619 0
0.085886486 -0.23848866 0.0044947746 0
0.084834069 -0.23844516 0.0060011689 0
-0.024302199 -0.23642406 -0.0045168009 0
-0.024256229 -0.23628365 -0.0015735351 0
-0.024311842 -0.23639356 0.0016253839 0
-0.024263162 -0.23632787 0.0044972776 0
-0.024129339 -0.23642872 0.0060007689 0
-0.022698352 -0.23532264 -0.005604919 0
-0.023534322 -0.23485675 -0.0015496459 0
-0.023503929 -0.23479664 0.0014122968 0
-0.023530364 -0.23500201 0.0047514918 0
-0.022415888 -0.23556592 0.0060007717 0
-0.020686785 -0.23657921 -0.0059992191 0
-0.019511087 -0.23550504 -0.0059992196 0
-0.018149657 -0.23639756 -0.00018514621 0
-0.018179826 -0.23649141 0.00020409477 0
-0.018946623 -0.23576994 0.0060007852 0
-0.019394392 -0.23527257 0.006000781 0
-0.016145121 -0.2354317 -0.0048486963 0
-0.016467156 -0.23541509 -0.0015204774 0
-0.016348906 -0.23531616 0.001575107 0
-0.015841559 -0.23548923 0.0044522439 0
-0.016770059 -0.23525843 0.0060007898 0
-0.014926525 -0.23402387 -0.0040795687 0
-0.014992531 -0.23413055 -0.0023383608 0
-0.014955224 -0.23407018 0.0048463 0
0.080623068 -0.23546186 -0.0048065134 0
0.080608487 -0.23536782 -0.001281069 0
0.080630064 -0.23554054 0.0013655588 0
0.080622368 -0.23547895 0.0046489844 0
0.080854632 -0.23552264 0.006001146 0
0.082547143 -0.23547114 -0.0059988503 0
0.082233526 -0.2349408 0.0060011474 0
0.082339436 -0.23555049 0.0060011526 0
0.085296556 -0.23558682 -0.0059988392 0
0.085317381 -0.23556922 -0.0049126521 0
0.085532583 -0.23546629 -0.0015499516 0
0.085546032 -0.23558125 0.0014833887 0
0.085524194 -0.23539479 0.0045488225 0
0.084722511 -0.23551688 0.0060011582 0
-0.022143736 -0.23257452 -0.0051660356 0
-0.02231372 -0.23244423 -0.0016818771 0
-0.022285601 -0.2323886 0.0015292331 0
-0.022412524 -0.23263946 0.0044215946 0
-0.021744119 -0.23266619 0.0060007623 0
-0.019220533 -0.23229627 -0.0059992289 0
-0.019560901 -0.23255602 0.0060007693 0
-0.016585922 -0.23230018 -0.0059992205 0
-0.01584441 -0.23289885 -0.00071815227 0
-0.015749432 -0.23279752 0.00076336256 0
-0.016533442 -0.23227924 0.0060007805 0
-0.016665522 -0.23271526 0.0060007833 0
-0.01407636 -0.23240685 -0.0048486218 0
-0.014217388 -0.23211943 -0.002056869 0
-0.014337906 -0.23233415 0.002056889 0
-0.013958214 -0.23245873 0.004568934 0
-0.014399844 -0.23221456 0.0060007875 0
0.080300286 -0.23239024 -0.0047657047 0
0.080237314 -0.23239851 -0.0016467024 0
0.08026053 -0.23258427 0.0015486209 0
0.080265105 -0.23262098 0.0045538815 0
0.080601342 -0.23225701 0.0060011325 0
0.082784809 -0.23292357 -0.0059988573 0
0.082494222 -0.23236391 -0.0059988624 0
0.081032522 -0.23348665 0.0060011381 0
0.082513362 -0.23252681 0.0060011428 0
0.0849756 -0.23247731 -0.00509544 0
0.085197233 -0.23260231 -0.0014100401 0
0.085183702 -0.23248689 0.0017011331 0
0.085201636 -0.23264019 0.004538958 0
0.084600911 -0.23272632 0.0060011479 0
-0.021268507 -0.23042572 -0.0047346312 0
-0.021225853 -0.23029408 -0.0018423963 0
-0.021369796 -0.23057856 0.0015830914 0
-0.021295957 -0.23043258 0.0046151024 0
-0.021237779 -0.23057261 0.0060007577 0
-0.019780476 -0.22933482 -0.005528064 0
-0.020558046 -0.22897415 -0.0014770523 0
-0.020568671 -0.22899513 0.0011168343 0
-0.020625971 -0.22916952 0.0046628425 0
-0.019166209 -0.22951832 0.0060007633 0
-0.017408915 -0.23077536 -0.005999228 0
-0.016483797 -0.22937718 -0.0059992317 0
-0.015187754 -0.23058124 -0.00020084863 0
-0.015211704 -0.23067801 0.00022747667 0
-0.015091059 -0.22922184 0.0060007749 0
-0.016657393 -0.22945474 0.006000774 0
-0.01299291 -0.22977056 -0.005118263 0
-0.013373564 -0.22952226 -0.0014825555 0
-0.0133447 -0.22957592 0.0015497888 0
-0.012517705 -0.23013037 0.0042981175 0
-0.013473784 -0.22917993 0.0060007796 0
-0.011625844 -0.22868599 -0.0043473896 0
-0.011570336 -0.2282449 -0.0026498537 0
-0.011664615 -0.22837447 0.0026077481 0
-0.011713353 -0.22883031 0.0043000202 0
-0.011656028 -0.22843845 0.0060007847 0
0.080060236 -0.2296495 -0.0049267826 0
0.079858609 -0.22936882 -0.0014468948 0
0.079870537 -0.22946428 0.0014605481 0
0.079896986 -0.22949985 0.0044300216 0
0.080428794 -0.22931705 0.0060011204 0
0.082671344 -0.22941235 -0.0059988741 0
0.082516029 -0.22948682 0.0060011344 0
0.084719308 -0.22936447 -0.0047795423 0
0.08483573 -0.22951512 -0.0016135145 0
0.084843352 -0.22958028 0.0014947027 0
0.084845617 -0.22959991 0.0043466175 0
0.084452756 -0.22960216 0.0060011363 0
-0.019145707 -0.22652678 -0.0047637513 0
-0.019264352 -0.22641711 -0.0015069555 0
-0.019208865 -0.22630748 0.0014802248 0
-0.019318752 -0.22652462 0.0044216155 0
-0.018797001 -0.22691707 0.0060007526 0
-0.016443416 -0.22674035 -0.0059992392 0
-0.017703107 -0.22622982 0.0060007544 0
-0.016504209 -0.22628604 0.0060007628 0
-0.013303222 -0.22649263 -0.0059992312 0
-0.012755563 -0.22668508 -0.00065946148 0
-0.012795703 -0.22692686 0.00074335543 0
-0.013613946 -0.22552647 0.0060007665 0
-0.013474511 -0.22631185 0.0060007726 0
-0.010515573 -0.22647312 -0.0050576562 0
-0.011097492 -0.22619583 -0.002069701 0
-0.011119529 -0.22624396 0.0020752491 0
-0.010236012 -0.22641347 0.0044361767 0
-0.011000011 -0.2263198 0.0060007777 0
0.079696171 -0.22650836 -0.0048496858 0
0.079489455 -0.22641562 -0.0016130233 0
0.079506882 -0.22655503 0.0012917399 0
0.079485387 -0.22638305 0.0043884357 0
0.080286302 -0.22669704 0.0060011102 0
0.081358068 -0.2251226 -0.0059988913 0
0.082497619 -0.22655648 -0.0059988829 0
0.082373559 -0.22645335 0.006001119 0
0.084469393 -0.22668059 -0.0045011607 0
0.084492311 -0.22658224 -0.0015320696 0
0.084480792 -0.226484 0.0015284481 0
0.084484354 -0.22651443 0.0044372571 0
0.084272675 -0.22615565 0.0060011242 0
-0.018285336 -0.22453026 -0.0047619804 0
-0.018324589 -0.22455968 -0.0011944829 0
-0.018297067 -0.22450525 0.0015572924 0
-0.018300071 -0.22451118 0.0045459224 0
-0.018142136 -0.22445539 0.006000747 0
-0.015427401 -0.22465171 -0.0059992434 0
-0.01693204 -0.22332278 -0.0053048222 0
-0.017528918 -0.22298706 -0.0013109427 0
-0.017512223 -0.22295402 0.0014224026 0
-0.017456418 -0.22287515 0.0047129472 0
-0.016275013 -0.22365804 0.006000753 0
-0.013470947 -0.22328746 -0.005999241 0
-0.0122203 -0.22468519 -0.0001817155 0
-0.012039906 -0.22400746 2.0340362e-05 0
-0.013499484 -0.2234645 0.0060007637 0
-0.010215376 -0.22372581 -0.0056009991 0
-0.01032192 -0.22355886 -0.0015095413 0
-0.010383613 -0.22352505 0.001432282 0
-0.0091767311 -0.22469485 0.0048465407 0
-0.010510331 -0.22339506 0.0060007721 0
-0.0082421638 -0.22293627 -0.0048474669 0
-0.0086624846 -0.2226162 -0.0026914477 0
-0.0086354306 -0.22271824 0.0027717922 0
-0.0082892505 -0.22321288 0.0044497908 0
-0.0085144397 -0.22304624 0.0060007772 0
0.07964424 -0.22353154 -0.0052836305 0
0.079126082 -0.22350855 -0.0014657103 0
0.079135373 -0.22358304 0.0016566227 0
0.079143517 -0.22364825 0.0046033035 0
0.080046244 -0.2237376 0.0060010981 0
0.082908176 -0.22318865 -0.005845353 0
0.083977729 -0.22218771 -0.0017308947 0
0.083972663 -0.22214457 0.0015330284 0
0.083975762 -0.22217117 0.0045385277 0
0.082497507 -0.22355136 0.0060011107 0
0.084150217 -0.22366886 -0.0045856251 0
0.084163174 -0.22377141 -0.0015539541 0
0.084138006 -0.22355664 0.0013568819 0
0.0841785 -0.22390245 0.0045228028 0
0.084082492 -0.22425216 0.0060011162 0
-0.016115973 -0.22060412 -0.0049439385 0
-0.016264115 -0.22048713 -0.0015634268 0
-0.016302779 -0.22056349 0.0016821853 0
-0.01626005 -0.22049509 0.0044512977 0
-0.015758879 -0.22054382 0.0060007405 0
-0.013486562 -0.22065024 -0.0059992527 0
-0.012973666 -0.21907552 0.0060007456 0
-0.01342889 -0.22045383 0.0060007516 0
-0.010463977 -0.22045605 -0.005999241 0
-0.0097809024 -0.22091778 -0.00071273948 0
-0.0096624438 -0.22071755 0.0007313221 0
-0.010360802 -0.220715 0.0060007637 0
-0.007129672 -0.2204922 -0.005263994 0
-0.0081157368 -0.22030224 -0.0020661375 0
-0.0080413753 -0.22018676 0.0020835267 0
-0.0067788768 -0.22066535 0.0044104555 0
-0.0077248611 -0.22035149 0.0060007693 0
-0.0057798922 -0.21918346 -0.0042900546 0
-0.0057963016 -0.21925634 0.0049925675 0
-0.0059144041 -0.219137 0.0060007721 0
0.0791758 -0.22059725 -0.0050701271 0
0.078734092 -0.2203726 -0.0014325752 0
0.07874541 -0.22046335 0.0013487722 0
0.078756757 -0.22055425 0.0046710535 0
0.079858102 -0.22034927 0.0060010892 0
0.083167568 -0.22046986 -0.0052088643 0
0.083798192 -0.22065441 -0.0014763541 0
0.083774053 -0.22044849 0.0015276336 0
0.083798148 -0.2206542 0.0045521609 0
0.082165629 -0.22041216 0.0060010981 0
-0.015243903 -0.21849065 -0.0047219638 0
-0.015210742 -0.21840511 -0.0014510716 0
-0.015196659 -0.21837726 0.0014289626 0
-0.015298683 -0.21857889 0.0042014215 0
-0.015029036 -0.21869297 0.0060007377 0
-0.013014362 -0.21637483 -0.0059992643 0
-0.014115511 -0.21736892 -0.0050406945 0
-0.014537814 -0.21707503 -0.0014794593 0
-0.014449211 -0.21689998 0.0013802359 0
-0.014473327 -0.21705541 0.0042353142 0
-0.013435516 -0.21737057 0.00600074 0
-0.01160396 -0.21784793 -0.0059992536 0
-0.010445249 -0.2176155 -0.0059992503 0
-0.0091716368 -0.21895416 -0.00032737732 0
-0.0091867764 -0.2185754 0.0001218871 0
-0.01053433 -0.21761291 0.0060007512 0
-0.0074346391 -0.21784486 -0.0058558364 0
-0.0073324712 -0.21748948 -0.0014245956 0
-0.007433238 -0.21762218 0.0013925529 0
-0.0074324771 -0.21734883 0.0060007628 0
-0.0049864007 -0.21743317 -0.0047426922 0
-0.0057120123 -0.21651535 -0.0025516173 0
-0.0057513556 -0.21673721 0.0026262153 0
-0.0048930431 -0.21749264 0.0044487324 0
-0.0051667276 -0.21700625 0.0060007661 0
0.07901185 -0.21755773 -0.0051590968 0
0.078380443 -0.21754348 -0.0015748838 0
0.078360736 -0.21738595 0.0014881225 0
0.078415938 -0.21749216 0.0044721914 0
0.07978294 -0.21755804 0.0060010785 0
0.082922935 -0.21737812 -0.0052094227 0
0.083431579 -0.2175235 -0.00142569 0
0.08342234 -0.2174449 0.0014920316 0
0.08343529 -0.21755557 0.0044150422 0
0.082225107 -0.21747167 0.0060010836 0
-0.013121128 -0.21457642 -0.0050504901 0
-0.013268776 -0.21456686 -0.0015565575 0
-0.013177773 -0.21438694 0.0014102798 0
-0.01319132 -0.21441366 0.0046460559 0
-0.012746934 -0.21488096 0.0060007307 0
-0.010984187 -0.21329612 -0.005999268 0
-0.01035863 -0.21458766 -0.0059992634 0
-0.010373601 -0.21460071 0.0060007428 0
-0.0076032686 -0.21456861 -0.0059992541 0
-0.0066962177 -0.21450984 -0.00055155822 0
-0.0066653197 -0.21490064 0.00078191521 0
-0.0074863685 -0.21437897 0.0060007507 0
-0.0042375596 -0.21463583 -0.0051063937 0
-0.0051469449 -0.21444154 -0.0020662243 0
-0.0051344195 -0.21447249 0.0020959817 0
-0.003607071 -0.21494432 0.0041236528 0
-0.0047159223 -0.21451181 0.0060007619 0
-0.0025319578 -0.21379831 -0.005176445 0
-0.002475075 -0.21377957 0.0050457641 0
-0.0026982613 -0.21376839 0.0060007647 0
0.077909343 -0.2137534 -0.0044649444 0
0.077904485 -0.21373592 -0.0014950428 0
0.077914923 -0.21381946 0.0014032415 0
0.077888332 -0.21360677 0.0042203744 0
0.077969149 -0.21420415 0.0060010576 0
0.08021047 -0.21456291 -0.0059989332 0
0.079244308 -0.2147302 -0.0056922203 0
0.078083813 -0.21517038 -0.0011903462 0
0.078106344 -0.21535082 0.0016400076 0
0.078067742 -0.21504198 0.0043592853 0
0.079479486 -0.21443324 0.0060010646 0
0.08264678 -0.21448961 -0.0052201655 0
0.083095469 -0.21465315 -0.0014906549 0
0.083066769 -0.21440826 0.0014746441 0
0.083066978 -0.21441026 0.0043988121 0
0.082173541 -0.214387 0.0060010725 0
-0.012201591 -0.21248767 -0.004616241 0
-0.012261246 -0.21257542 -0.0013746191 0
-0.01223203 -0.21251766 0.0015393635 0
-0.01221509 -0.21248415 0.0045885132 0
-0.012140202 -0.21268328 0.006000726 0
-0.010450187 -0.21107313 -0.0059992741 0
-0.010888582 -0.21123642 -0.0053689261 0
-0.011446462 -0.21096502 -0.0014838011 0
-0.01140804 -0.21088904 0.0017304609 0
-0.011383775 -0.21107452 0.00450098 0
-0.01000255 -0.21168078 0.0060007297 0
-0.0073277871 -0.21156883 -0.0059992606 0
-0.0061557549 -0.21273521 -0.00019310712 0
-0.0063297292 -0.21279606 5.1455841e-05 0
-0.0075070877 -0.21166082 0.0060007405 0
-0.0046343002 -0.21156493 -0.0059580184 0
-0.0043920856 -0.2115584 -0.0013606721 0
-0.0042418782 -0.21168078 0.001574376 0
-0.0032235372 -0.2126998 0.0031089131 0
-0.0044463519 -0.21131904 0.0060007516 0
-0.00087086362 -0.21018203 -0.0059992429 0
-0.0016688108 -0.21112548 -0.0049200482 0
-0.0027511104 -0.21074238 -0.0025882784 0
-0.0028108035 -0.21080941 0.0025640843 0
-0.0017186966 -0.21166551 0.0043022814 0
-0.0019487685 -0.21122879 0.0060007563 0
0.07765805 -0.21144451 -0.0047145686 0
0.077617519 -0.21144021 -0.0013905051 0
0.077617668 -0.21144147 0.001593255 0
0.077629916 -0.21153948 0.0043670866 0
0.07781595 -0.21133307 0.0060010473 0
0.07952565 -0.21164234 -0.0059989505 0
0.079433702 -0.21147083 0.0060010538 0
0.08240179 -0.21153946 -0.0049890075 0
0.082712531 -0.21138285 -0.0014933695 0
0.082746595 -0.21167384 0.0013918277 0
0.082736269 -0.21158582 0.0043749721 0
0.081990868 -0.21149169 0.0060010608 0
-0.0096173799 -0.20902209 -0.0059992787 0
-0.010030653 -0.20854169 -0.0049546389 0
-0.010161687 -0.20842563 -0.0016427735 0
-0.010245726 -0.20859167 0.0014850916 0
-0.010207221 -0.20856667 0.0045546857 0
-0.0097240563 -0.20891395 0.00600072 0
-0.0075787604 -0.2081289 -0.0059992746 0
-0.0076430151 -0.20864835 -0.0059992746 0
-0.0082430197 -0.2075825 0.0060007218 0
-0.0075844438 -0.20862791 0.0060007307 0
-0.0043431656 -0.20859879 -0.005999261 0
-0.0036218776 -0.2088397 -0.00075372943 0
-0.0036107341 -0.20871376 0.00070258876 0
-0.0044326792 -0.20848882 0.0060007405 0
-0.00047167152 -0.20909788 -0.0059992457 0
-0.0010741038 -0.20853548 -0.0049856026 0
-0.0018958786 -0.20822349 -0.0021675925 0
-0.0020488759 -0.20840314 0.0021071001 0
-0.00057899125 -0.20858553 0.0036694037 0
-0.0015730496 -0.20847146 0.0060007526 0
0.00062924373 -0.20827903 -0.0052000103 0
0.00071137428 -0.20830977 0.0050725425 0
0.00060593057 -0.20816527 0.0060007554 0
0.077307306 -0.20856614 -0.0046731946 0
0.077294007 -0.20885204 -0.0015110451 0
0.077252023 -0.20851627 0.00165687 0
0.077245943 -0.20846762 0.0044370522 0
0.077573843 -0.20832145 0.0060010348 0
0.080034688 -0.20817886 -0.0059989574 0
0.079544 -0.20853843 -0.0059989607 0
0.079578489 -0.2083209 0.0060010441 0
0.08216764 -0.20862058 -0.0049211462 0
0.082396924 -0.20868784 -0.0013540247 0
0.082374968 -0.20850028 0.0014136975 0
0.08236789 -0.20843972 0.0044630584 0
0.08164639 -0.20852521 0.0060010492 0
-0.0092207165 -0.20660424 -0.0047053811 0
-0.0091889864 -0.20650308 -0.0016382709 0
-0.0092474185 -0.20661858 0.0016872813 0
-0.0092170117 -0.20655839 0.004501998 0
-0.0091786636 -0.20660128 0.0060007148 0
-0.0082068909 -0.20620698 -0.0059992839 0
-0.0078927651 -0.20523301 -0.0052929479 0
-0.0085208174 -0.20518246 -0.0014534533 0
-0.0085137235 -0.20516837 0.0016645519 0
-0.0084528653 -0.20518455 0.0046410393 0
-0.0074328617 -0.20560785 0.0060007158 0
-0.0059702503 -0.20508628 -0.0059992797 0
-0.0044686692 -0.20543839 -0.0059992732 0
-0.0030294943 -0.20641573 -0.00011829559 0
-0.0030859234 -0.20657794 0.00014550961 0
-0.004399166 -0.20544489 0.0060007293 0
-0.0014899492 -0.20548442 -0.0059031062 0
-0.0015985525 -0.205603 -0.0011375597 0
-0.0013918085 -0.20568341 0.0013865046 0
-0.0003095328 -0.20661362 0.0040886044 0
-0.0014763465 -0.20542386 0.0060007419 0
0.0015363715 -0.2054375 -0.0050152279 0
0.00027718503 -0.20502649 -0.0027212345 0
0.00032944718 -0.20457171 0.0025446624 0
0.00159827 -0.20542939 0.0043135555 0
0.0012896328 -0.20534582 0.0060007498 0
0.0032084559 -0.2044483 -0.005645195 0
0.0031960548 -0.20450947 0.0054831873 0
0.0030182202 -0.2047233 0.0060007516 0
0.077034168 -0.20554626 -0.0048793526 0
0.076872006 -0.20547593 -0.0015268652 0
0.076880209 -0.20554186 0.0014464397 0
0.076898284 -0.20568633 0.0045303446 0
0.077423394 -0.20517378 0.0060010226 0
0.078167282 -0.20550455 -0.0059989733 0
0.079597436 -0.20526175 -0.00599897 0
0.080166198 -0.20633675 0.0060010366 0
0.079486087 -0.20548624 0.0060010329 0
0.081959613 -0.20549707 -0.0047654407 0
0.082017273 -0.20544545 -0.0013106917 0
0.081994727 -0.20525305 0.0015123629 0
0.082016774 -0.20544136 0.004549305 0
0.081541888 -0.20557813 0.0060010385 0
-0.0067488966 -0.20334804 -0.0059992885 0
-0.0070628957 -0.20274667 -0.0049653817 0
-0.0072052064 -0.20258209 -0.0014530661 0
-0.0071244049 -0.2024224 0.0015755488 0
-0.0071198824 -0.20245747 0.0045352955 0
-0.0066098645 -0.20291491 0.0060007097 0
-0.0052259606 -0.20197253 -0.0059992885 0
-0.0044410257 -0.20267315 -0.0059992853 0
-0.0045037572 -0.20175055 0.0060007134 0
-0.0041447561 -0.20254295 0.0060007204 0
-0.0028086961 -0.201308 -0.005999282 0
-0.0015454084 -0.20249128 -0.0059992732 0
-0.0006229924 -0.20283353 -0.00071024115 0
-0.00060567644 -0.20283175 0.00072815275 0
-0.0015442977 -0.20247146 0.0060007302 0
0.0015947812 -0.20266271 -0.0059992615 0
0.0016752105 -0.2024976 -0.0052980916 0
0.00083803001 -0.2023461 -0.001924358 0
0.00094358547 -0.20240955 0.0020635705 0
0.0023071626 -0.20286857 0.0037272875 0
0.0016152214 -0.20253791 0.0060007423 0
0.004220794 -0.20213668 -0.0059992536 0
0.0039501274 -0.20225888 -0.0054801563 0
0.0040236511 -0.20230135 0.0051850611 0
0.00384783 -0.20231201 0.0060007451 0
0.076689281 -0.20245484 -0.0050264755 0
0.076509394 -0.20257512 -0.0015217491 0
0.076502666 -0.20252138 0.0014626964 0
0.076482221 -0.20235796 0.0044182958 0
0.077162974 -0.20241922 0.0060010115 0
0.078614913 -0.20228176 -0.0059989835 0
0.079454049 -0.20267388 -0.0059989826 0
0.079544015 -0.20242968 0.0060010203 0
0.081594691 -0.20243491 -0.0048496947 0
0.081668817 -0.20246966 -0.0015469575 0
0.081656329 -0.20236319 0.0014344907 0
0.081683159 -0.20259249 0.0046310755 0
0.081303298 -0.20243451 0.0060010268 0
-0.0062341392 -0.20066293 -0.004379685 0
-0.0061920481 -0.2005796 -0.0018195501 0
-0.0062012998 -0.20059787 0.0016008993 0
-0.0061453418 -0.20048724 0.0044153593 0
-0.0063146292 -0.20089462 0.0060007046 0
-0.004721527 -0.19987948 -0.0049544703 0
-0.0049027619 -0.19987468 -0.0014475861 0
-0.0049051824 -0.19991195 0.0013284941 0
-0.0049760751 -0.19990779 0.0045956955 0
-0.004747062 -0.1999179 0.0060007051 0
-0.0023965805 -0.20048203 -0.0059992834 0
-0.0016044545 -0.20011592 -0.0051145889 0
-0.0015727254 -0.20020008 -0.0016051563 0
-0.0013166122 -0.20020007 0.0014149894 0
-0.0014006232 -0.20020005 0.0045108786 0
-0.0018181275 -0.19967347 0.0060007144 0
0.002083766 -0.19857626 -0.0059992741 0
0.0015231234 -0.19995758 -0.0050126137 0
0.0014570822 -0.20029569 -0.0016628167 0
0.0011439358 -0.2003352 0.0015401107 0
0.0016695568 -0.20016401 0.0045406814 0
0.0014966237 -0.19956072 0.0060007269 0
0.0047392654 -0.19927937 -0.005999262 0
0.0044389507 -0.2000777 -0.0051842513 0
0.0042555477 -0.20020005 -0.0015215407 0
0.0043200073 -0.20020005 0.0017132583 0
0.0044424781 -0.20033582 0.0047418666 0
0.0043338053 -0.19970849 0.0060007377 0
0.006000015 -0.1989807 -0.0043254471 0
0.0060000038 -0.19886388 -0.0012443673 0
0.0059999954 -0.19892673 0.0012697615 0
0.0059999828 -0.19920118 0.0047955709 0
0.076484412 -0.20043197 -0.0059989979 0
0.076423481 -0.19944292 -0.0050627571 0
0.076114856 -0.19941881 -0.0015296278 0
0.076136656 -0.19959335 0.0014426147 0
0.076118156 -0.19944526 0.0044145873 0
0.077059343 -0.19936545 0.0060009989 0
0.079517938 -0.19965428 -0.0059989919 0
0.079768486 -0.19980241 0.0060010115 0
0.079388961 -0.19939266 0.0060010133 0
0.081301279 -0.19950353 -0.0047006551 0
0.081313238 -0.199433 -0.0015964755 0
0.081321098 -0.19950031 0.0015399359 0
0.081329621 -0.19959548 0.0045316289 0
0.081221372 -0.1995686 0.0060010166 0
-0.0059999852 -0.19741823 -0.0042939438 0
-0.0053890031 -0.19642065 -0.0048497827 0
-0.0059999931 -0.1962758 -0.0014812856 0
-0.0060000038 -0.19661742 0.0013192178 0
-0.0060000154 -0.19652015 0.0046323971 0
-0.0046486319 -0.19648978 0.0060006934 0
-0.0013946012 -0.19632784 -0.0059992932 0
-0.0015739449 -0.1963851 0.0060007041 0
0.002576567 -0.19633552 -0.0059992806 0
0.0014862739 -0.19684546 -0.0059992806 0
0.0017235982 -0.19644979 0.0060007162 0
0.0056279008 -0.19647902 -0.005999269 0
0.0046277833 -0.19647624 -0.0059180311 0
0.0060000061 -0.19543879 -0.0018600873 0
0.0040244791 -0.19668956 0.006000726 0
0.0045599765 -0.1964722 0.0060007269 0
0.0060000154 -0.19635595 -0.0045396648 0
0.0060000042 -0.19614638 -0.0014191956 0
0.005999994 -0.19657178 0.0014704872 0
0.0059999819 -0.19639152 0.0045861043 0
0.07760103 -0.19533627 -0.0059990124 0
0.07609538 -0.19647983 -0.005083512 0
0.075734012 -0.19637203 -0.0015963855 0
0.075744599 -0.19645673 0.0013464413 0
0.075780146 -0.19674128 0.004387348 0
0.076907732 -0.19662474 0.006000991 0
0.078149341 -0.19659021 -0.0059990059 0
0.080030777 -0.19629587 -0.0054385397 0
0.080885276 -0.19577827 -0.0014813934 0
0.080907471 -0.19596793 0.001427722 0
0.08082591 -0.19577061 0.0044638184 0
0.079379842 -0.19671194 0.0060009998 0
0.081067897 -0.19733769 -0.0043549379 0
0.081071995 -0.19737281 -0.0015889137 0
0.081067279 -0.1973327 0.0017709499 0
0.081070796 -0.19736268 0.0042671356 0
0.081008039 -0.19722721 0.0060010073 0
-0.0059999838 -0.19433378 -0.0045776642 0
-0.0052414197 -0.19344711 -0.0052320226 0
-0.0059999949 -0.19385958 -0.0012531345 0
-0.0060000042 -0.19354302 0.0015472247 0
-0.0060000159 -0.19352794 0.0045802384 0
-0.0043670554 -0.19361323 0.0060006846 0
-0.0013830187 -0.19328205 -0.0059993048 0
-0.0013168787 -0.1935575 0.0060006948 0
0.0017789402 -0.19209921 -0.0059992988 0
0.0013044932 -0.1935111 -0.0059992936 0
0.001619805 -0.19384052 0.0060007065 0
0.0045407084 -0.19212553 -0.0059992885 0
0.0042880019 -0.19380805 -0.005999282 0
0.006000008 -0.19309187 -0.002315711 0
0.0044333199 -0.19356954 0.0060007158 0
0.0060000154 -0.19375223 -0.0044458439 0
0.0060000038 -0.19348693 -0.0014372156 0
0.0059999931 -0.19369921 0.0015017138 0
0.0059999824 -0.19342855 0.004671453 0
0.076042853 -0.1939529 -0.0059990231 0
0.075996198 -0.19349353 -0.0050998768 0
0.075389266 -0.19361413 -0.0015757399 0
0.075371809 -0.19347455 0.0013571151 0
0.075382672 -0.19356157 0.0046581402 0
0.076623887 -0.19346252 0.0060009784 0
0.080048151 -0.19352591 -0.0051352028 0
0.080632709 -0.19362134 -0.0017338848 0
0.080623247 -0.19354036 0.001494673 0
0.080492616 -0.19345218 0.0045272554 0
0.079077616 -0.19360103 0.0060009859 0
-0.0059999833 -0.19089279 -0.0047196201 0
-0.0053254711 -0.19043165 -0.0051021622 0
-0.0059999945 -0.19070242 -0.0012538662 0
-0.0060000047 -0.19041565 0.0014190323 0
-0.0060000145 -0.19027765 0.0043116375 0
-0.0042490093 -0.19040574 0.0060006725 0
-0.0014583024 -0.1905428 -0.0059993141 0
-0.0014180058 -0.19007309 0.0060006827 0
0.0021220401 -0.19000088 -0.0059993053 0
0.0012299543 -0.19068123 -0.0059993044 0
0.0023792137 -0.19020687 0.0060006967 0
0.0014056398 -0.19071037 0.0060006948 0
0.0042254282 -0.18990342 -0.0059992978 0
0.004770536 -0.19036303 -0.0058951699 0
0.0047011268 -0.18980749 0.0060007046 0
0.0043642782 -0.19073796 0.0060007055 0
0.0060000154 -0.19043039 -0.0044780648 0
0.0060000033 -0.19053183 -0.0012494691 0
0.0059999931 -0.19051881 0.0014289189 0
0.0059999814 -0.1905366 0.0047905794 0
0.074907541 -0.18976033 -0.004466942 0
0.074900575 -0.18970457 -0.0015745331 0
0.074901409 -0.18971129 0.0017840496 0
0.074919067 -0.18985264 0.0045686439 0
0.074949704 -0.18956949 0.0060009584 0
0.075928859 -0.19078481 -0.0056155524 0
0.075071581 -0.19107273 -0.0014273099 0
0.075084627 -0.19117714 0.0014516296 0
0.075156242 -0.19116518 0.0045766742 0
0.076528221 -0.19053426 0.0060009696 0
0.079821937 -0.1905321 -0.0051044412 0
0.080257848 -0.19042008 -0.0014673566 0
0.080273569 -0.1905544 0.0017552195 0
0.080282122 -0.19062743 0.0045140558 0
0.079227522 -0.19059959 0.0060009756 0
-0.0059999917 -0.18855898 -0.0024563288 0
-0.0052363584 -0.18742427 -0.0052390066 0
-0.0059999945 -0.18753272 -0.0012547405 0
-0.0060000042 -0.18756688 0.0014858786 0
-0.0060000154 -0.18756045 0.0045557786 0
-0.0044956524 -0.18763 0.0060006622 0
-0.001465573 -0.18731928 -0.0059993267 0
-0.0015623536 -0.18751557 0.0060006725 0
0.0013695596 -0.18764602 -0.0059993141 0
0.0018578108 -0.18843095 0.0060006883 0
0.00095223886 -0.18753447 0.0060006818 0
0.0048121149 -0.18756248 -0.0058898549 0
0.0040293471 -0.18786578 0.0060006939 0
0.0044538639 -0.18753558 0.0060006944 0
0.006000015 -0.187819 -0.004185515 0
0.0060000038 -0.18754889 -0.0013169325 0
0.0059999935 -0.18736607 0.0016275776 0
0.0059999833 -0.18749739 0.0043268278 0
0.074662 -0.18753368 -0.0047943625 0
0.074631199 -0.18754947 -0.0014530249 0
0.074628897 -0.18753119 0.0015352097 0
0.074625678 -0.18750544 0.0046579596 0
0.074828714 -0.18702702 0.0060009481 0
0.07653717 -0.18678652 -0.0059990473 0
0.076449431 -0.18756615 -0.0059990468 0
0.076645449 -0.18721394 0.006000957 0
0.079550646 -0.18834677 -0.005999031 0
0.079525441 -0.18758899 -0.0050641051 0
0.079923712 -0.18756649 -0.0015712394 0
0.079923064 -0.18756096 0.0013483267 0
0.079898477 -0.1874333 0.0047151125 0
0.078934066 -0.18750036 0.0060009635 0
-0.0059999805 -0.18571866 -0.0055024042 0
-0.0053559439 -0.1846036 -0.0052221618 0
-0.005999994 -0.18458761 -0.0014658953 0
-0.0060000028 -0.18455938 0.0010789606 0
-0.0060000145 -0.18457988 0.0043573971 0
-0.0046009156 -0.18473679 0.006000651 0
-0.0014277594 -0.18432809 -0.005999337 0
-0.0012393582 -0.18461885 0.0060006622 0
0.0012957662 -0.18449356 -0.0059993267 0
0.0022938366 -0.18420474 0.0060006748 0
0.0016060669 -0.18436106 0.0060006715 0
0.0047375611 -0.18504505 -0.0059993132 0
0.0043450925 -0.18459608 -0.0058763321 0
0.004751368 -0.18570991 0.0060006897 0
0.0044987788 -0.18432899 0.0060006822 0
0.0060000145 -0.18446225 -0.0043875198 0
0.0060000052 -0.18440263 -0.0016327081 0
0.0059999935 -0.18438242 0.0014680696 0
0.0059999824 -0.18462157 0.0045239949 0
0.074172594 -0.18372379 -0.0059990669 0
0.07434006 -0.18459745 -0.004848748 0
0.074264251 -0.18461388 -0.0013377063 0
0.074268401 -0.18464714 0.0016054282 0
0.074261136 -0.18458919 0.0045307148 0
0.074578181 -0.18431529 0.0060009379 0
0.076615363 -0.18455695 -0.0059990562 0
0.076643191 -0.18434355 0.0060009472 0
0.079283543 -0.18446261 -0.0049690315 0
0.079563335 -0.18448883 -0.0014901233 0
0.079558179 -0.18444486 0.0015869659 0
0.079517022 -0.18470381 0.0046736151 0
0.078905925 -0.18428139 0.0060009514 0
-0.0059999865 -0.18195941 -0.0038215257 0
-0.0059999926 -0.18138479 -0.002183635 0
-0.0052131205 -0.18134399 -0.0053424574 0
-0.005999994 -0.18140838 -0.0014017376 0
-0.0060000052 -0.18157311 0.0017433959 0
-0.0060000145 -0.1815635 0.004357704 0
-0.0045370744 -0.18157931 0.0060006399 0
-0.0014297762 -0.18140993 -0.0059993472 0
-0.0014322948 -0.18146501 0.0060006506 0
0.0016955717 -0.1814246 -0.0059993365 0
0.0015019838 -0.18153062 0.0060006618 0
0.0041281846 -0.18131493 -0.005999329 0
0.0048765684 -0.18197423 -0.0058147833 0
0.0060000075 -0.18272825 -0.0022351914 0
0.0044769137 -0.181556 0.0060006725 0
0.0060000154 -0.18175487 -0.0046120575 0
0.0060000052 -0.18166971 -0.0017335416 0
0.005999994 -0.18168169 0.0012374379 0
0.0059999824 -0.18162164 0.0045764074 0
0.074170798 -0.18020673 -0.0059990794 0
0.07399258 -0.1814986 -0.0048975567 0
0.07389725 -0.18167788 -0.0014716972 0
0.07385736 -0.18135899 0.0014592104 0
0.073916838 -0.18151021 0.0046609384 0
0.0744472 -0.18109706 0.0060009244 0
0.076745681 -0.18155013 -0.0059990655 0
0.076451004 -0.181539 -0.0059990706 0
0.077969804 -0.18234643 0.0060009421 0
0.076298669 -0.18152435 0.006000936 0
0.078709602 -0.18061556 -0.0059990617 0
0.079030462 -0.18153797 -0.0050524627 0
0.079187252 -0.18127701 -0.0013294199 0
0.079227872 -0.1816241 0.0015101095 0
0.079204991 -0.18142875 0.004692317 0
0.078674234 -0.1816656 0.0060009412 0
-0.0059999856 -0.17733742 -0.0041635945 0
-0.0059999935 -0.17861146 -0.0019492477 0
-0.0052104113 -0.17862312 -0.0053126412 0
-0.0059999935 -0.17870505 -0.0013714941 0
-0.0060000038 -0.17836849 0.0014288573 0
-0.0060000154 -0.17841017 0.0044924645 0
-0.0043989946 -0.17849119 0.0060006301 0
-0.001702946 -0.17847852 -0.0059993593 0
-0.0017322326 -0.17846699 0.0060006385 0
0.00074994523 -0.17711577 -0.0059993565 0
0.0016348241 -0.17851241 -0.0059993463 0
0.0024440405 -0.1783981 0.0060006543 0
0.0015527577 -0.1782387 0.0060006501 0
0.0036395635 -0.17831992 -0.0059993421 0
0.0046074488 -0.17824687 -0.0059551168 0
0.004665962 -0.17868957 0.0060006632 0
0.0044656475 -0.17867745 0.0060006618 0
0.0060000168 -0.17854771 -0.0048512584 0
0.0060000047 -0.17838863 -0.0015437334 0
0.0059999935 -0.17822187 0.0014776833 0
0.0059999828 -0.17840979 0.0044297688 0
0.074635036 -0.17892264 -0.0059990827 0
0.07371375 -0.17849138 -0.0049913595 0
0.073475912 -0.17830734 -0.0014995718 0
0.073492311 -0.17843868 0.0013651447 0
0.073500164 -0.17850132 0.0045999018 0
0.074180998 -0.17857777 0.0060009141 0
0.07555341 -0.17941523 -0.0059990776 0
0.076578185 -0.17852256 -0.0059990794 0
0.077730246 -0.17827521 0.0060009267 0
0.076215796 -0.17864625 0.0060009239 0
0.078773633 -0.17845215 -0.0048766239 0
0.078860775 -0.17848894 -0.001498618 0
0.078860559 -0.17848733 0.0014781746 0
0.078855611 -0.17846243 0.0046946858 0
0.078451231 -0.17843252 0.0060009295 0
-0.0052030785 -0.1755629 -0.0054303645 0
-0.0059999935 -0.17537017 -0.0014651632 0
-0.0060000061 -0.17543109 0.0018965604 0
-0.0060000164 -0.17539646 0.0047061662 0
-0.0046196198 -0.17540152 0.0060006171 0
-0.001411808 -0.17526197 -0.00599937 0
-0.0013135549 -0.17529245 0.0060006287 0
0.0027156912 -0.17539856 -0.0059993556 0
0.0013781574 -0.17564008 -0.0059993579 0
0.0015716476 -0.17551538 0.0060006394 0
0.0045773485 -0.17457846 -0.0059993519 0
0.0045377905 -0.17523693 -0.0057680351 0
0.006000008 -0.1751855 -0.0022999386 0
0.0048799785 -0.17651416 0.0060006562 0
0.004181054 -0.17549185 0.0060006501 0
0.0060000159 -0.17561693 -0.0046092505 0
0.0060000047 -0.17539124 -0.0015208063 0
0.005999994 -0.17548776 0.0012924895 0
0.0059999824 -0.1754934 0.0044631683 0
0.073472768 -0.17549634 -0.0050458191 0
0.073124826 -0.17549852 -0.0015500755 0
0.073130861 -0.17554687 0.0016452511 0
0.073182732 -0.17551054 0.0046342337 0
0.074118443 -0.17559814 0.0060009025 0
0.076475501 -0.17537495 -0.0059990897 0
0.07636828 -0.17549798 0.0060009151 0
0.078462996 -0.17555486 -0.0048010889 0
0.078500077 -0.17540841 -0.0013548067 0
0.078526966 -0.17563841 0.001660024 0
0.078516185 -0.17565642 0.0046696062 0
0.078331538 -0.17609715 0.0060009216 0
-0.0059999954 -0.1731673 -0.0014526201 0
-0.0054804687 -0.17244335 -0.0048749559 0
-0.0059999949 -0.17233719 -0.001315758 0
-0.0060000038 -0.17250876 0.0014038242 0
-0.006000015 -0.17262585 0.0045520272 0
-0.0041410504 -0.17221202 0.0060006077 0
-0.0012965561 -0.17268839 -0.0059993789 0
-0.001787883 -0.17222783 0.0060006166 0
0.0009153182 -0.17322123 -0.00599937 0
0.001325716 -0.17229219 -0.0059993705 0
0.0015505011 -0.17262451 0.0060006292 0
0.004314621 -0.17312141 -0.0059993579 0
0.0046916185 -0.17250897 -0.0058721253 0
0.0044240435 -0.17265953 0.0060006399 0
0.006000015 -0.17231408 -0.0044779563 0
0.0060000052 -0.17242488 -0.0017986302 0
0.0059999926 -0.17232968 0.0017469147 0
0.0059999833 -0.17234714 0.0044319127 0
0.074665345 -0.17382559 -0.0059991013 0
0.073806286 -0.17373653 -0.0044923616 0
0.073724397 -0.17373437 -0.0014729463 0
0.073971145 -0.17371204 0.0013663322 0
0.073700354 -0.17372498 0.0045447354 0
0.073800899 -0.17399113 0.0060008974 0
0.076587439 -0.17371556 -0.0047497819 0
0.076476373 -0.17370011 -0.0016269902 0
0.076589353 -0.17370008 0.0014363665 0
0.076476932 -0.17370005 0.0045226384 0
0.076462738 -0.1738333 0.0060009062 0
0.078200117 -0.17379503 -0.0046544429 0
0.078218557 -0.17377082 -0.0016900385 0
0.07823848 -0.1738001 0.0013287355 0
0.078243241 -0.17380816 0.0043158769 0
-0.0059999973 -0.16907178 -0.0009459068 0
-0.0049256524 -0.1694589 -0.0054239933 0
-0.0059999945 -0.16925362 -0.0013976196 0
-0.0060000042 -0.16948089 0.001522045 0
-0.0060000154 -0.16972075 0.0044560949 0
-0.0044647078 -0.16970891 0.006000597 0
-0.0013890868 -0.1691456 -0.0059993919 0
-0.0014806187 -0.16932794 0.0060006063 0
0.001428189 -0.16964044 -0.0059993812 0
0.0015219251 -0.16972627 -0.0059993789 0
0.0023481345 -0.17025484 0.0060006245 0
0.0015651374 -0.16964686 0.0060006185 0
0.0045694546 -0.17001246 -0.0059993681 0
0.0048553743 -0.16969711 -0.0056845015 0
0.006000008 -0.16970904 -0.0022886558 0
0.004363447 -0.17029284 0.006000632 0
0.0042493101 -0.16928472 0.0060006273 0
0.0060000145 -0.16924553 -0.0042199432 0
0.0060000042 -0.16938245 -0.0013936386 0
0.0059999926 -0.16942891 0.0017331648 0
0.0059999838 -0.16939649 0.0043005669 0
-0.0059999824 -0.16674401 -0.0050207926 0
-0.0059999917 -0.16761224 -0.0025009464 0
-0.0052953502 -0.16641501 -0.0051220441 0
-0.0059999945 -0.1664841 -0.0012334647 0
-0.0060000042 -0.16640775 0.0016019745 0
-0.0060000145 -0.16648287 0.0042122123 0
-0.0044920174 -0.16661331 0.0060005854 0
-0.00147801 -0.16652767 -0.0059994007 0
-0.0015321412 -0.16657814 0.0060005961 0
0.0017036977 -0.16657455 -0.0059993896 0
0.0015542798 -0.16655883 0.0060006073 0
0.0039127967 -0.16621424 -0.0059993849 0
0.0046769958 -0.16663134 -0.0059348275 0
0.0060000084 -0.16574465 -0.0024982686 0
0.0045126621 -0.16641569 0.0060006175 0
0.0060000145 -0.16642036 -0.0044096927 0
0.0060000038 -0.16609648 -0.0013694266 0
0.0059999931 -0.16662268 0.0016924317 0
0.0059999824 -0.16650838 0.0046036611 0
-0.0059999945 -0.16343284 -0.0017100483 0
-0.0051549352 -0.16342737 -0.0053416276 0
-0.0059999949 -0.1633535 -0.0012151112 0
-0.0060000042 -0.16360614 0.0015131228 0
-0.0060000159 -0.16353244 0.0046922336 0
-0.004742681 -0.16330598 0.0060005733 0
-0.00021169304 -0.16329296 -0.0059994105 0
-0.001534822 -0.16346042 -0.0059994129 0
-0.0012990546 -0.16335724 0.0060005859 0
0.001823682 -0.16373844 -0.0059994012 0
0.0014663584 -0.16366069 -0.0059994017 0
0.0016670371 -0.16363272 0.006000597 0
0.0044633443 -0.16318934 -0.0059993933 0
0.0047993823 -0.16357802 -0.0058485148 0
0.0060000103 -0.16344406 -0.0029783817 0
0.005373992 -0.16386531 0.0060006129 0
0.0045889565 -0.16364139 0.0060006087 0
0.006000014 -0.16347224 -0.0041590901 0
0.0060000047 -0.16353291 -0.0015017766 0
0.0059999935 -0.16341777 0.0014453075 0
0.0059999833 -0.16371304 0.0045637963 0
-0.0059999824 -0.16130151 -0.004980281 0
-0.0050940206 -0.16048706 -0.0052208249 0
-0.005999994 -0.16037279 -0.001357884 0
-0.0060000042 -0.16070454 0.0013087764 0
-0.006000015 -0.16034596 0.004582264 0
-0.0047172629 -0.16040488 0.0060005621 0
-0.0013431312 -0.16058394 -0.0059994222 0
-0.0016510016 -0.16054507 0.0060005737 0
0.0016057539 -0.16030177 -0.0059994147 0
0.001630499 -0.16068421 -0.0059994119 0
0.0025294006 -0.1596746 0.0060005868 0
0.0014653308 -0.16060841 0.0060005859 0
0.0039913165 -0.16005771 -0.0059994068 0
0.0045996741 -0.16021959 -0.0059757624 0
0.0060000098 -0.15949024 -0.0027818445 0
0.0046646283 -0.16058704 0.006000597 0
0.006000015 -0.1604359 -0.0044095693 0
0.0060000047 -0.16062963 -0.0016072821 0
0.0059999931 -0.16005924 0.0015574528 0
0.0059999833 -0.16065125 0.0042292653 0
-0.0059999852 -0.15796728 -0.0042656972 0
-0.0059999903 -0.15833412 -0.0028146349 0
-0.0060000014 -0.15771922 0.00030596854 0
-0.005187775 -0.15729859 -0.0053806929 0
-0.0059999931 -0.15756385 -0.0015168891 0
-0.0060000047 -0.15758537 0.0016703026 0
-0.0060000145 -0.15733901 0.0040860088 0
-0.0045212428 -0.15749943 0.0060005533 0
-0.00038932421 -0.15794559 -0.0059994301 0
-0.0017894448 -0.15733962 -0.0059994361 0
-0.0014308653 -0.15735808 0.0060005635 0
0.0013962494 -0.15753451 -0.005999425 0
0.0016087036 -0.15771244 -0.0059994217 0
0.0016234051 -0.15754984 0.0060005751 0
0.0053075417 -0.15808611 -0.0059994091 0
0.0047171973 -0.15758978 -0.0058489256 0
0.006000008 -0.15798944 -0.0023635451 0
0.004556715 -0.15754576 0.0060005859 0
0.0060000159 -0.15760992 -0.0047136429 0
0.0060000033 -0.15757056 -0.0012793998 0
0.0059999945 -0.15731964 0.0015347736 0
0.0059999819 -0.15739548 0.0047867266 0
-0.0059999926 -0.1559353 -0.0021723569 0
-0.0052268887 -0.15461765 -0.0053815464 0
-0.0059999931 -0.15470153 -0.0016260977 0
-0.0060000052 -0.15432058 0.0016568551 0
-0.0060000159 -0.15473303 0.0046437522 0
-0.0046836189 -0.15463048 0.0060005421 0
-0.0016526494 -0.15455233 -0.0059994454 0
-0.0016352958 -0.15440504 0.0060005514 0
0.0025931608 -0.15524916 -0.0059994292 0
0.0016286618 -0.15469049 -0.0059994329 0
0.0015062685 -0.15461832 0.006000564 0
0.0050684293 -0.15519656 -0.0059994208 0
0.0041817357 -0.15441275 -0.005999425 0
0.0060000061 -0.15305232 -0.0018423668 0
0.0051874258 -0.15401922 0.0060005756 0
0.0045370548 -0.15446542 0.0060005751 0
0.0060000154 -0.15473203 -0.0046237307 0
0.0060000042 -0.15459265 -0.001442088 0
0.0059999935 -0.1544778 0.0013773635 0
0.0059999833 -0.15453714 0.0044724173 0
-0.0053549837 -0.15157138 -0.0051359725 0
-0.0059999926 -0.15167612 -0.0014951924 0
-0.0060000038 -0.15149741 0.0014051442 0
-0.0060000154 -0.15144968 0.0046137352 0
-0.0044639627 -0.15171149 0.0060005314 0
-0.001376803 -0.15137085 -0.0059994562 0
-0.0014266482 -0.15160158 0.006000543 0
0.0013278815 -0.15176935 -0.005999445 0
0.0021306376 -0.15175328 0.0060005574 0
0.0017339806 -0.15144758 0.0060005528 0
0.0044867406 -0.15151009 -0.0059994343 0
0.0044774842 -0.15107676 0.006000563 0
0.0045377812 -0.15147528 0.0060005635 0
0.0060000154 -0.15118447 -0.004520508 0
0.0060000038 -0.15172619 -0.0013796379 0
0.005999994 -0.15157723 0.0013445768 0
0.0059999833 -0.15143006 0.004405106 0
-0.0052847234 -0.14857467 -0.0052529559 0
-0.0059999921 -0.14844052 -0.0017553068 0
-0.0060000038 -0.14840044 0.0012887474 0
-0.006000014 -0.14860693 0.0042554769 0
-0.0044860072 -0.14852494 0.0060005211 0
-0.0018221505 -0.14857732 -0.0059994678 0
-0.0013470274 -0.14848058 0.0060005318 0
0.0012434936 -0.14841302 -0.0059994566 0
0.0025762583 -0.14887433 0.0060005477 0
0.0016769955 -0.14863266 0.0060005425 0
0.0045141564 -0.14849773 -0.005860344 0
0.0060000038 -0.14717166 -0.0011933866 0
0.0040945434 -0.14843531 0.0060005509 0
0.006000015 -0.14830862 -0.0044637704 0
0.0060000052 -0.1483334 -0.0017245732 0
0.0059999945 -0.14850636 0.0014226296 0
0.0059999833 -0.14823529 0.0042898916 0
-0.0060000052 -0.14630046 0.0012448129 0
-0.0051480602 -0.14546536 -0.0053126896 0
-0.0059999931 -0.14556073 -0.0015317771 0
-0.0060000038 -0.14550707 0.0013975162 0
-0.006000014 -0.14543582 0.00428141 0
-0.0042507094 -0.14542536 0.0060005109 0
-0.0014675804 -0.1456545 -0.0059994766 0
-0.0012409149 -0.14523686 0.0060005202 0
0.0014641945 -0.1457068 -0.0059994664 0
0.0017171915 -0.14494963 0.0060005304 0
0.0015247524 -0.1453615 0.0060005304 0
0.0046279943 -0.14553264 -0.0058501265 0
0.0060000005 -0.14606005 -0.00020212769 0
0.0043376628 -0.14556918 0.0060005425 0
0.006000015 -0.14535211 -0.0043131378 0
0.0060000052 -0.14547904 -0.0016823782 0
0.005999994 -0.14553641 0.0015206286 0
0.0059999828 -0.14532346 0.0043336558 0
-0.0059999954 -0.14200017 -0.0014172661 0
-0.0052202404 -0.14254685 -0.005410613 0
-0.0059999931 -0.14260842 -0.0015796814 0
-0.0060000047 -0.14251652 0.0015551514 0
-0.006000015 -0.14251274 0.0044255988 0
-0.0043378407 -0.14274982 0.0060004997 0
-0.0014493903 -0.14245822 -0.0059994883 0
-0.0013158019 -0.14277384 0.0060005113 0
0.0014872536 -0.14237824 -0.0059994771 0
0.0011857962 -0.14252043 0.0060005188 0
0.004142106 -0.14247428 -0.0059994678 0
0.0059999945 -0.14224234 0.0015610826 0
0.0047285091 -0.1424568 0.0060005318 0
0.0060000145 -0.14235348 -0.004406875 0
0.0060000038 -0.1425388 -0.0013177837 0
0.0059999931 -0.14240618 0.0016261109 0
0.0059999819 -0.14267638 0.0046053589 0
-0.0051614391 -0.13966663 -0.0054191533 0
-0.0059999935 -0.13968223 -0.001525778 0
-0.0060000038 -0.13967656 0.0013711362 0
-0.006000015 -0.13981207 0.0045489352 0
-0.0043117669 -0.13963127 0.0060004881 0
-0.0015912416 -0.13949013 -0.0059994999 0
-0.0014493883 -0.13975459 0.0060005002 0
0.0017242506 -0.13951802 -0.0059994878 0
0.001460318 -0.13963479 0.00600051 0
0.0043653003 -0.13956001 -0.005999478 0
0.0060000066 -0.1392161 -0.0019923609 0
0.0032004325 -0.13932523 0.0060005155 0
0.0046821074 -0.13967228 0.0060005211 0
0.0060000154 -0.13965401 -0.0045126923 0
0.0060000038 -0.13990307 -0.0014646492 0
0.0059999931 -0.13947895 0.001673953 0
0.0059999828 -0.13955244 0.0045485776 0
-0.0051383465 -0.13650806 -0.0053075966 0
-0.0059999931 -0.1363851 -0.0016377193 0
-0.0060000042 -0.13652827 0.0015796695 0
-0.0060000154 -0.13661323 0.0046483018 0
-0.0045505455 -0.13643321 0.0060004764 0
-0.001518134 -0.13674544 -0.0059995097 0
-8.6398628e-05 -0.1367642 0.0060004941 0
-0.0015639041 -0.13684249 0.0060004885 0
0.0016570095 -0.13675721 -0.0059994976 0
0.0013096676 -0.13695702 0.0060005006 0
0.0014967112 -0.13636373 0.0060004983 0
0.0044290368 -0.13665289 -0.0059994883 0
0.0059999884 -0.1352651 0.0030868244 0
0.0044533107 -0.13646752 0.006000509 0
0.0060000159 -0.13685025 -0.004586142 0
0.0060000033 -0.13638376 -0.0011110386 0
0.0059999945 -0.13656136 0.0013417137 0
0.0059999828 -0.13676614 0.0045575607 0
-0.0051908512 -0.13361073 -0.0053755105 0
-0.0059999935 -0.1335216 -0.0013987814 0
-0.0060000042 -0.13336542 0.0014404088 0
-0.006000015 -0.13357763 0.004400339 0
-0.0044936808 -0.13383284 0.0060004666 0
-0.0014403615 -0.13360478 -0.0059995204 0
-0.0016284307 -0.1333843 0.0060004755 0
0.0016166075 -0.13335535 -0.0059995102 0
0.0017504101 -0.13336375 0.0060004885 0
0.0046045491 -0.13349387 -0.0059994985 0
0.0059999926 -0.13322318 0.0020155413 0
0.0044310587 -0.13346525 0.0060004978 0
0.006000015 -0.13365489 -0.0044429428 0
0.0060000038 -0.13343306 -0.0013925474 0
0.0059999945 -0.13342802 0.0013139469 0
0.0059999819 -0.13354892 0.004631544 0
-0.0060000061 -0.13103421 0.0015934998 0
-0.0053199809 -0.13031387 -0.0050874245 0
-0.0059999926 -0.13057961 -0.0016287756 0
-0.0060000042 -0.13051103 0.0015782681 0
-0.0060000154 -0.13037752 0.0045176693 0
-0.0044691572 -0.1305151 0.006000455 0
-0.0017333977 -0.13040359 -0.005999533 0
-0.0019075321 -0.1303944 0.0060004643 0
0.001714798 -0.13048348 -0.0059995204 0
0.0015063527 -0.13056478 0.0060004774 0
0.0040593632 -0.13081735 -0.0059995106 0
0.0060000075 -0.13009858 -0.0021222471 0
0.0059999949 -0.12976028 0.0012673622 0
0.0044330824 -0.130952 0.006000489 0
0.006000015 -0.13033378 -0.0044489438 0
0.0060000047 -0.13065299 -0.0015855951 0
0.005999994 -0.13067101 0.0015152763 0
0.0059999833 -0.13055222 0.0042643249 0
-0.0060000014 -0.12701528 0.00019519159 0
-0.0051865247 -0.12735046 -0.0052061728 0
-0.005999994 -0.12715234 -0.0015157232 0
-0.0060000042 -0.12778234 0.0013511883 0
-0.006000014 -0.12769011 0.004364477 0
-0.0045793452 -0.12748462 0.0060004434 0
-0.0014972927 -0.12755896 -0.0059995423 0
-0.0013098568 -0.12702693 0.0060004536 0
0.0014082894 -0.1286255 -0.0059995297 0
0.0016909102 -0.12737744 -0.0059995316 0
0.0013156676 -0.12722038 0.0060004648 0
0.0045335782 -0.12745215 -0.0059995209 0
0.0059999959 -0.12667412 0.0010908775 0
0.0059999875 -0.12636092 0.0033149654 0
0.0046771313 -0.12746508 0.0060004774 0
0.006000015 -0.12755026 -0.0044328603 0
0.0060000038 -0.12759511 -0.0014536879 0
0.0059999931 -0.12742302 0.0015573766 0
0.0059999828 -0.12738387 0.004661825 0
-0.0051929019 -0.12436332 -0.0051303115 0
-0.005999994 -0.1246473 -0.0014438406 0
-0.0060000047 -0.12427188 0.0013949811 0
-0.0059438222 -0.12403151 0.0045705703 0
-0.0045039733 -0.12460022 0.0060004336 0
-0.0015195907 -0.12433442 -0.0059995539 0
-0.0013859892 -0.12412516 0.0060004434 0
0.0016645197 -0.12414856 -0.0059995437 0
0.0012598523 -0.12508367 0.0060004569 0
0.0012849238 -0.12453829 0.0060004541 0
0.0043949685 -0.1245308 -0.005999533 0
0.0059999991 -0.12395574 0.00015714917 0
0.0044997749 -0.12474348 0.0060004666 0
0.006000015 -0.12455911 -0.0044782441 0
0.0060000042 -0.1244913 -0.0015043707 0
0.0059999926 -0.12445486 0.0017981173 0
0.0059999824 -0.12446106 0.0044808555 0
-0.0060000042 -0.12051409 0.0009833537 0
-0.0055615311 -0.12147514 -0.0049826326 0
-0.0059999935 -0.12173149 -0.0014681864 0
-0.0060000038 -0.12141018 0.0014506384 0
-0.0059418529 -0.12190481 0.004698209 0
-0.0044485731 -0.12156605 0.0060004229 0
-0.0013509471 -0.12112913 -0.0059995651 0
-0.0016257906 -0.12135475 0.0060004317 0
0.0015868247 -0.12147296 -0.0059995535 0
0.0016555056 -0.12173696 0.0060004457 0
0.0044607241 -0.1213374 -0.0059995432 0
0.0059999917 -0.12181671 0.0021645143 0
0.0046050241 -0.12146099 0.006000455 0
0.0060000154 -0.12149633 -0.0044685518 0
0.0060000042 -0.12195419 -0.0015785519 0
0.0059999935 -0.1217038 0.0014287332 0
0.0059999819 -0.1212031 0.0046069222 0
-0.0060000061 -0.1185807 0.0015401989 0
-0.0051401993 -0.11862566 -0.0053859232 0
-0.0059999926 -0.11833986 -0.0017777545 0
-0.0060000042 -0.11854451 0.0015406774 0
