# .PCD v0.7 - Point Cloud Data file format
VERSION 0.7
FIELDS x y z rgb
SIZE 4 4 4 4
TYPE F F F F
COUNT 1 1 1 1
WIDTH 1201
HEIGHT 1
VIEWPOINT 0 0 0 1 0 0 0
POINTS 1201
DATA ascii
0.038236964 -0.28243262 -0.007083232 0
0.038055394 -0.28236067 -0.0045174505 0
0.038297605 -0.28248528 -0.0014170019 0
0.038291488 -0.28248215 0.0015552541 0
0.038223442 -0.2824471 0.0043201903 0
0.038147591 -0.28237963 0.006976719 0
0.040790386 -0.28329605 -0.0071230866 0
0.040281724 -0.28350604 -0.0044778711 0
0.040349126 -0.28354076 -0.0012739295 0
0.040445827 -0.2835905 0.0014340184 0
0.04034562 -0.28353888 0.0045691333 0
0.040588848 -0.28330678 0.0071404753 0
0.043413185 -0.283656 -0.0070134164 0
0.042475667 -0.28463477 -0.0043909727 0
0.042660419 -0.28472981 -0.0012893702 0
0.042538717 -0.28466719 0.0012551136 0
0.042491652 -0.28464293 0.0044132071 0
0.043415412 -0.28335962 0.0069701322 0
0.046738137 -0.28348726 -0.0065651117 0
0.046442371 -0.28339967 0.0066129896 0
0.049365282 -0.28344348 -0.0061870897 0
0.050575994 -0.28389752 -0.005997804 0
0.050848998 -0.28355798 0.0059715859 0
0.049455408 -0.28345034 0.0061762566 0
0.052455518 -0.28351837 -0.0057458188 0
0.052404001 -0.28373042 0.0057491069 0
0.055675618 -0.28361857 -0.0055216053 0
0.055580739 -0.28345749 0.0055013453 0
0.058301639 -0.28347927 -0.0054842448 0
0.058494959 -0.28340679 0.0054781158 0
0.061554898 -0.28332269 -0.0054558138 0
0.061599094 -0.28352445 0.0054802597 0
0.064567611 -0.28388533 -0.005256725 0
0.065536231 -0.28464618 -0.0011278454 0
0.065636404 -0.28453964 0.0012586628 0
0.0647339 -0.28381267 0.005199777 0
0.066775285 -0.28310198 -0.0045203846 0
0.067006886 -0.28308237 -0.0013405782 0
0.06704019 -0.28304702 0.0014900195 0
0.066884525 -0.28298783 0.0043975152 0
0.032227699 -0.2793518 -0.0073350077 0
0.032408677 -0.2794556 -0.0044381581 0
0.032462995 -0.2794835 -0.0014175794 0
0.032206822 -0.27935174 0.0012088889 0
0.032131631 -0.27931306 0.0042778342 0
0.032387018 -0.27943614 0.007548687 0
0.034325399 -0.28027162 -0.0073439521 0
0.034531992 -0.28054804 -0.0045115398 0
0.034382775 -0.28047121 -0.0015784913 0
0.034416132 -0.28048837 0.0015240012 0
0.034517355 -0.28054041 0.0044944524 0
0.034555368 -0.2801635 0.0076323873 0
0.03745196 -0.28045255 -0.0077804327 0
0.036730729 -0.28167918 -0.0047750589 0
0.036727656 -0.2816776 -0.0014539037 0
0.036656663 -0.28164107 0.0017488017 0
0.036764912 -0.28169677 0.0044177487 0
0.037426196 -0.28063014 0.0077786921 0
0.040601663 -0.28046262 -0.0075475066 0
0.040550213 -0.28035599 0.0075606387 0
0.043365013 -0.2803781 -0.0071511143 0
0.04353125 -0.28035486 0.0071301782 0
0.046531443 -0.28047231 -0.0066908225 0
0.046604898 -0.28045449 0.0066831382 0
0.049542699 -0.28070748 -0.0062451181 0
0.050322879 -0.27932164 -0.0043820101 0
0.049913939 -0.27940375 -0.0014812431 0
0.050134499 -0.27944392 0.0016025407 0
0.050047357 -0.27944511 0.0045249732 0
0.049576782 -0.28019604 0.0062249969 0
0.052697308 -0.28057489 -0.0044859289 0
0.052494816 -0.28034708 -0.0015103518 0
0.0524779 -0.28034434 0.0014275047 0
0.052461747 -0.28045431 0.0045694117 0
0.051106531 -0.28117886 0.0060100211 0
0.055284824 -0.28131792 -0.0043002083 0
0.055194806 -0.28125685 -0.001520925 0
0.055155747 -0.28126818 0.0014902581 0
0.055316932 -0.28128076 0.0043571624 0
0.058453046 -0.28037399 -0.004680546 0
0.057674345 -0.27981415 -0.0015912023 0
0.057673324 -0.27981517 0.0016096353 0
0.058442932 -0.28016034 0.0048398511 0
0.061853535 -0.28052631 -0.0051485947 0
0.061214361 -0.28045005 0.0051450538 0
0.064573824 -0.28058866 -0.0051455135 0
0.064540602 -0.280687 0.0051589031 0
0.067656778 -0.28076017 -0.0047059529 0
0.06846755 -0.28152925 -0.0014703616 0
0.068524666 -0.28146854 0.0012750827 0
0.067776084 -0.28078192 0.0047723833 0
0.069693945 -0.27989554 -0.004240592 0
0.06993603 -0.27996773 -0.001445152 0
0.069919527 -0.27998531 0.0013650238 0
0.069705769 -0.28005892 0.004185468 0
0.026389873 -0.27634826 -0.0095868316 0
0.026233584 -0.27627873 -0.0072933212 0
0.026283041 -0.27630419 -0.0044609467 0
0.026421484 -0.27637538 -0.0016742229 0
0.026320005 -0.27632317 0.0012401431 0
0.026338166 -0.27633247 0.0043358565 0
0.026303027 -0.27631444 0.0073189717 0
0.026560776 -0.27640584 0.0094074337 0
0.028337711 -0.27685136 -0.0093824733 0
0.028354878 -0.27737007 -0.0076157954 0
0.028437646 -0.27741262 -0.0043881116 0
0.028538382 -0.27746451 -0.0015394287 0
0.028512191 -0.27745098 0.0014613223 0
0.028637512 -0.27751541 0.0045659058 0
0.028418574 -0.27740279 0.0074436925 0
0.028715469 -0.27693897 0.009375345 0
0.030562863 -0.27743909 -0.0090934439 0
0.03147731 -0.27808744 -0.0080987671 0
0.030760283 -0.27860758 -0.0048361835 0
0.030758779 -0.2786068 -0.0013729326 0
0.030554038 -0.27850145 0.0017082149 0
0.030727858 -0.27859089 0.0044051167 0
0.031550542 -0.27816367 0.0082946932 0
0.030587012 -0.27729839 0.0090965927 0
0.034629319 -0.27741838 -0.0085068215 0
0.034627751 -0.27763101 0.0085025411 0
0.037350774 -0.27740523 -0.0081142085 0
0.037558615 -0.27752316 0.0080827158 0
0.040430658 -0.27762032 -0.0076597924 0
0.041110892 -0.27621615 -0.000463745 0
0.041277673 -0.27627799 0.0014325948 0
0.041319534 -0.27629352 0.0046961294 0
0.040646978 -0.27716026 0.007308919 0
0.043316554 -0.27745166 -0.0070612784 0
0.044106737 -0.27637994 -0.0045492612 0
0.043856625 -0.27684891 -0.00092891953 0
0.043703154 -0.27694982 0.001612091 0
0.04371183 -0.27695397 0.0045474386 0
0.043318111 -0.27719414 0.0069138166 0
0.046204042 -0.27817312 -0.0066001774 0
0.046613235 -0.27751958 -0.0044966978 0
0.046582524 -0.27796811 -0.0012230849 0
0.046412494 -0.27781069 0.0014671459 0
0.046383485 -0.27790391 0.0046711816 0
0.046241142 -0.27806294 0.0064251604 0
0.04873617 -0.27892295 -0.0062082843 0
0.048856217 -0.27853093 -0.0044441381 0
0.048731409 -0.27868643 -0.0013535342 0
0.048743639 -0.27869418 0.0014312648 0
0.048603259 -0.27865213 0.0045960722 0
0.04825915 -0.27886671 0.0062191864 0
0.059115358 -0.27837741 -0.0041564852 0
0.059244517 -0.27814522 -0.0014735644 0
0.059209183 -0.27818277 0.0015299205 0
0.059244588 -0.27824855 0.0041755796 0
0.06138416 -0.27741399 -0.0045986436 0
0.060709804 -0.27658787 -0.0013905232 0
0.060646784 -0.2766549 0.0015285471 0
0.061370984 -0.27745384 0.0045142653 0
0.064605303 -0.27762324 -0.0048207575 0
0.064551555 -0.27765247 0.0048266328 0
0.06752903 -0.277762 -0.0048251855 0
0.067481041 -0.27737188 0.00478512 0
0.070655495 -0.27754271 -0.0044514704 0
0.071454823 -0.2783528 -0.0014964851 0
0.07138034 -0.27843198 0.0014892578 0
0.070386052 -0.27753785 0.0044888505 0
0.07258264 -0.2768243 -0.0041699484 0
0.072752438 -0.27697298 -0.0013742697 0
0.072923198 -0.27679145 0.0016336809 0
0.072813228 -0.27688637 0.0037692511 0
0.020418787 -0.27328715 -0.0097736102 0
0.020246319 -0.27319846 -0.0075020976 0
0.020407988 -0.2732816 -0.0039651748 0
0.020517409 -0.27333793 -0.0014302827 0
0.020376114 -0.27326518 0.0015860768 0
0.020595023 -0.27337781 0.0043615461 0
0.020474456 -0.27331579 0.0072966814 0
0.020257842 -0.27319241 0.01006143 0
0.022827772 -0.2740244 -0.0099825142 0
0.022283835 -0.27424669 -0.0073978063 0
0.022479918 -0.27434754 -0.0043891682 0
0.022658788 -0.27443957 -0.0012958456 0
0.022379672 -0.27429596 0.0013906176 0
0.022421654 -0.2743175 0.0046445695 0
0.02244002 -0.27432701 0.007350246 0
0.022510028 -0.27403048 0.010059578 0
0.025691349 -0.27475411 -0.0098463362 0
0.02489044 -0.27558771 -0.0074358527 0
0.024789663 -0.27553588 -0.0043902304 0
0.024756676 -0.27551889 -0.0014306252 0
0.024799814 -0.27554107 0.0017291111 0
0.024731271 -0.27550581 0.0046564862 0
0.024904575 -0.27559498 0.0074313078 0
0.025384957 -0.27455357 0.0098663252 0
0.028387526 -0.27426064 -0.009508661 0
0.028155167 -0.27440032 0.0095399553 0
0.03094241 -0.27447128 -0.0091329888 0
0.032402646 -0.27469137 -0.008915103 0
0.032639261 -0.27307484 0.0025337336 0
0.032729954 -0.27310848 0.0047377399 0
0.032647628 -0.27362072 0.0083132805 0
0.030936079 -0.27426487 0.0091426624 0
0.034756258 -0.27421162 -0.0081710722 0
0.034651265 -0.27382088 0.0022408818 0
0.034556508 -0.27378574 0.0044505228 0
0.034470327 -0.27402696 0.007893702 0
0.037152383 -0.27444598 -0.0074723521 0
0.037710827 -0.2734834 -0.004510846 0
0.037987962 -0.27357563 -0.0016440791 0
0.037799496 -0.27452043 0.0015555044 0
0.037598766 -0.27446738 0.0047225989 0
0.037439387 -0.27475896 0.0071782921 0
0.039881684 -0.27529576 -0.0069762901 0
0.040380888 -0.27467781 -0.0043529123 0
0.040638451 -0.27490526 -0.0015753041 0
0.040161822 -0.27514043 0.0015940905 0
0.040152729 -0.27522928 0.0045889323 0
0.039929401 -0.27558038 0.0069616148 0
0.042357486 -0.27589098 -0.0060471063 0
0.042597122 -0.2756764 -0.0044462145 0
0.042551279 -0.27564538 -0.0012826363 0
0.042830996 -0.27577227 0.0018773326 0
0.042472556 -0.27566147 0.0047840066 0
0.042181764 -0.2759425 0.0062795035 0
0.062023457 -0.27542779 -0.0040262048 0
0.062067181 -0.27514514 -0.0015014708 0
0.062220141 -0.2749826 0.0014989438 0
0.062256705 -0.27500084 0.0038010031 0
0.064171739 -0.27429801 -0.0042546559 0
0.06349957 -0.27362275 -0.0017057499 0
0.063568644 -0.27354932 0.0016661459 0
0.064491019 -0.27425265 0.0042628301 0
0.067487314 -0.27455589 -0.0044744588 0
0.067657009 -0.27442127 0.0044615874 0
0.070389464 -0.27441978 -0.0044434587 0
0.070598103 -0.27454925 0.0044533913 0
0.073513493 -0.27467024 -0.0041297129 0
0.074235812 -0.27539569 -0.0012878672 0
0.074435279 -0.27518362 0.0015832498 0
0.073583707 -0.27459565 0.0040625269 0
0.075625911 -0.27357554 -0.0036232905 0
0.075697511 -0.27384141 -0.0016508515 0
0.075845107 -0.27368447 0.0016189235 0
0.075583003 -0.27371439 0.0036929792 0
0.014530734 -0.27023238 -0.010247416 0
0.014534741 -0.27026004 -0.0074648825 0
0.014545712 -0.27026567 -0.0046343161 0
0.014453695 -0.27021831 -0.0014800071 0
0.014696801 -0.27034339 0.0012354816 0
0.014492447 -0.27023822 0.0042794403 0
0.014429624 -0.27020591 0.0074874228 0
0.014488389 -0.27023613 0.010396944 0
0.016311554 -0.27100199 -0.010554554 0
0.016514285 -0.27127841 -0.007495116 0
0.016369574 -0.27120399 -0.0044584135 0
0.016567143 -0.27130562 -0.0013666232 0
0.016190726 -0.27111197 0.0015614262 0
0.016682796 -0.27136508 0.0045220722 0
0.016434779 -0.27123749 0.0073344763 0
0.016540037 -0.27105868 0.010540467 0
0.019218931 -0.27177235 -0.010597768 0
0.019016866 -0.27256596 -0.0075904201 0
0.018910764 -0.27251139 -0.004163485 0
0.018949013 -0.272531 -0.0015528386 0
0.018809412 -0.27245921 0.0015513608 0
0.018931622 -0.27252203 0.0044661071 0
0.01894632 -0.2725296 0.0074395202 0
0.019341875 -0.27161303 0.010536884 0
0.022509431 -0.27148205 -0.010445923 0
0.022615729 -0.27159208 0.010429188 0
0.025424831 -0.27139577 -0.0099615827 0
0.026904279 -0.27020714 -0.0085413596 0
0.025532831 -0.27043968 0.0049476982 0
0.025693817 -0.27049091 0.0077504823 0
0.025559789 -0.27107045 0.009815854 0
0.028304201 -0.27198341 -0.0094835404 0
0.02903452 -0.27054992 -0.0074322405 0
0.029951992 -0.27207839 0.0028088663 0
0.02856911 -0.27154195 0.0046640234 0
0.028611675 -0.27129424 0.0076114321 0
0.02821674 -0.27174503 0.0094190706 0
0.030802697 -0.27272987 -0.0091968207 0
0.031437602 -0.27177793 -0.0076418808 0
0.031492516 -0.27064446 -0.0044450653 0
0.031529024 -0.27064601 -0.0014859606 0
0.031826578 -0.27129349 0.001655509 0
0.031179331 -0.27179545 0.004515633 0
0.031287335 -0.27211866 0.0075112456 0
0.030982204 -0.27259123 0.0091218874 0
0.034041613 -0.27254942 -0.0068981647 0
0.034628376 -0.27207661 -0.0046461946 0
0.03452725 -0.27200595 -0.0015289342 0
0.034814242 -0.27213612 0.0016001249 0
0.034702059 -0.2721301 0.004603331 0
0.033745933 -0.27245677 0.0069760969 0
0.036326375 -0.27283344 -0.0040800036 0
0.036367908 -0.2728408 -0.0017535441 0
0.036425039 -0.27286673 0.00097017782 0
0.036350034 -0.27283269 0.0039391043 0
0.064959787 -0.27239883 -0.0039799539 0
0.065217346 -0.271797 -0.0017131472 0
0.065028355 -0.27199784 0.0015280376 0
0.065235481 -0.27212131 0.003944621 0
0.067437306 -0.27142614 -0.0040795133 0
0.066455044 -0.2704815 -0.0015284047 0
0.066500716 -0.27043295 0.0013054926 0
0.067431994 -0.27155414 0.0040356885 0
0.070473664 -0.2715002 -0.0041290559 0
0.070339307 -0.27148244 0.0041300831 0
0.073221244 -0.27130428 -0.004079679 0
0.07344304 -0.27137178 0.0040866281 0
0.076370843 -0.27143863 -0.0036847983 0
0.077359535 -0.27207419 -0.0014974432 0
0.077246897 -0.27219388 0.0012638841 0
0.076454952 -0.27122143 0.0036955238 0
0.07869871 -0.27045742 -0.0032889617 0
0.078633592 -0.27071947 -0.0016182138 0
0.078684412 -0.27066538 0.0015918985 0
0.078503966 -0.27062511 0.0033858202 0
0.0085475659 -0.26711869 -0.01251138 0
0.0085743237 -0.26719356 -0.01027489 0
0.0087447539 -0.26728126 -0.0076977219 0
0.0085521434 -0.26718217 -0.0045810863 0
0.0085136779 -0.26716232 -0.0010581723 0
0.0086037982 -0.2672087 0.001576638 0
0.0086200861 -0.2672171 0.0046128142 0
0.0085711647 -0.26719189 0.0074146478 0
0.008514341 -0.26716271 0.010190115 0
0.0085268719 -0.26714182 0.012280753 0
0.010572943 -0.26791513 -0.012238303 0
0.010391878 -0.2681286 -0.01026883 0
0.010325319 -0.26809436 -0.0073997676 0
0.010622064 -0.26824704 -0.0043640058 0
0.010625673 -0.26824889 -0.0013715691 0
0.010467432 -0.26816753 0.001425416 0
0.010476241 -0.26817206 0.0044428799 0
0.010509092 -0.26818892 0.0074476218 0
0.010451282 -0.26815915 0.010498242 0
0.010342482 -0.2676459 0.012264409 0
0.012101448 -0.26810873 -0.012056293 0
0.013423768 -0.26902246 -0.01102408 0
0.013004177 -0.2694726 -0.0076127341 0
0.013054159 -0.26949829 -0.0040555587 0
0.013077212 -0.26951015 -0.0015833674 0
0.013008732 -0.26947492 0.0013653741 0
0.013015412 -0.26947832 0.0045118383 0
0.012800144 -0.26936761 0.0074527622 0
0.013326112 -0.26903379 0.010951741 0
0.012336559 -0.26775548 0.012035585 0
0.016594335 -0.26833758 -0.011335406 0
0.017294975 -0.2673851 0.0079527711 0
0.016792266 -0.26777437 0.010802366 0
0.019403432 -0.26837534 -0.010630484 0
0.020882962 -0.26720753 -0.0081504732 0
0.020683156 -0.2686415 0.0057118707 0
0.019464737 -0.26814348 0.0076488443 0
0.019442659 -0.26826355 0.010131527 0
0.022518778 -0.26911446 -0.0099616619 0
0.022565905 -0.26781183 -0.0078533413 0
0.023733178 -0.26715025 -0.0050593456 0
0.023665296 -0.26707926 -0.0016576387 0
0.023772022 -0.26712769 0.0014429096 0
0.022981184 -0.26867738 0.0053908913 0
0.02274815 -0.26883766 0.0075052916 0
0.02246784 -0.26920995 0.0098358011 0
0.024486812 -0.26980036 -0.0097690942 0
0.025448864 -0.2689431 -0.007511016 0
0.02553422 -0.26793739 -0.0044516926 0
0.025353866 -0.26784515 -0.0014597469 0
0.025409436 -0.26787037 0.0015021594 0
0.025388436 -0.26806539 0.0044629676 0
0.025328714 -0.26903209 0.0072891698 0
0.024524197 -0.26975837 0.0094493842 0
0.027718801 -0.26956108 -0.0067679808 0
0.028568164 -0.26931742 -0.0046759737 0
0.028619923 -0.26932648 -0.0015862538 0
0.028521158 -0.26928177 0.0014950745 0
0.028544439 -0.26929995 0.0043146587 0
0.028069926 -0.26960978 0.0065738964 0
0.030076146 -0.26998705 -0.00037356355 0
0.030056829 -0.26997828 0.00062948576 0
0.068071909 -0.26919371 -0.0035786161 0
0.06801898 -0.26881924 -0.0015504193 0
0.067991845 -0.26884809 0.001505509 0
0.068006791 -0.26907331 0.003599507 0
0.070505604 -0.26869521 -0.0038058723 0
0.069365427 -0.26738819 -0.0013973581 0
0.06929899 -0.26745877 0.0014319808 0
0.070483804 -0.26848772 0.0037861916 0
0.073515035 -0.2684949 -0.0037886929 0
0.073482983 -0.2684994 0.0037919215 0
0.076654851 -0.26841179 -0.0036301522 0
0.076594599 -0.26840985 0.0036559561 0
0.079181351 -0.26848927 -0.0032925827 0
0.080179445 -0.26907569 -0.0015291275 0
0.080116071 -0.26914307 0.0014276662 0
0.079622351 -0.26817662 0.0032163227 0
0.081593722 -0.26757184 -0.0014825427 0
0.081409566 -0.26766998 0.0018281222 0
0.0027598531 -0.26416099 -0.012805172 0
0.002746104 -0.26419514 -0.010341514 0
0.0027418304 -0.26419291 -0.0072460365 0
0.0026230374 -0.26413181 -0.0045048059 0
0.0026958466 -0.26416928 -0.0015234642 0
0.0026865178 -0.26416445 0.001583346 0
0.0026203045 -0.26413038 0.004747719 0
0.0026874591 -0.26416492 0.007761321 0
0.0026266505 -0.26413363 0.010369767 0
0.0026873671 -0.26416487 0.012759462 0
0.0045914175 -0.26489842 -0.012952605 0
0.0044932645 -0.26509401 -0.010467903 0
0.0044503887 -0.2650719 -0.0076827989 0
0.0046075 -0.26515275 -0.0045891125 0
0.0043426193 -0.26501647 -0.0017819658 0
0.0047603929 -0.26523137 0.0012998561 0
0.0044045039 -0.2650483 0.0043942826 0
0.0045176991 -0.2651065 0.007476748 0
0.0044402895 -0.26506668 0.010440739 0
0.0046576774 -0.26484776 0.012861243 0
0.007409873 -0.26553035 -0.012711378 0
0.0069569037 -0.26636139 -0.01045557 0
0.0071976185 -0.2664853 -0.0076542553 0
0.0070421807 -0.26640531 -0.004572703 0
0.007050714 -0.26640972 -0.0014366122 0
0.0071011167 -0.26643559 0.0012977611 0
0.0069728419 -0.26636964 0.0049071554 0
0.0070956727 -0.26643282 0.007509443 0
0.0075966599 -0.26571754 0.01051344 0
0.0079484573 -0.26518679 0.012617951 0
0.010223026 -0.26553664 -0.01237674 0
0.010852712 -0.26442304 -0.011340157 0
0.011494553 -0.26523429 0.0087475972 0
0.010583205 -0.26479906 0.01057623 0
0.010381219 -0.26556587 0.012304333 0
0.012260471 -0.26615405 -0.012086312 0
0.013645286 -0.26547822 -0.010801396 0
0.014386153 -0.26435521 -0.0083956728 0
0.014050843 -0.26581934 0.0084352782 0
0.013413845 -0.26569444 0.010655651 0
0.012389948 -0.26616016 0.012052487 0
0.016315501 -0.26612961 -0.0099182297 0
0.016712327 -0.26511711 -0.0078575518 0
0.017447291 -0.26425895 -0.0039308174 0
0.017299058 -0.26419169 -0.0011716405 0
0.017309522 -0.26419646 0.0013836155 0
0.017547349 -0.26431158 0.004574988 0
0.016352244 -0.26564121 0.0078532221 0
0.01595775 -0.26661506 0.010376315 0
0.019275771 -0.26587477 -0.0071222084 0
0.019632252 -0.26525509 -0.0045298175 0
0.019409375 -0.26514891 -0.0016554086 0
0.019576374 -0.2652247 0.0012742904 0
0.019354597 -0.26513532 0.0046627843 0
0.019408973 -0.26604182 0.007307902 0
0.018682692 -0.26689065 0.0093625979 0
0.021427713 -0.26661944 -0.0066935839 0
0.022145053 -0.26639897 -0.0043900926 0
0.022341214 -0.26647869 -0.0013900854 0
0.022436116 -0.26652175 0.0014629486 0
0.02225193 -0.26644933 0.0043236371 0
0.021737566 -0.26678866 0.0067416383 0
0.071296506 -0.26622772 -0.0034705426 0
0.070818871 -0.26584333 -0.0013747192 0
0.070872806 -0.26578596 0.001557141 0
0.071108185 -0.26598662 0.0034144605 0
0.073303759 -0.26581576 -0.0034831967 0
0.072244853 -0.26432776 -0.001522561 0
0.072217412 -0.26435691 0.0015228058 0
0.073723488 -0.26519921 0.0034232994 0
0.076562546 -0.26542988 -0.0034381964 0
0.076239578 -0.26544911 0.0034461045 0
0.079543553 -0.26544625 -0.0032286271 0
0.079398692 -0.26555425 0.0032476364 0
0.081009634 -0.26656365 -0.0030031649 0
0.082654499 -0.2660113 -0.0019203397 0
0.082601324 -0.26569006 0.0021570821 0
0.084513932 -0.26442805 -0.0012891006 0
0.08439339 -0.26459491 0.0014322303 0
-0.0033552668 -0.26105618 -0.013133064 0
-0.0031469131 -0.26116335 -0.010969757 0
-0.0031304436 -0.26117182 -0.0076680938 0
-0.0032521903 -0.26110917 -0.0040606842 0
-0.0032257594 -0.26112276 -0.0012871618 0
-0.0032467905 -0.26111197 0.0010648229 0
-0.0032190206 -0.26112622 0.0047892663 0
-0.0031693496 -0.26115176 0.0075841569 0
-0.0031625801 -0.26115528 0.010241894 0
-0.0031665554 -0.26115319 0.014107348 0
-0.0013840876 -0.26194835 -0.013407552 0
-0.0014521863 -0.26203522 -0.010570632 0
-0.0012451913 -0.2621417 -0.0077754562 0
-0.0015808836 -0.261969 -0.004650292 0
-0.0016007795 -0.26195881 -0.0014518353 0
-0.0014781272 -0.26202193 0.0015436044 0
-0.0014839933 -0.26201883 0.0048266463 0
-0.0014434688 -0.26203966 0.0075754351 0
-0.001579401 -0.26196972 0.010494563 0
-0.0011999517 -0.26196939 0.013278911 0
0.001465184 -0.26229611 -0.013447627 0
0.0012396497 -0.26342005 -0.010740109 0
0.0010658094 -0.2633307 -0.0075844745 0
0.001216114 -0.26340798 -0.0045730877 0
0.0011020941 -0.26334932 -0.0014230496 0
0.0012266282 -0.26341343 0.0018281288 0
0.0012167455 -0.26340827 0.0044065514 0
0.00096421357 -0.26327837 0.0071836845 0
0.0013601114 -0.26301059 0.01069483 0
0.0014302011 -0.26213747 0.013121655 0
0.0044825887 -0.26262149 -0.012890245 0
0.0047663846 -0.26145047 -0.011048236 0
0.0049126851 -0.26227951 0.011127413 0
0.0044208956 -0.26271486 0.012826494 0
0.0073021161 -0.26353472 -0.012486043 0
0.0074917492 -0.26252151 -0.010727597 0
0.0081417402 -0.26133588 -0.0081490166 0
0.0080620665 -0.26135892 0.0082547022 0
0.0071659847 -0.26301619 0.010836381 0
0.0071446104 -0.26357412 0.012561328 0
0.010481796 -0.26339769 -0.009856767 0
0.010594698 -0.26232031 -0.007895777 0
0.01104219 -0.26135382 -0.0043627275 0
0.011091118 -0.26137596 -0.0014298758 0
0.011110854 -0.26138493 0.0013588165 0
0.011150354 -0.26140428 0.0044154534 0
0.010707305 -0.26211667 0.0074542281 0
0.010165415 -0.26341358 0.010139389 0
0.01211111 -0.26393625 -0.0094883041 0
0.013428795 -0.26321742 -0.0071860845 0
0.013584339 -0.26251376 -0.0044900556 0
0.013576536 -0.26250333 -0.0014376456 0
0.013385449 -0.26241663 0.0015876662 0
0.013408828 -0.26242879 0.0043933773 0
0.013438432 -0.26330671 0.0073354803 0
0.012112822 -0.26372629 0.0091244448 0
0.015618023 -0.26380304 -0.0064514489 0
0.015960611 -0.26359221 -0.0043751718 0
0.015936634 -0.26357377 -0.0017992785 0
0.016034991 -0.26361838 0.0017805761 0
0.015826002 -0.26352692 0.0045176395 0
0.015409111 -0.26363969 0.0063370769 0
0.074078724 -0.26298323 -0.0031609102 0
0.073811695 -0.26266238 -0.001390848 0
0.073756687 -0.26272088 0.0014998527 0
0.073876664 -0.26310092 0.0031752116 0
0.076635808 -0.26264831 -0.0031375478 0
0.075757831 -0.26116908 -0.0020999971 0
0.075812906 -0.26121002 0.0022008726 0
0.076298721 -0.26270908 0.0031478826 0
0.07945247 -0.26295695 -0.0031273896 0
0.07961046 -0.26121545 -0.0029663038 0
0.080029823 -0.2612322 0.0029687048 0
0.079586588 -0.26275024 0.0031084821 0
0.082400359 -0.2624692 -0.0027787923 0
0.082464606 -0.26240903 0.0027721834 0
0.085653342 -0.26256934 -0.0017192465 0
0.085676961 -0.26247421 0.0017986514 0
0.087452635 -0.26134193 -0.0010702637 0
0.087285787 -0.26146501 0.0011137 0
-0.009213469 -0.25804231 -0.012999536 0
-0.0091426708 -0.25807872 -0.010032867 0
-0.0091663003 -0.25806656 -0.0072236122 0
-0.009089482 -0.25810608 -0.0046552583 0
-0.0091236709 -0.25808847 -0.0016466919 0
-0.0091749523 -0.25806209 0.0017472547 0
-0.0091651781 -0.2580671 0.0043511642 0
-0.0091199884 -0.25809038 0.0079476284 0
-0.0090866517 -0.25810751 0.010811826 0
-0.0090914238 -0.25810501 0.012882864 0
-0.0079843551 -0.25837982 -0.015180584 0
-0.0073960288 -0.2588793 -0.013668352 0
-0.0073111742 -0.25902092 -0.010370476 0
-0.0075613689 -0.25889224 -0.0073027294 0
-0.0073489016 -0.25900155 -0.0045790677 0
-0.0074664084 -0.25894108 -0.0015341042 0
-0.007569009 -0.25888824 0.0016302462 0
-0.0074655497 -0.2589415 0.004519131 0
-0.0076058852 -0.25886929 0.0074880742 0
-0.0073876297 -0.25898165 0.010246399 0
-0.0072759655 -0.25872037 0.013974783 0
-0.0075455541 -0.25856936 0.015163169 0
-0.0044877916 -0.25964576 -0.013846987 0
-0.0046876795 -0.2603707 -0.010398543 0
-0.0048015658 -0.26031208 -0.0074757589 0
-0.0046155788 -0.26040781 -0.0045796516 0
-0.0046502249 -0.26038992 -0.0013824864 0
-0.004797502 -0.26031417 0.001537633 0
-0.0047397283 -0.26034388 0.004382106 0
-0.0047451234 -0.26034111 0.0075766579 0
-0.0048778583 -0.26020685 0.01048766 0
-0.0043772631 -0.25954938 0.013797621 0
-0.0017068466 -0.25984657 -0.013356989 0
-0.0012494539 -0.25859499 -0.010903224 0
-0.0010706487 -0.25864756 0.010853449 0
-0.0015302611 -0.26028651 0.013442584 0
0.00072895223 -0.26060572 -0.01281153 0
0.0015285834 -0.25959376 -0.010414766 0
0.0016090019 -0.25842011 -0.0083128111 0
0.0020497029 -0.25848702 0.0080783144 0
0.0015254563 -0.25970498 0.010612419 0
0.00077467284 -0.26068115 0.012660208 0
0.0043638237 -0.26053247 -0.0097764377 0
0.0046786452 -0.25933599 -0.0074472567 0
0.0046889507 -0.25847226 -0.0045250989 0
0.0047454247 -0.25849771 -0.0014060412 0
0.0049976432 -0.25861216 0.0017474341 0
0.0047579505 -0.25850347 0.0048535233 0
0.0047306325 -0.2593222 0.0073837559 0
0.0039884644 -0.26042399 0.0098903775 0
0.0073460005 -0.26043898 -0.0072283787 0
0.0076279975 -0.25980833 -0.0043572071 0
0.0074345162 -0.25971749 -0.0016768146 0
0.0072657373 -0.2596409 0.0015224948 0
0.0076518371 -0.25981697 0.0043455977 0
0.0072112731 -0.26049581 0.0074368361 0
0.0062023508 -0.26097652 0.0090785883 0
0.0095021892 -0.26082113 -0.006166934 0
0.0097697601 -0.26077664 -0.0047129081 0
0.0096042827 -0.2607016 -0.0013572575 0
0.0095556276 -0.26067954 0.0015139879 0
0.0095626079 -0.2606827 0.0044999728 0
0.0096098324 -0.2608242 0.006088146 0
0.076599039 -0.25990826 -0.0017187134 0
0.076729976 -0.25981405 0.0018595408 0
0.079432003 -0.25953189 -0.002746793 0
0.079341076 -0.25941604 0.0026201331 0
0.082735427 -0.25949788 -0.0026820332 0
0.082481578 -0.25948438 0.0027016602 0
0.085466549 -0.25988421 -0.0022952487 0
0.08571063 -0.25938526 0.0022588144 0
0.088582769 -0.2596435 -0.0011616449 0
0.088687479 -0.25961792 0.0012688758 0
0.090268157 -0.25831532 -0.0011037803 0
0.090294592 -0.25825071 0.00085909641 0
-0.012326902 -0.25610155 -0.015498033 0
-0.01240088 -0.2560426 -0.013431678 0
-0.012398943 -0.25604078 -0.010266014 0
-0.012388624 -0.25613731 -0.0075617647 0
-0.012367889 -0.25621822 -0.0046291458 0
-0.012379052 -0.25603592 -0.0016336426 0
-0.012390504 -0.25612882 0.0013715498 0
-0.01238993 -0.25603911 0.0046172892 0
-0.012390262 -0.25606284 0.0074789831 0
-0.012380627 -0.25605947 0.010301064 0
-0.012371369 -0.2559984 0.013364113 0
-0.012355126 -0.25609845 0.015763003 0
-0.010934543 -0.25676444 -0.015418114 0
-0.010513404 -0.25656423 -0.0137106 0
-0.01048728 -0.25663316 -0.010513144 0
-0.010562603 -0.25664586 -0.0074256612 0
-0.010631156 -0.2566776 -0.004565713 0
-0.01041511 -0.2566497 -0.001609158 0
-0.010528949 -0.25660202 0.0014140528 0
-0.010603898 -0.25667247 0.0044920063 0
-0.010582214 -0.25660908 0.0073901094 0
-0.010604072 -0.25660354 0.010530016 0
-0.010520047 -0.25664955 0.013447735 0
-0.010752672 -0.2567676 0.015360749 0
-0.008471651 -0.2578603 -0.015245139 0
-0.0078838496 -0.2566992 -0.013235354 0
-0.0074706208 -0.25619569 -0.010743388 0
-0.0075345035 -0.25630003 -0.0074861003 0
-0.0075085461 -0.25630003 -0.0045048078 0
-0.0075571472 -0.2563 -0.001526423 0
-0.007523289 -0.25629997 0.0014348008 0
-0.0074498109 -0.25629997 0.0046101795 0
-0.0075770556 -0.25629997 0.0075096716 0
-0.0074747368 -0.25623405 0.010564965 0
-0.0078481957 -0.25683898 0.013329269 0
-0.0083722444 -0.25784823 0.015159589 0
-0.0052744257 -0.25766176 -0.01250283 0
-0.0046165367 -0.25659624 -0.010226288 0
-0.00430744 -0.25624901 -0.0075592133 0
-0.0043553985 -0.2563 -0.0045384089 0
-0.0045407084 -0.25629997 -0.0014854323 0
-0.004431915 -0.2563 0.0014959865 0
-0.0045564459 -0.25629994 0.0043158676 0
-0.0044112313 -0.25625917 0.0075797006 0
-0.004847541 -0.25648472 0.010327846 0
-0.0053913966 -0.25761518 0.012517482 0
-0.0021408452 -0.25738841 -0.0095214425 0
-0.0016861206 -0.25640523 -0.0075036632 0
-0.0015774944 -0.25629246 -0.0044839657 0
-0.0013446403 -0.25628355 -0.0013274234 0
-0.0013424042 -0.25628608 0.0014839276 0
-0.0013255995 -0.25628886 0.0042927419 0
-0.0016441823 -0.25644681 0.0075141503 0
-0.0020857092 -0.2575981 0.009843261 0
0.00091710192 -0.25741184 -0.0071157254 0
0.0013221877 -0.25675973 -0.004564709 0
0.0012454153 -0.25672004 -0.0013487017 0
0.0012120678 -0.25664645 0.0015263144 0
0.0014863977 -0.256892 0.0043888912 0
0.00097718369 -0.25732964 0.006974326 0
0.0030330811 -0.25792041 -0.0063059828 0
0.0033026894 -0.25784341 -0.0044625667 0
0.003378801 -0.25787792 -0.0014059165 0
0.0032365343 -0.25781336 0.0013095262 0
0.0032870874 -0.25783625 0.0047498723 0
0.0031730502 -0.25787127 0.0061106584 0
0.079908505 -0.25649655 -0.0016526987 0
0.079745367 -0.25661707 0.0015536649 0
0.082736298 -0.25658759 -0.0024494468 0
0.082533315 -0.25671658 0.0024664702 0
0.085319877 -0.25637454 -0.0022897581 0
0.085554235 -0.25656453 0.0022703009 0
0.088418581 -0.25652751 -0.0018276472 0
0.088552326 -0.25668129 0.0018093297 0
0.091511242 -0.25640428 -0.00089707272 0
0.091484927 -0.25635874 0.001052859 0
0.093246251 -0.25510314 -0.00078583416 0
0.093187064 -0.25520229 0.00084932044 0
-0.012158919 -0.25413042 -0.015471037 0
-0.012189233 -0.25400183 -0.013463223 0
-0.012195672 -0.25403783 -0.010478536 0
-0.012173036 -0.25391108 -0.0076082302 0
-0.012165585 -0.2538693 -0.0043573603 0
-0.012187445 -0.25399154 -0.0015306703 0
-0.012186673 -0.25398719 0.0015961513 0
-0.012174203 -0.25391731 0.0045720213 0
-0.012158561 -0.25382972 0.0078780865 0
-0.012135591 -0.25370109 0.010634598 0
-0.012178014 -0.25393838 0.01355814 0
-0.012157678 -0.25426543 0.015537505 0
-0.011394786 -0.25343215 -0.01538705 0
-0.010469252 -0.25316635 -0.013939423 0
-0.011904642 -0.25240931 -0.010505522 0
-0.011920786 -0.25249961 -0.0075141047 0
-0.011937707 -0.2525942 -0.0044944561 0
-0.011943491 -0.25262648 -0.0012634185 0
-0.011939304 -0.25260302 0.001229542 0
-0.011895597 -0.25235835 0.0047527906 0
-0.011933451 -0.25257006 0.0073347935 0
-0.011946863 -0.25264511 0.010302681 0
-0.010596913 -0.2530604 0.014203026 0
-0.011386476 -0.25302446 0.015421024 0
-0.0080045806 -0.2534188 -0.012807438 0
-0.0064261481 -0.25351152 -0.011529092 0
-0.0065341359 -0.25372672 0.011580991 0
-0.0079907924 -0.25343993 0.012794546 0
-0.0047159814 -0.25345317 -0.010170753 0
-0.0031503057 -0.25393036 -0.0088379392 0
-0.0031791795 -0.25411689 0.0088314246 0
-0.0045908843 -0.25347996 0.0100679 0
-0.0015922433 -0.25369996 -0.0076302383 0
-0.0014636487 -0.25334296 0.0075891749 0
0.00044491884 -0.25294068 -0.0061282055 0
0.00051693787 -0.25336581 -0.0044315434 0
0.00048291491 -0.25351152 -0.001710306 0
0.00052673899 -0.25327647 0.0011061099 0
0.00047496453 -0.25356519 0.0045328285 0
0.00027371378 -0.2534667 0.0061784838 0
0.082619019 -0.25351778 -0.0013945756 0
0.082685061 -0.25362805 0.0014467712 0
0.085382469 -0.25338107 -0.0020832475 0
0.085522018 -0.25334203 0.0020689019 0
0.08847589 -0.25367272 -0.0018134608 0
0.088647299 -0.25352752 0.0017869428 0
0.091452189 -0.2533001 -0.0013473892 0
0.091625787 -0.25327292 0.0013225948 0
0.094269298 -0.25344279 -0.0007250437 0
0.094399266 -0.25333416 0.00069692789 0
0.096110746 -0.25213557 0.00037022607 0
-0.010964242 -0.25090325 -0.015225884 0
-0.010889295 -0.25048512 -0.013932295 0
-0.011535419 -0.25034332 -0.010537058 0
-0.011575419 -0.25056705 -0.0074574971 0
-0.011551341 -0.25043222 -0.0042946879 0
-0.011641235 -0.25093517 -0.0014535439 0
-0.011583213 -0.25061044 0.0014405074 0
-0.011564038 -0.25050306 0.0045968452 0
-0.011551921 -0.25043526 0.007351683 0
-0.011555978 -0.25045782 0.010246743 0
-0.011188178 -0.25062406 0.013732564 0
-0.010913527 -0.25058499 0.015187706 0
-0.0075323386 -0.2501609 -0.012977635 0
-0.0063004335 -0.25128964 -0.011802242 0
-0.00626565 -0.25139076 0.011759108 0
-0.00758777 -0.25032163 0.01299662 0
-0.0046138293 -0.25037891 -0.010606122 0
-0.0045678364 -0.25058028 0.010537176 0
-0.0026939111 -0.24964979 -0.00919283 0
-0.0011665828 -0.25065625 -0.0078016669 0
-0.0012875854 -0.25029728 0.0079605998 0
-0.0028028367 -0.25035566 0.0091629717 0
0.00064768863 -0.25053847 -0.0063700592 0
0.0011778568 -0.25022233 -0.0044948943 0
0.0010967259 -0.25051835 -0.0014864648 0
0.0011633849 -0.25021905 0.0015888255 0
0.001142243 -0.25039148 0.0044385041 0
0.0005185724 -0.2506029 0.0064642709 0
0.083879717 -0.25196153 -0.00089123775 0
0.083950236 -0.25188661 0.0010190327 0
0.085542955 -0.25063404 -0.0013624934 0
0.085614339 -0.25054446 0.0011852592 0
0.088626727 -0.25043792 -0.0017010273 0
0.088496856 -0.25050858 0.0017026138 0
0.091588803 -0.25066262 -0.0013227633 0
0.091536604 -0.25091442 0.001333741 0
0.094773471 -0.25056407 -0.00082255405 0
0.094435863 -0.25040197 0.00087786949 0
0.097346917 -0.25029671 -0.00034500199 0
0.097212635 -0.25012249 0.00037334641 0
-0.010881932 -0.24882473 -0.015016834 0
-0.010520395 -0.24724661 -0.014074851 0
-0.011058099 -0.24767239 -0.010535334 0
-0.011048811 -0.24762039 -0.0074549098 0
-0.01105715 -0.24766691 -0.0046209833 0
-0.011035545 -0.247546 -0.0012029638 0
-0.011039925 -0.24757047 0.0015558031 0
-0.011027006 -0.2474981 0.004581335 0
-0.011053661 -0.24764711 0.0075098989 0
-0.011044376 -0.24759509 0.010336247 0
-0.010503817 -0.24774212 0.01400976 0
-0.010481798 -0.24885273 0.015021393 0
-0.0074664201 -0.247281 -0.013405393 0
-0.0075237635 -0.24745709 0.013427216 0
-0.0058589391 -0.24703082 -0.012165396 0
-0.0045796251 -0.24751647 -0.011060257 0
-0.0042690234 -0.2475494 0.010807912 0
-0.0058109546 -0.24666972 0.012189405 0
-0.0024427234 -0.24742755 -0.0093656722 0
-0.0010911737 -0.24737272 -0.0082936417 0
-0.0011780994 -0.24767281 0.0083144391 0
-0.0024821344 -0.24699099 0.0094723329 0
0.00097524328 -0.24735384 -0.0066436753 0
0.0017535597 -0.24748413 -0.0043992563 0
0.0017563588 -0.24727057 -0.0015326012 0
0.0016548054 -0.24774922 0.0014490533 0
0.001770408 -0.24740377 0.004317767 0
0.00094106467 -0.24728298 0.0066846735 0
0.086861961 -0.24879186 -0.0012475725 0
0.086786382 -0.24887216 0.0010419927 0
0.088451125 -0.24772058 -0.0011815141 0
0.08868745 -0.24753843 0.0011400672 0
0.091225527 -0.24757405 -0.0013362224 0
0.091478117 -0.24721156 0.0013010934 0
0.094371572 -0.2473269 -0.00088176533 0
0.094544388 -0.24733244 0.00085710787 0
0.09778583 -0.24735528 -0.0003456565 0
0.097396798 -0.24711591 0.00040895026 0
0.099343494 -0.24757388 -0.0001013195 0
0.099620245 -0.24752805 6.0318787e-05 0
-0.010293121 -0.24453075 -0.013730176 0
-0.010469924 -0.24438125 -0.010632786 0
-0.01049611 -0.24452768 -0.0072468519 0
-0.010520482 -0.24466401 -0.0045493026 0
-0.010473519 -0.24440108 -0.0015617651 0
-0.010489142 -0.24448843 0.0015515558 0
-0.010437916 -0.24420178 0.0045158183 0
-0.010474741 -0.24440773 0.007625632 0
-0.010528686 -0.24470954 0.010372444 0
-0.010237264 -0.24459973 0.013627346 0
-0.0074000075 -0.24464981 -0.013716439 0
-0.0074491207 -0.24467146 0.013759819 0
-0.0055548237 -0.24452852 -0.012343007 0
-0.004169025 -0.24449752 -0.011239568 0
-0.0039099697 -0.24462256 0.011012954 0
-0.0054598432 -0.24442165 0.012286637 0
-0.0020520044 -0.24451432 -0.0095431106 0
-0.00061711675 -0.24480876 -0.008345658 0
-0.00083319703 -0.24468827 0.0085405046 0
-0.002219483 -0.24435826 0.0097050285 0
0.0012169029 -0.24446374 -0.0069364742 0
0.0023557486 -0.24461995 -0.0046212426 0
0.002291172 -0.24471568 -0.001680561 0
0.0022904277 -0.24461262 0.0015383656 0
0.00235555 -0.24462073 0.0045398478 0
0.0013008779 -0.24450171 0.0068646395 0
0.089676127 -0.24580082 -0.00069819472 0
0.089699984 -0.24577545 0.00028260006 0
0.091498099 -0.24456713 -0.00097176357 0
0.091355696 -0.24442974 0.00090442674 0
0.094682761 -0.24435675 -0.00082755525 0
0.094533697 -0.244532 0.00085059449 0
0.097564131 -0.24451068 -0.00037704498 0
0.097455651 -0.2443649 0.00039638014 0
0.099476844 -0.2444275 -7.659023e-05 0
0.099479929 -0.24448361 7.866283e-05 0
-0.0097292224 -0.24169131 -0.013442534 0
-0.009943421 -0.24143513 -0.010348273 0
-0.0099841002 -0.24166271 -0.00737976 0
-0.0099827908 -0.24165532 -0.0046859882 0
-0.0099476054 -0.24145828 -0.0015894594 0
-0.0099619608 -0.24153857 0.0015489218 0
-0.0099432589 -0.24143389 0.0046881391 0
-0.0099252807 -0.24133314 0.0076632639 0
-0.0099579422 -0.24151587 0.010622526 0
-0.0098421015 -0.24163094 0.013301689 0
-0.0074378252 -0.24170431 -0.013862101 0
-0.0073704291 -0.24164614 0.013905678 0
-0.0052993894 -0.2411197 -0.012712025 0
-0.0037228819 -0.2416632 -0.011359392 0
-0.0038943423 -0.24162614 0.011504437 0
-0.0051643392 -0.24142894 0.012553589 0
-0.0019751729 -0.2413761 -0.010009502 0
-0.0003518734 -0.24180101 -0.008639385 0
-0.00047205837 -0.2415496 0.0087795062 0
-0.0016601856 -0.24155381 0.0097292913 0
0.0016422063 -0.2411723 -0.0071498561 0
0.0028034111 -0.24249075 -0.004027111 0
0.0027829378 -0.24193643 -0.0011264376 0
0.0028055238 -0.2418143 0.0012092281 0
0.0028262204 -0.24238208 0.0043023452 0
0.0013934134 -0.24133031 0.0073240222 0
0.0031361817 -0.24048083 -0.0060709785 0
0.0031745599 -0.24072547 -0.0045194984 0
0.0031245772 -0.24084185 -0.0018907168 0
0.003109087 -0.24094695 0.0019559409 0
0.0031435837 -0.24087262 0.0044432385 0
0.089929983 -0.24023928 -0.00080573861 0
0.089928374 -0.24025272 0.00052077154 0
0.091240995 -0.24158949 -0.00077206426 0
0.091132604 -0.24152014 0.00075696723 0
0.094354942 -0.24142344 -0.00073428079 0
0.094373092 -0.24119414 0.00071541494 0
0.097642154 -0.24166779 -0.00036136922 0
0.097400703 -0.24153098 0.00040157349 0
0.099513523 -0.24136691 -6.7144181e-05 0
0.099469364 -0.24148752 7.669464e-05 0
-0.0093629826 -0.23849928 -0.013019924 0
-0.0094219865 -0.2385174 -0.010407398 0
-0.0094228908 -0.23852237 -0.0072799553 0
-0.0093990173 -0.23838872 -0.0043905061 0
-0.0094479183 -0.23866229 -0.0017191233 0
-0.0094018923 -0.23840469 0.0015850321 0
-0.0094100153 -0.23845002 0.0045807622 0
-0.0094209341 -0.23851104 0.007668504 0
-0.0093938708 -0.23835959 0.010447924 0
-0.0094345259 -0.2387957 0.013043749 0
-0.0076710675 -0.23864882 -0.013679679 0
-0.0077112038 -0.23854801 0.013660529 0
-0.0049439338 -0.23847876 -0.012848151 0
-0.0034460216 -0.23828907 -0.011705443 0
-0.0033671414 -0.23847061 0.011613423 0
-0.005070216 -0.23870267 0.012932788 0
-0.0014097802 -0.23829907 -0.010074747 0
-0.00015229199 -0.23901096 -0.0089490097 0
-0.00024664524 -0.23952165 0.0089402646 0
-0.0013237958 -0.23849647 0.0099744173 0
0.0015036366 -0.23839426 -0.0077279927 0
0.0029726427 -0.23960701 -0.0002226295 0
0.0029042852 -0.23958421 4.3303204e-05 0
0.0013565747 -0.23842856 0.0078415563 0
7.448782e-05 -0.23755655 0.0090138838 0
0.0033197855 -0.23851213 -0.0062552327 0
0.0036263641 -0.23857656 -0.0042724051 0
0.0035132132 -0.23836643 -0.0013204864 0
0.0035375226 -0.23840685 0.0015320419 0
0.003616479 -0.23862343 0.0043233624 0
0.0032696407 -0.23820798 0.0063482122 0
0.089563094 -0.23872961 -0.00057868171 0
0.089678064 -0.23872098 0.00062672462 0
0.091652885 -0.23873797 -0.00072340033 0
0.091192409 -0.23861569 0.00074736448 0
0.094486609 -0.23860268 -0.0005409313 0
0.09461417 -0.23871684 0.0005411809 0
0.097468629 -0.23879306 -0.00035503556 0
0.097601503 -0.23831706 0.00031725515 0
0.099482 -0.2382707 -6.836508e-05 0
0.09953507 -0.23851573 6.2775791e-05 0
-0.009090201 -0.23666093 -0.012680895 0
-0.0090699885 -0.23654778 -0.010790825 0
-0.0090816775 -0.23661309 -0.0070864689 0
-0.0090950914 -0.23668808 -0.0045376956 0
-0.0090763047 -0.23658289 -0.0016776972 0
-0.0090848738 -0.23663078 0.0012586252 0
-0.00907801 -0.23659229 0.0043778773 0
-0.009065168 -0.23652034 0.0075432146 0
-0.0090693776 -0.23654383 0.010617224 0
-0.0091045965 -0.23674086 0.01295988 0
-0.0074022682 -0.23562473 -0.01326272 0
-0.0087693445 -0.23486547 -0.010461074 0
-0.0088064251 -0.23507293 -0.0075922422 0
-0.0088094687 -0.23508984 -0.0042910161 0
-0.0087790033 -0.23491928 -0.0014438217 0
-0.0088153593 -0.23512268 0.0013606207 0
-0.0088133803 -0.23511155 0.0042337985 0
-0.0087919487 -0.23499155 0.0073915459 0
-0.0088343164 -0.23522854 0.010589136 0
-0.0079414928 -0.235526 0.013019945 0
-0.0043577841 -0.23559695 -0.012777548 0
-0.003215095 -0.23595373 -0.011913513 0
-0.0031461138 -0.23621862 0.011815377 0
-0.0043450617 -0.23537673 0.012769289 0
-0.0015013182 -0.23533902 -0.010645887 0
-0.0014860227 -0.23545346 0.010616024 0
0.00025412053 -0.23482142 -0.0093285767 0
0.0016321727 -0.23517042 -0.0081674242 0
0.0014266182 -0.23548414 0.008280755 0
0.00041934612 -0.23496437 0.009173993 0
0.0038413864 -0.23523599 -0.0063890163 0
0.0042667282 -0.23553084 -0.0046571195 0
0.0040753298 -0.23561907 -0.0015319091 0
0.0040482185 -0.2354213 0.0012244704 0
0.0042944211 -0.23539895 0.0046745669 0
0.0036363709 -0.23537973 0.0065305284 0
0.089160055 -0.23534915 -0.00058345491 0
0.089311272 -0.23552915 0.00059585529 0
0.091514729 -0.23534881 -0.00053862878 0
0.091620795 -0.23538211 0.00053632027 0
0.094342977 -0.23549058 -0.00037134919 0
0.094672531 -0.23541722 0.00034911616 0
0.097612999 -0.23543753 -0.00016649016 0
0.097504444 -0.23523447 0.00016358044 0
0.099500358 -0.23595157 -5.1245002e-05 0
0.099408858 -0.23550601 4.9467984e-05 0
-0.0077152397 -0.23266524 -0.012694877 0
-0.0083379364 -0.23245154 -0.010678407 0
-0.0083559714 -0.23255235 -0.0076924455 0
-0.0083442554 -0.23248672 -0.0042792638 0
-0.008363991 -0.23259707 -0.001370325 0
-0.0083392141 -0.23245838 0.0013851905 0
-0.0083346702 -0.23243286 0.0043602451 0
-0.0083493106 -0.23251474 0.0074180397 0
-0.0084082242 -0.23284429 0.010649902 0
-0.0074838693 -0.23258442 0.012803538 0
-0.0044753207 -0.23243411 -0.012801317 0
-0.0043781199 -0.23232526 0.012767276 0
-0.0027248345 -0.23182768 -0.012215319 0
-0.0013885199 -0.23258558 -0.011018774 0
-0.0012280672 -0.23257041 0.010894565 0
-0.0027921384 -0.23200323 0.012241208 0
0.00056359172 -0.23257183 -0.0094593866 0
0.0020368933 -0.23250145 -0.0082925772 0
0.0019455346 -0.23272702 0.0083293663 0
0.00049492234 -0.23251802 0.0095249983 0
0.0039405003 -0.23258096 -0.0067563057 0
0.0049020685 -0.23250905 -0.0042787804 0
0.0046839966 -0.23236533 -0.00147211 0
0.004687049 -0.23242901 0.0014964982 0
0.0048959204 -0.23253804 0.0046278909 0
0.0040338067 -0.23241188 0.0067117624 0
0.088576555 -0.23234494 -0.00047341286 0
0.088854782 -0.23258939 0.00047982432 0
0.091366716 -0.232324 -0.00037525466 0
0.091276944 -0.23259571 0.00039866747 0
0.094391011 -0.23235767 -0.00018867588 0
0.094277151 -0.2324191 0.00020184254 0
0.096927933 -0.23297217 -6.5400818e-05 0
0.096866943 -0.23260255 4.9403545e-05 0
-0.0070733684 -0.22949694 -0.012423328 0
-0.0077729998 -0.22929035 -0.010489766 0
-0.0077698384 -0.22927259 -0.007560249 0
-0.00785565 -0.22975266 -0.0045369719 0
-0.0077977958 -0.22942889 -0.0014622082 0
-0.0078233844 -0.22957201 0.0015909576 0
-0.0078273471 -0.22959407 0.0046063568 0
-0.0078098141 -0.22949593 0.007306024 0
-0.0077885301 -0.2293767 0.010544537 0
-0.0071155336 -0.22938226 0.012365103 0
-0.0044699269 -0.22950056 -0.012477578 0
-0.0044946703 -0.22935084 0.012459535 0
-0.0024928614 -0.22950482 -0.01228265 0
-0.00078220887 -0.2292513 -0.011094566 0
-0.0011866135 -0.22967531 0.011348346 0
-0.0024481115 -0.22961855 0.012287399 0
0.0010371553 -0.22945917 -0.0096040983 0
0.0025594332 -0.22947022 -0.008384401 0
0.0023926075 -0.22947475 0.0085187247 0
0.00081856444 -0.22947815 0.0097773764 0
0.0043778424 -0.22926059 -0.0069649308 0
0.0055312156 -0.22951661 -0.0044535813 0
0.0052721715 -0.22947617 -0.001595087 0
0.0052074175 -0.22944039 0.001410153 0
0.0054916828 -0.22970444 0.0048313439 0
0.004299073 -0.22942412 0.0070020789 0
0.088535771 -0.22930586 -0.00034223043 0
0.08859279 -0.22953855 0.00037545466 0
0.091663793 -0.22974223 -0.00020589537 0
0.091652885 -0.22964239 0.00020301975 0
0.094094142 -0.23013325 -7.4340176e-05 0
0.093978256 -0.23014212 8.465795e-05 0
-0.0067158462 -0.22685647 -0.012126338 0
-0.007202629 -0.22652283 -0.010583745 0
-0.0072715888 -0.22648457 -0.0075297896 0
-0.0072556781 -0.22639547 -0.0043496713 0
-0.0072956174 -0.22661893 -0.0014357091 0
-0.0073156846 -0.22673115 0.0014616302 0
-0.0072445278 -0.22633287 0.0043985886 0
-0.0073041921 -0.22666667 0.0074440786 0
-0.0072272937 -0.2265054 0.010584175 0
-0.0067258882 -0.22706294 0.01214918 0
-0.0043058358 -0.22688082 -0.01213333 0
-0.004012757 -0.22529334 -0.01192473 0
-0.004175887 -0.22524567 0.011920083 0
-0.004422694 -0.22681855 0.012126768 0
-0.0021401055 -0.22654164 -0.0120844 0
-0.0010865069 -0.22621365 -0.011620171 0
-0.0014552125 -0.22607952 0.01171758 0
-0.0022215492 -0.22681552 0.012084483 0
0.0011521003 -0.22641833 -0.010023612 0
0.0027011593 -0.22653221 -0.0087652123 0
0.0027322625 -0.22668417 0.0087163681 0
0.0010275621 -0.22635548 0.010135399 0
0.0046530603 -0.2266468 -0.0071844026 0
0.005912879 -0.22770135 -0.0042847684 0
0.0055609816 -0.22663389 -0.0009250018 0
0.0056777322 -0.22685346 0.0013160569 0
0.0059161163 -0.22768573 0.0041961465 0
0.0044619516 -0.22646278 0.0073698699 0
0.0061120735 -0.22599009 -0.0061276397 0
0.0062172012 -0.22625388 -0.0044896542 0
0.0061594862 -0.22611053 -0.0022860321 0
0.0062580062 -0.22580129 0.0024109089 0
0.0062082154 -0.2262965 0.0044269273 0
0.0060837697 -0.22585037 0.0061754198 0
0.088745162 -0.22700357 -0.00019978458 0
0.089123085 -0.22675109 0.00018177884 0
0.091297954 -0.22677127 -4.8650672e-05 0
0.091079131 -0.22708736 8.4259533e-05 0
-0.0067292145 -0.2238256 -0.010570394 0
-0.0067241215 -0.22342122 -0.0074261064 0
-0.006727315 -0.22343895 -0.0044996454 0
-0.0067467801 -0.22354783 -0.0017163758 0
-0.006757034 -0.22360516 0.0013726701 0
-0.0067549651 -0.22359346 0.0046248087 0
-0.0067206337 -0.22340132 0.0076024053 0
-0.0066921599 -0.22363558 0.010567603 0
-0.0046414537 -0.22347645 -0.011685985 0
-0.0044550197 -0.22364493 0.011709726 0
-0.0016486703 -0.22322896 -0.011653461 0
-0.0012876986 -0.22334118 0.011612711 0
0.0014545784 -0.22323519 -0.010317058 0
0.0028694195 -0.22473246 -0.0089333225 0
0.0029495163 -0.22436458 0.0089327078 0
0.0014366332 -0.22357582 0.010275668 0
0.0047335192 -0.22335671 -0.0076734414 0
0.005757954 -0.22451402 -0.00044268349 0
0.0058122487 -0.22403233 0.00036488925 0
0.0046099965 -0.22346756 0.0077552143 0
0.0064136162 -0.22341461 -0.0063196081 0
0.0067911218 -0.22352421 -0.0044704829 0
0.006454499 -0.22347507 -0.0017764696 0
0.0064191525 -0.22336061 0.0016002277 0
0.006774575 -0.22360271 0.0048242812 0
0.0063432865 -0.2234786 0.0063667316 0
-0.0062223943 -0.22068028 -0.010345405 0
-0.0062549603 -0.22079596 -0.0073350342 0
-0.0062442399 -0.22073589 -0.0044499137 0
-0.0062418985 -0.22072266 -0.0015558779 0
-0.0062461048 -0.22074614 0.0015652804 0
-0.006233728 -0.22067681 0.004470082 0
-0.0062275571 -0.22064224 0.0077487417 0
-0.0062388945 -0.22084746 0.010392231 0
-0.0045551672 -0.22046992 -0.01118445 0
-0.0059489678 -0.21908376 -0.0081275022 0
-0.0059724059 -0.21921481 -0.0049190372 0
-0.0059767398 -0.21923903 -0.0018864527 0
-0.0059612365 -0.21915217 0.0013807414 0
-0.0059747505 -0.21922773 0.0045689391 0
-0.0059726466 -0.21921588 0.0081089763 0
-0.0044041337 -0.22038847 0.01125575 0
-0.0013803812 -0.22046623 -0.011290425 0
-0.0015364919 -0.22063181 0.011313779 0
0.0014561795 -0.22055072 -0.010657773 0
0.0016436438 -0.22044443 0.010566285 0
0.0033313581 -0.22039589 -0.0092931986 0
0.0048428671 -0.22051635 -0.0080637261 0
0.0047875708 -0.22057424 0.0080997935 0
0.0033793701 -0.22010411 0.0093054194 0
0.0066656526 -0.22048394 -0.0066109328 0
0.0073949713 -0.22065215 -0.0048869769 0
0.0069099474 -0.22063379 -0.0015890378 0
0.0069972789 -0.22038136 0.0016984277 0
0.0074346145 -0.2204634 0.0044295848 0
0.0066502253 -0.22053647 0.0066160387 0
-0.0049573085 -0.21744798 -0.01050882 0
-0.0057247891 -0.21782935 -0.0076918025 0
-0.0057004495 -0.21769302 -0.0043895841 0
-0.0056557325 -0.21744274 -0.0014095342 0
-0.0056884969 -0.21762604 0.001418845 0
-0.0056473231 -0.21739557 0.0043630903 0
-0.005699405 -0.21768689 0.0076624504 0
-0.0049945768 -0.21763538 0.010431853 0
-0.0016104216 -0.21776076 -0.01093492 0
-0.0015976802 -0.21761911 0.010917884 0
0.0017032282 -0.21761522 -0.010657192 0
0.0017483796 -0.21780472 0.01066984 0
0.0037013968 -0.21728262 -0.0095208352 0
0.0053062863 -0.21764143 -0.0081765531 0
0.0050567687 -0.21776928 0.0083562192 0
0.0036638598 -0.21744342 0.0095253494 0
0.0070857871 -0.21749395 -0.0067777447 0
0.0080559086 -0.21750855 -0.0048845536 0
0.0074261837 -0.21758315 -0.00151669 0
0.0073888414 -0.21732613 0.0013101588 0
0.0080179619 -0.21768607 0.0046313345 0
0.0070457547 -0.21729963 0.0068440433 0
-0.0045221145 -0.21441543 -0.010187984 0
-0.0051426389 -0.21457191 -0.0075687054 0
-0.0051498124 -0.2146119 -0.0044144583 0
-0.0051262449 -0.21448 -0.0016771719 0
-0.0050967201 -0.21431467 0.0015358684 0
-0.0051325774 -0.21451528 0.0042952211 0
-0.0051346729 -0.21452694 0.0074811536 0
-0.0044482122 -0.21444842 0.010179813 0
-0.0016046297 -0.21465509 -0.01052683 0
-0.0016180796 -0.2143355 0.010486388 0
0.0017182191 -0.21444833 -0.010495365 0
0.001675339 -0.21461555 0.010507382 0
0.0038887954 -0.21423419 -0.0098526189 0
0.0056008566 -0.21465755 -0.008442793 0
0.0055088946 -0.21474496 0.0085032014 0
0.00394721 -0.21462178 0.009771903 0
0.0074103368 -0.21437466 -0.0070427847 0
