# .PCD v0.7 - Point Cloud Data file format
VERSION 0.7
FIELDS x y z rgb
SIZE 4 4 4 4
TYPE F F F F
COUNT 1 1 1 1
WIDTH 1170
HEIGHT 1
VIEWPOINT 0 0 0 1 0 0 0
POINTS 1170
DATA ascii
0.11383857 -0.19061433 0.0032035578 0
0.11593755 -0.19042087 -0.0045920387 0
0.11665054 -0.1904878 -0.0014101784 0
0.11664715 -0.19052221 0.0015152498 0
0.11586265 -0.19047256 0.0045789778 0
-0.0060000103 -0.18883474 0.0027574592 0
-0.0060000205 -0.18765695 0.005517703 0
-0.0052147117 -0.18758906 -0.0049094521 0
-0.0059999931 -0.1875729 -0.001514663 0
-0.0060000047 -0.18765852 0.0016732391 0
-0.0050223409 -0.18741898 0.0050975229 0
-0.001424811 -0.18751499 -0.0044216807 0
-0.0016281821 -0.18749197 0.0044931448 0
0.0013708561 -0.18768598 -0.0034576457 0
0.0029137374 -0.18755582 0.0029269832 0
0.0013711854 -0.1876514 0.0034588922 0
0.0045133517 -0.18723875 -0.0023740153 0
0.004763796 -0.18758759 0.0022890393 0
0.0075661973 -0.18754573 -0.0016852928 0
0.007174355 -0.18742919 0.0017012879 0
0.0097329216 -0.18746041 -0.001109337 0
0.0097326459 -0.18745498 0.0011385189 0
0.11086959 -0.18716311 -0.00016850739 0
0.11083539 -0.1876801 0.00013646475 0
0.11385059 -0.18739229 -0.0031494761 0
0.11233031 -0.18765092 -0.0016292369 0
0.1124099 -0.18741167 0.0017109847 0
0.11385831 -0.18806639 0.0031594171 0
0.11593332 -0.1874184 -0.0045152712 0
0.11670012 -0.18748873 -0.0016159364 0
0.11670008 -0.18751925 0.0015599006 0
0.11579859 -0.18753427 0.0044610822 0
-0.006000008 -0.18395589 0.0020669063 0
-0.0060000145 -0.18461619 0.0039161472 0
-0.0051379427 -0.1844431 -0.0050691296 0
-0.0059999931 -0.18460678 -0.0015916474 0
-0.0060000038 -0.18437958 0.0014694828 0
-0.0051989597 -0.18468955 0.0050548846 0
-0.0016103112 -0.18440458 -0.0044856579 0
-0.0011212573 -0.18449919 0.0043183328 0
0.0014182917 -0.18465731 -0.0034412993 0
0.00283013 -0.18597002 -0.0029544479 0
0.0028970118 -0.18462013 0.0029327399 0
0.0013772049 -0.18480706 0.0034568058 0
0.0044322852 -0.18458462 -0.0024019792 0
0.0046690358 -0.18445547 0.0023217038 0
0.0076504922 -0.18436155 -0.0017836418 0
0.0075662085 -0.18432361 0.0017861144 0
0.0096252477 -0.18458693 -0.001271175 0
0.0096516889 -0.18447855 0.0011015902 0
0.11088441 -0.18467017 -0.00018333747 0
0.11088028 -0.18485582 0.00018136046 0
0.11382373 -0.18439859 -0.0031226368 0
0.11233762 -0.18440419 -0.0016365602 0
0.11241246 -0.18450585 0.0017135527 0
0.11380219 -0.18432829 0.00310328 0
0.11611117 -0.18458967 -0.0046766205 0
0.11670009 -0.18456651 -0.0014709156 0
0.11670008 -0.18450154 0.001569069 0
0.11588473 -0.18457377 0.0045767911 0
-0.0060000084 -0.18086144 0.0022212865 0
-0.0060000131 -0.18047546 0.0034394532 0
-0.0050567021 -0.18170752 -0.005298018 0
-0.0059999926 -0.18138552 -0.0016560402 0
-0.0060000038 -0.18144795 0.0014071685 0
-0.005303619 -0.18160082 0.005042938 0
-0.0015802697 -0.18128133 -0.00447531 0
-0.001610173 -0.18174078 0.0044869133 0
0.0011848191 -0.18155465 -0.0035218189 0
0.0028724775 -0.18206161 -0.0029398592 0
0.0028344286 -0.18101339 0.002954307 0
0.0012013256 -0.18149637 0.003517441 0
0.0043146359 -0.18140072 -0.0024433415 0
0.0045181327 -0.18141313 0.0023751203 0
0.0075417249 -0.18146434 -0.0018888505 0
0.0074934238 -0.18150763 0.0018885633 0
0.0095742308 -0.18133424 -0.0012478695 0
0.0096282726 -0.18163024 0.0010836661 0
0.11081488 -0.18157046 -0.00019850899 0
0.11076874 -0.18116014 0.00019787445 0
0.11375342 -0.1811287 -0.003164317 0
0.11218309 -0.18155277 -0.0015630206 0
0.11247517 -0.1815999 0.0018539591 0
0.11379936 -0.181419 0.0031882962 0
0.11599108 -0.18166773 -0.0046713105 0
0.11663806 -0.18148689 -0.0014874086 0
0.11663243 -0.1814332 0.0014964109 0
0.11585925 -0.18146457 0.004595696 0
-0.0060000187 -0.17907436 0.0049955677 0
-0.0051392131 -0.17845438 -0.0049617249 0
-0.005999994 -0.17839682 -0.0012901127 0
-0.0060000038 -0.17853655 0.0013937663 0
-0.00535321 -0.17834899 0.0049005318 0
-0.0016264736 -0.17869145 -0.0044912524 0
-0.0013097284 -0.17830464 0.0043833 0
0.0016017482 -0.17876495 -0.0033780592 0
0.0028648153 -0.1793409 -0.0029425113 0
0.0029405139 -0.17907104 0.0029177193 0
0.0011818311 -0.17860602 0.003524153 0
0.0048799561 -0.17852752 -0.0022610906 0
0.0042748917 -0.17845109 0.0024638125 0
0.0073207309 -0.17827903 -0.0020062481 0
0.0076176235 -0.17847952 0.0020001994 0
0.0095047439 -0.17852257 -0.0013228355 0
0.0094755078 -0.17827484 0.0013186332 0
0.11061569 -0.17840089 -0.00035095986 0
0.1107229 -0.17857786 0.00043936068 0
0.11368089 -0.17827976 -0.003407941 0
0.11210547 -0.17848001 -0.0018227993 0
0.11205474 -0.17866357 0.0017536847 0
0.11358373 -0.17833973 0.0033074454 0
0.11570159 -0.17854252 -0.0046900106 0
0.1163464 -0.17863898 -0.0016553736 0
0.11633483 -0.17853238 0.0017469646 0
0.11562251 -0.1785059 0.0046692849 0
-0.0053457264 -0.17560193 -0.0049478002 0
-0.0059999931 -0.1755573 -0.0015124098 0
-0.0060000042 -0.17545524 0.0014889278 0
-0.0052676289 -0.17558536 0.0050083208 0
-0.0015419107 -0.17574157 -0.0044621024 0
-0.0013679261 -0.17512573 0.0044033569 0
0.0013974316 -0.17551664 -0.0034485257 0
0.0028752915 -0.17504619 -0.0029389141 0
0.0028543817 -0.17473726 0.002947404 0
0.0014413341 -0.17505516 0.0034346574 0
0.0046040318 -0.17521948 -0.0023845406 0
0.0045096246 -0.17570843 0.0024109345 0
0.0075027882 -0.17539375 -0.0021126613 0
0.0072822548 -0.17563942 0.002104925 0
0.009446606 -0.17538148 -0.0012954124 0
0.0094545791 -0.17545623 0.0014584553 0
0.11039566 -0.17544791 -0.00047103254 0
0.11043047 -0.1754355 0.0005091948 0
0.11350224 -0.17543699 -0.0035375478 0
0.11196471 -0.17563508 -0.0020004134 0
0.11197513 -0.17533405 0.0020453795 0
0.1134041 -0.17551398 0.0034347239 0
0.11554006 -0.17556702 -0.0048536006 0
0.11599294 -0.17537905 -0.0016071409 0
0.11599464 -0.17539509 0.0014841399 0
0.11546355 -0.17545402 0.0048683076 0
-0.0060000164 -0.1723077 0.0043289172 0
-0.005266177 -0.17235236 -0.0049315272 0
-0.0059999935 -0.17243716 -0.001350099 0
-0.0060000024 -0.17258163 0.0010907092 0
-0.0053166691 -0.17250423 0.004919583 0
-0.0017652212 -0.17226148 -0.0045391205 0
-0.0016612282 -0.17260674 0.0045044855 0
0.001453817 -0.17251629 -0.0034290932 0
0.0028620944 -0.17309287 -0.0029434725 0
0.0028856606 -0.17241152 0.00293661 0
0.0013896634 -0.17244893 0.0034524652 0
0.0044936356 -0.17263561 -0.0024497742 0
0.0046689408 -0.17265701 0.0024001314 0
0.0076874122 -0.17254993 -0.002217544 0
0.0073491675 -0.17232828 0.00222702 0
0.009345999 -0.1725391 -0.001266517 0
0.0093783541 -0.17269965 0.0012328082 0
0.11016768 -0.17221032 -0.00080501195 0
0.11013655 -0.17246541 0.0007245398 0
0.11312581 -0.17212176 -0.0037010892 0
0.11187526 -0.17264856 -0.002376219 0
0.11175829 -0.17279533 0.0022344671 0
0.11328697 -0.17236534 0.0038097138 0
0.11519069 -0.17248192 -0.0047220546 0
0.11556378 -0.17252487 -0.0015211473 0
0.11551503 -0.17229037 0.0015045776 0
0.11527033 -0.17253131 0.0047456841 0
-0.0060000098 -0.16915271 0.0026016932 0
-0.0051576467 -0.16942421 -0.0050295726 0
-0.0059999954 -0.16940798 -0.0014567957 0
-0.0060000038 -0.16948448 0.0013853667 0
-0.0052835443 -0.16930783 0.0050547943 0
-0.0016944911 -0.16964103 -0.0045147394 0
-0.0014606611 -0.16948706 0.0044353139 0
0.00131815 -0.16966523 -0.0034758856 0
0.0028768459 -0.16995887 -0.002938397 0
0.0028769721 -0.17004983 0.0029395977 0
0.0013325734 -0.16971239 0.0034721415 0
0.0044825845 -0.1695058 -0.0024782121 0
0.0045337174 -0.1691284 0.0024746987 0
0.0077008707 -0.16963902 -0.0023249018 0
0.0076052239 -0.16941534 0.0023344324 0
0.0092857229 -0.16955006 -0.0012795678 0
0.0092971576 -0.16964701 0.0014081175 0
0.10986122 -0.16942248 -0.0010784287 0
0.10987071 -0.16957337 0.0010585681 0
0.11291546 -0.16938178 -0.0040695099 0
0.11147445 -0.16985779 -0.0025597892 0
0.11145911 -0.16980465 0.00255749 0
0.11287603 -0.16949728 0.004008498 0
0.11481132 -0.16949634 -0.0047201463 0
0.11493663 -0.16961884 -0.0013327103 0
0.11491197 -0.16950536 0.0015581349 0
0.11476792 -0.16947213 0.0047534867 0
-0.0060000056 -0.16517521 0.0014285009 0
-0.0060000159 -0.16741708 0.0042036148 0
-0.0052283425 -0.16653658 -0.004988675 0
-0.0059999935 -0.16657382 -0.0013928489 0
-0.0060000038 -0.16653122 0.0014211723 0
-0.0052751382 -0.16660148 0.0048157005 0
-0.0013427114 -0.1665381 -0.0043934453 0
-0.0013595407 -0.1663902 0.0044004335 0
0.0013439079 -0.16629453 -0.0034670159 0
0.0028367725 -0.16633613 -0.0029522285 0
0.0028552015 -0.16516785 0.0029470869 0
0.0013516318 -0.16642784 0.0034655575 0
0.0043513626 -0.16647956 -0.0025371788 0
0.0043277149 -0.16652519 0.0025680505 0
0.0075430735 -0.16652638 -0.0024397008 0
0.0076041943 -0.16620083 0.0024529644 0
0.0091986591 -0.16652137 -0.0013830104 0
0.0092001697 -0.16642007 0.001165434 0
0.10796928 -0.16592687 -4.5531779e-05 0
0.10783209 -0.16551575 4.2125699e-05 0
0.11084357 -0.16521926 -0.0030079838 0
0.1096532 -0.1664674 -0.0015243056 0
0.10954998 -0.16633604 0.0014625246 0
0.11251011 -0.16628931 -0.004215111 0
0.1125427 -0.16618241 -0.0018481885 0
0.11283381 -0.16592169 0.0020588497 0
0.11248241 -0.16622582 0.0042039305 0
0.11429652 -0.16672695 -0.0047578537 0
0.11427747 -0.16657941 -0.0013926441 0
0.11429485 -0.16665962 0.0015525469 0
0.11432082 -0.16682941 0.0045645842 0
-0.0053583318 -0.16339138 -0.0051609748 0
-0.005999994 -0.1636543 -0.0014132729 0
-0.0060000033 -0.16365564 0.0013110567 0
-0.0051271683 -0.16348761 0.0050934921 0
-0.0013616866 -0.16357809 -0.0044 0
-0.001559057 -0.16338801 0.004469221 0
0.0012721373 -0.16345437 -0.0034917751 0
0.0027271165 -0.16376756 -0.0029900507 0
0.0028979925 -0.16274063 0.0029323224 0
0.0014299331 -0.16353504 0.0034385468 0
0.0044069146 -0.1635825 -0.0026146283 0
0.0042797187 -0.16347747 0.0026245236 0
0.0075248508 -0.16352242 -0.00255049 0
0.0074314266 -0.16350092 0.0025525203 0
0.0091100931 -0.16370583 -0.0015519287 0
0.0090963626 -0.16329239 0.0013496949 0
0.10756496 -0.1629509 -0.00056908291 0
0.10748144 -0.16321631 0.00041011142 0
0.11058901 -0.16316094 -0.0033953257 0
0.10913065 -0.16360252 -0.0018657445 0
0.10901168 -0.1635745 0.0017626324 0
0.11060625 -0.16331337 0.0033666398 0
0.11268002 -0.16347928 -0.0046546869 0
0.1133789 -0.16338897 -0.0015887832 0
0.1133741 -0.16337413 0.0015403982 0
0.11276834 -0.16368212 0.0046832194 0
-0.0060000145 -0.16038089 0.0039134664 0
-0.0049891965 -0.16064614 -0.0049989889 0
-0.0059999935 -0.1606738 -0.0014947724 0
-0.0060000042 -0.16027558 0.0015337943 0
-0.0052015311 -0.16062184 0.0050367974 0
-0.0017182174 -0.16044296 -0.0045229541 0
-0.0016290743 -0.16046166 0.0044933534 0
0.0012198961 -0.16030017 -0.0035098004 0
0.0028215759 -0.16007453 -0.0029574912 0
0.00290956 -0.16120103 0.0029283282 0
0.0012962379 -0.16065358 0.003484637 0
0.004484918 -0.16053139 -0.0026795908 0
0.0043372987 -0.16052032 0.0026891863 0
0.0076131974 -0.16059935 -0.002231987 0
0.0080977147 -0.16022013 0.0022246011 0
0.009030127 -0.16129644 -0.0015396676 0
0.0090276133 -0.16123007 0.0014010243 0
0.10705962 -0.16045737 -0.00085012225 0
0.10704467 -0.16029108 0.00088951696 0
0.1102 -0.16032861 -0.0039020714 0
0.10862027 -0.16072103 -0.0022634238 0
0.1086416 -0.16069371 0.0022948899 0
0.11027007 -0.16055466 0.0039008036 0
0.11218572 -0.16052492 -0.0049677715 0
0.11240625 -0.16039622 -0.0014273243 0
0.11247424 -0.16060546 0.0015193669 0
0.11221088 -0.16063163 0.0047188462 0
-0.0059999973 -0.15738285 -0.00085087406 0
-0.0051342817 -0.15745468 -0.0050842431 0
-0.0059999931 -0.15778632 -0.0015207367 0
-0.0060000052 -0.15732403 0.0017644034 0
-0.005213304 -0.15745859 0.0048511829 0
-0.0013721125 -0.15778194 -0.0044036158 0
-0.0017595178 -0.15757032 0.0045383223 0
0.0012704808 -0.15768914 -0.0034923658 0
0.0028537279 -0.15778181 -0.0029464129 0
0.002826428 -0.15741158 0.0029569806 0
0.0014418123 -0.15733194 0.0034344285 0
0.0044821715 -0.15761614 -0.0027819127 0
0.0046900096 -0.15757862 0.0027760004 0
0.0081785414 -0.15750241 -0.0019068534 0
0.008068366 -0.15764913 0.0021582136 0
0.10471125 -0.15653245 -0.00014541592 0
0.10470974 -0.15634903 0.00022220913 0
0.10784514 -0.15622355 -0.0031660723 0
0.10651579 -0.15757087 -0.0013799897 0
0.1065332 -0.15742429 0.0014588733 0
0.10781561 -0.15633002 0.0030964636 0
0.10969581 -0.15723005 -0.0043248124 0
0.10960099 -0.15729597 -0.0020030674 0
0.10926578 -0.15757881 0.002482472 0
0.10960521 -0.15739349 0.004214487 0
0.11146232 -0.15782018 -0.0046381401 0
0.11149724 -0.15765695 -0.0015207576 0
0.11148688 -0.15763368 0.0016378978 0
0.11147849 -0.15779357 0.0046486463 0
-0.0059999945 -0.15499656 -0.0016542495 0
-0.0060000084 -0.15570219 0.0021975092 0
-0.0053697997 -0.15460142 -0.0047708973 0
-0.0059999945 -0.15419868 -0.001232883 0
-0.0060000047 -0.15453261 0.0016500597 0
-0.0052435766 -0.15439284 0.0050335266 0
-0.0016322666 -0.15433484 -0.0044933381 0
-0.0013315693 -0.15465182 0.0043907464 0
0.0014261077 -0.15415166 -0.0034387147 0
0.0028849479 -0.15431389 -0.0029356594 0
0.002828571 -0.1543411 0.0029562304 0
0.0011874669 -0.15447652 0.0035221223 0
0.0046947701 -0.15443797 -0.0028855463 0
0.0044562733 -0.15443467 0.0028868192 0
0.0082264366 -0.15435833 -0.0020995559 0
0.0080536958 -0.15462768 0.0021855915 0
0.10413474 -0.15419587 -0.00058526098 0
0.1042469 -0.15414815 0.00069852517 0
0.10769036 -0.15503974 -0.0031730211 0
0.10636275 -0.1543676 -0.0020747611 0
0.10629543 -0.1543891 0.0020688432 0
0.10765576 -0.15521912 0.0032608332 0
0.10942517 -0.1550263 -0.0036991877 0
0.10994568 -0.15429914 -0.0016251978 0
0.10999677 -0.15450439 0.0015042441 0
0.10947642 -0.15503386 0.0037490299 0
-0.0059999903 -0.15265262 -0.0028239996 0
-0.0053827777 -0.15155655 -0.0050297999 0
-0.005999994 -0.15138344 -0.0013491482 0
-0.0060000042 -0.15162924 0.0015215932 0
-0.0052565765 -0.15146963 0.0047672363 0
-0.0014971358 -0.15164885 -0.0044467514 0
-0.0014513524 -0.15163517 0.0044320393 0
0.0013569092 -0.1515595 -0.0034633649 0
0.002994654 -0.15196922 0.0029777249 0
0.0015323237 -0.15123837 0.0034134064 0
0.0046409066 -0.15058331 -0.0030277129 0
0.0046681385 -0.15245213 -0.0029587876 0
0.0045984942 -0.15219699 0.0029693325 0
0.0048548812 -0.15069193 0.0030248307 0
0.0075093834 -0.15061291 -0.0030266112 0
0.0082970634 -0.15173049 -0.0018602335 0
0.0083649671 -0.15177056 0.0019214788 0
0.0074557038 -0.15046403 0.0030332443 0
0.10375851 -0.15238224 -0.00038673505 0
0.10398892 -0.15230535 0.00045668759 0
0.10655993 -0.15187097 -0.00090587721 0
0.1066435 -0.15172175 0.00082964572 0
0.10884095 -0.15200381 -0.0011098582 0
0.10885663 -0.1519767 0.001213073 0
-0.005999994 -0.14778304 -0.001853257 0
-0.0051309653 -0.1485839 -0.0050728461 0
-0.0059999931 -0.14850195 -0.0015942402 0
-0.0060000047 -0.14855063 0.0015096074 0
-0.0051077236 -0.14843337 0.0051100492 0
-0.0015771742 -0.14828132 -0.0044743619 0
-0.0014816207 -0.14862128 0.0044424646 0
0.0012967648 -0.14868626 -0.0034921295 0
0.0017025539 -0.14856108 0.0033810574 0
0.0045199376 -0.14843863 -0.0031068129 0
0.0044481778 -0.14854421 0.0031040255 0
0.0072931712 -0.14854006 -0.0031028513 0
0.0086079603 -0.14857674 -0.0013942193 0
0.0085967509 -0.1482393 0.00144891 0
0.0074229045 -0.14871962 0.0030960289 0
-0.0059999875 -0.14413176 -0.0036453898 0
-0.0052154479 -0.1452488 -0.0050131478 0
-0.0059999931 -0.14546351 -0.0015403671 0
-0.0060000042 -0.14583372 0.0015866017 0
-0.0051957224 -0.14543597 0.0049859066 0
-0.0012510694 -0.14569002 -0.0043619205 0
-0.001373929 -0.14548989 0.0044053192 0
0.0013183698 -0.14571737 -0.0035076437 0
0.0017461396 -0.14541703 0.0034014748 0
0.0043766927 -0.14549887 -0.0032152345 0
0.0046631424 -0.14544834 0.0032181824 0
0.0071379174 -0.14529 -0.0032109565 0
0.0085038152 -0.14543881 -0.0014727967 0
0.0085009988 -0.14535432 0.0013128632 0
0.0070523308 -0.1457523 0.003195873 0
-0.0059999889 -0.14349945 -0.0032544318 0
-0.0060000047 -0.14360616 0.0011764461 0
-0.0053306525 -0.14265576 -0.0049657454 0
-0.005999994 -0.14276654 -0.0012465864 0
-0.0060000042 -0.14264335 0.0012482944 0
-0.005494222 -0.14231469 0.0051395544 0
-0.0014061553 -0.14252689 -0.0044154101 0
-0.0016655623 -0.14262722 0.0045058718 0
0.0015445809 -0.14248255 -0.0034890594 0
0.0015587794 -0.14252917 0.0034899779 0
0.0043867459 -0.14254621 -0.0033241324 0
0.0044321455 -0.14250307 0.0033267855 0
0.0072425581 -0.1424055 -0.0033284731 0
0.008405474 -0.1424759 -0.0015927897 0
0.008403888 -0.1424284 0.0013368472 0
0.00726827 -0.14248468 0.0033138229 0
-0.0059999921 -0.14098196 -0.0022720906 0
-0.0051607373 -0.13962233 -0.004993889 0
-0.0059999935 -0.13947719 -0.001407136 0
-0.0060000038 -0.13947321 0.0014475773 0
-0.0054001128 -0.13956147 0.0049042823 0
-0.0015815635 -0.1396163 -0.0044759074 0
-0.00172409 -0.13946657 0.004526041 0
0.0015752107 -0.13931669 -0.0035421846 0
0.0015401286 -0.13940956 0.0035494387 0
0.0046227206 -0.1398322 -0.0034242275 0
0.0044718478 -0.13976602 0.0034277122 0
0.0074939141 -0.13983084 -0.0033831829 0
0.0083009414 -0.13932632 -0.0015041801 0
0.0083001824 -0.13930385 0.0015594262 0
0.0073109237 -0.13955761 0.0033869396 0
-0.0059999856 -0.13656549 -0.0041486286 0
-0.0051447228 -0.13652973 -0.0051676384 0
-0.0059999935 -0.13645074 -0.0015161305 0
-0.0060000042 -0.13667843 0.0016971712 0
-0.0051092263 -0.13651794 0.0049993331 0
-0.0015729459 -0.13647786 -0.0044729463 0
-0.0013528708 -0.13673081 0.0043980256 0
0.0014195393 -0.13645956 -0.0036114499 0
0.0013865153 -0.13610575 0.0036513119 0
0.0044315415 -0.1364677 -0.0035483162 0
0.0043245237 -0.13612324 0.0035620362 0
0.0072805462 -0.13660403 -0.0034522333 0
0.0081982724 -0.13623294 -0.0015596913 0
0.0082100471 -0.13658811 0.0015469544 0
0.0073098443 -0.13645016 0.0034520142 0
-0.0059999842 -0.13417991 -0.0045081689 0
-0.0059999917 -0.13230027 -0.002387255 0
-0.0053709294 -0.13340862 -0.005059354 0
-0.0059999921 -0.13362074 -0.0016696465 0
-0.0060000038 -0.13368925 0.0013961431 0
-0.0051503112 -0.13324466 0.005062494 0
-0.0015017114 -0.13363649 -0.0044483934 0
-0.0016704065 -0.13343866 0.0045075072 0
0.001452724 -0.13328107 -0.0036954938 0
0.0017217483 -0.13333017 0.0036808387 0
0.0044226116 -0.13347782 -0.0036585869 0
0.0046789139 -0.13385178 0.0036457942 0
0.0072725923 -0.13359968 -0.0035866003 0
0.0081106815 -0.1335939 -0.0016428351 0
0.0081021134 -0.13333604 0.0017002698 0
0.0072656791 -0.13369264 0.0035635498 0
-0.0059999819 -0.13063259 -0.0051567098 0
-0.0059999912 -0.13129659 -0.0026240689 0
-0.00498595 -0.13054086 -0.0051205265 0
-0.0059999931 -0.13008775 -0.0015305603 0
-0.0060000042 -0.1307088 0.0016371876 0
-0.005215412 -0.13051035 0.0047377101 0
-0.0015996476 -0.13062236 -0.0044821752 0
-0.0015976635 -0.13065939 0.0044824155 0
0.0014928284 -0.13012837 -0.0037914966 0
0.0014253922 -0.13044278 0.0037855271 0
0.0043982081 -0.1305442 -0.003766781 0
0.0042982884 -0.13055813 0.0037672441 0
0.0075053452 -0.13053823 -0.0035302539 0
0.0080105299 -0.13057639 -0.0015673591 0
0.0080064274 -0.13045309 0.0013743322 0
0.0073412098 -0.13054593 0.0036418424 0
-0.0059999921 -0.12710293 -0.0023116597 0
-0.005238127 -0.12742302 -0.0049518095 0
-0.0059999926 -0.1275468 -0.0016133307 0
-0.0060000038 -0.12769234 0.0014432002 0
-0.005186487 -0.12744439 0.0047915918 0
-0.0016698728 -0.12730542 -0.0045064031 0
-0.0015488418 -0.12747617 0.0044655688 0
0.001315317 -0.12749447 -0.0038807716 0
0.0013746483 -0.12738012 0.0038893213 0
0.0044771438 -0.1276127 -0.0038748989 0
0.0047127609 -0.12783411 0.0038676909 0
0.0072220578 -0.12747346 -0.0038075566 0
0.0079104407 -0.12756069 -0.0013792317 0
0.0079024732 -0.12732093 0.0014885903 0
0.0073485132 -0.12768117 0.0037225815 0
-0.0059999879 -0.12587263 -0.0034929314 0
-0.0053269044 -0.12448584 -0.0051565715 0
-0.0059999926 -0.12459399 -0.0016707479 0
-0.0060000047 -0.1243613 0.0016167805 0
-0.005249497 -0.12451602 0.005061476 0
-0.0014334924 -0.12460907 -0.0044270116 0
-0.0013740869 -0.12465338 0.0044096638 0
0.0016260433 -0.1244159 -0.0039928122 0
0.0010908371 -0.12453563 0.0039893058 0
0.0045333221 -0.12443625 -0.0039920509 0
0.0045130556 -0.12469331 0.0039835037 0
0.0071707438 -0.12433671 -0.0038748116 0
0.00780974 -0.12452669 -0.0013523712 0
0.0078062597 -0.12442207 0.0010388901 0
0.0072093615 -0.1244709 0.0038372842 0
-0.0059999847 -0.12128285 -0.0043233074 0
-0.0059999935 -0.12221878 -0.0018982134 0
-0.0051070801 -0.12125039 -0.0051605846 0
-0.0059999921 -0.12161006 -0.0019237284 0
-0.0060000042 -0.121613 0.0013086856 0
-0.0050711716 -0.12161969 0.0050529605 0
-0.0015976541 -0.12141751 -0.0045067878 0
-0.0016178919 -0.12134133 0.004507985 0
0.0013532218 -0.12140691 -0.0041037886 0
0.0013944322 -0.1216128 0.004097084 0
0.0044649518 -0.12140744 -0.0041037579 0
0.0042572417 -0.12153322 0.0041000284 0
0.0071365233 -0.12131632 -0.0039103706 0
0.0077105905 -0.12153935 -0.0013686016 0
0.0077099125 -0.12151916 0.0012506973 0
0.0071494919 -0.12155973 0.0039375825 0
-0.0059999824 -0.11971342 -0.0050348737 0
-0.0051238681 -0.11851337 -0.005073044 0
-0.005999994 -0.11860221 -0.0012950761 0
-0.0060000033 -0.11853787 0.0013303652 0
-0.0053399135 -0.11850677 0.0048367083 0
-0.0014463264 -0.11846282 -0.0044705519 0
-0.0014429234 -0.11848298 0.0044764224 0
0.0012640792 -0.11870193 -0.0042035514 0
0.0012139656 -0.1183211 0.0042184629 0
0.0045528556 -0.11849257 -0.0042112619 0
0.0044261487 -0.11833952 0.0042177942 0
0.0071958438 -0.1184296 -0.0040262695 0
0.0076169651 -0.1187184 -0.0017361075 0
0.0076141693 -0.11863447 0.0015944339 0
0.0070910282 -0.11857545 0.0039845118 0
-0.0059999833 -0.11603083 -0.0047821621 0
-0.0059999907 -0.11673019 -0.0026561422 0
-0.0051077609 -0.11550818 -0.0050635315 0
-0.0059999935 -0.11529887 -0.0013733467 0
-0.0060000052 -0.11552698 0.0017636452 0
-0.0052823792 -0.11543435 0.0049869716 0
-0.0015227768 -0.11542864 -0.0045485101 0
-0.0018917407 -0.11562415 0.0046226592 0
0.0013445982 -0.11525457 -0.0043306951 0
0.0013309461 -0.11561012 0.0043184268 0
0.0046813679 -0.11535092 -0.0043271296 0
0.004531886 -0.11577222 0.0043124622 0
0.007236741 -0.11526618 -0.0039794105 0
0.0075083994 -0.11544736 -0.0015193785 0
0.0075117806 -0.11554953 0.001527676 0
0.0070984387 -0.11553852 0.0039778054 0
-0.0059999786 -0.1131867 -0.0059843119 0
-0.0053112879 -0.1125801 -0.0050774245 0
-0.0059999921 -0.112624 -0.0018022676 0
-0.0060000042 -0.11248127 0.0014318292 0
-0.0053282394 -0.11258798 0.0051482548 0
-0.0015233139 -0.11291126 -0.0045689624 0
-0.0015126566 -0.11237173 0.0045691705 0
0.0014761395 -0.11245882 -0.0044338061 0
0.0013923282 -0.11219185 0.004444472 0
0.0043099262 -0.11256312 -0.0044299476 0
0.0046040951 -0.11236887 0.0044379574 0
0.0071376525 -0.11273833 -0.0041854191 0
0.0074105044 -0.11249778 -0.0016311405 0
0.0074031106 -0.11227536 0.0014236543 0
0.0070575015 -0.11255456 0.0039563216 0
-0.005999987 -0.10865439 -0.0037074336 0
-0.0052631376 -0.10948884 -0.005108309 0
-0.0059999931 -0.10963122 -0.0015090638 0
-0.0060000052 -0.10941299 0.0017768872 0
-0.0051733274 -0.1095083 0.0050343135 0
-0.0016378652 -0.10954396 -0.0046566478 0
-0.0016279258 -0.10970826 0.0046355012 0
0.0013650118 -0.10940103 -0.0045465804 0
0.001532987 -0.10961954 0.004539324 0
0.0045577809 -0.1093637 -0.0045479462 0
0.0047555561 -0.10923451 0.0045535336 0
0.0070300112 -0.10951193 -0.0041220947 0
0.0073093171 -0.10944909 -0.0013299678 0
0.007312994 -0.10956017 0.0014208585 0
0.007061372 -0.10939544 0.0041567427 0
-0.0059999875 -0.10644227 -0.0035873242 0
-0.0059999903 -0.10758498 -0.002775664 0
-0.0051999623 -0.1066387 -0.0051455265 0
-0.0059999931 -0.10641596 -0.0016209828 0
-0.0060000061 -0.1064207 0.0017222804 0
-0.0052680876 -0.10650015 0.0050957105 0
-0.0013987496 -0.10651933 -0.0046919566 0
-0.0014130196 -0.10635543 0.0047039338 0
0.001256368 -0.10620783 -0.0046643508 0
0.0013337733 -0.10646293 0.0046557221 0
0.0048066578 -0.10648663 -0.0046540564 0
0.0044452301 -0.10664903 0.0046488703 0
0.0069955862 -0.10650761 -0.0040464015 0
0.0072100735 -0.10645891 -0.0014624685 0
0.0072046951 -0.10629714 0.0015359196 0
0.0071203909 -0.10635272 0.0040783668 0
-0.0059999796 -0.10423362 -0.005850222 0
-0.0059999907 -0.10250023 -0.0027636776 0
-0.0051296004 -0.10342979 -0.0050404109 0
-0.005999994 -0.10332157 -0.0012892581 0
-0.0060000042 -0.10382868 0.0015367818 0
-0.005276578 -0.10368905 0.0049450514 0
-0.0015864746 -0.10337003 -0.0047992342 0
-0.0016706995 -0.10330567 0.0047929571 0
0.0014586833 -0.10362642 -0.0047595548 0
0.0013817088 -0.10367916 0.0047583701 0
0.0042215092 -0.10329124 -0.0047719073 0
0.0048474087 -0.10323965 0.0047745896 0
0.0068780105 -0.10349886 -0.0043548821 0
0.0071146842 -0.10358485 -0.0015683145 0
0.0071032462 -0.10324052 0.0015168909 0
0.0069278562 -0.10360674 0.0041541005 0
-0.0059999833 -0.10094606 -0.0047931508 0
-0.0059999903 -0.10121435 -0.0028537114 0
-0.0051108045 -0.10052352 -0.0050352104 0
-0.0059999945 -0.1006813 -0.0011774249 0
-0.0060000042 -0.1004095 0.0015145538 0
-0.0052840631 -0.1005863 0.004960415 0
-0.0013830493 -0.10075658 -0.0048689106 0
-0.0012204046 -0.1005877 0.0048733251 0
0.0014731926 -0.10060295 -0.0048710648 0
0.0014668059 -0.10067716 0.0048690657 0
0.0047467598 -0.10034177 -0.0048806863 0
0.004547514 -0.10037099 0.0048803673 0
0.0068280906 -0.10030662 -0.004362667 0
0.0070115984 -0.10047888 -0.0014979005 0
0.0070176716 -0.10066224 0.001257238 0
0.0068811546 -0.10064384 0.0041748038 0
-0.0059999824 -0.097786091 -0.0050235437 0
-0.0059999898 -0.098353826 -0.0029137763 0
-0.0050916672 -0.097276688 -0.0052518626 0
-0.0059999921 -0.097834364 -0.0017650245 0
-0.0060000056 -0.097839326 0.0014428601 0
-0.0053859148 -0.097624458 0.0048740595 0
-0.0016347159 -0.097451732 -0.004987814 0
-0.0013203747 -0.097378954 0.004990675 0
0.0015833513 -0.097608052 -0.0049815197 0
0.0016649814 -0.097394519 0.0049901106 0
0.0047210446 -0.097810797 -0.0049740309 0
0.0045742048 -0.09759073 0.0049828873 0
0.0067414073 -0.097362995 -0.0043143327 0
0.006907797 -0.097351462 -0.0014404733 0
0.0069114221 -0.09746097 0.001558368 0
0.0066424077 -0.097369939 0.0045292657 0
-0.0059999819 -0.095502079 -0.0051161693 0
-0.0052553033 -0.094535083 -0.0051244665 0
-0.005999994 -0.094180234 -0.0013498981 0
-0.0060000047 -0.094373792 0.0012491579 0
-0.0052979654 -0.094382271 0.0050590378 0
-0.0014139704 -0.094459973 -0.0050976374 0
-0.0014767719 -0.094552979 0.0050948793 0
0.0012874055 -0.094625711 -0.0050915135 0
0.0016034852 -0.094311677 0.0051037888 0
0.0044091498 -0.0942664 -0.0051047537 0
0.0044759293 -0.094468735 0.0050980081 0
0.0067108041 -0.094546512 -0.0043088305 0
0.0068108453 -0.094430327 -0.0014429094 0
0.0068203504 -0.094717033 0.0014908665 0
0.00669087 -0.094463155 0.0042545339 0
-0.0059999838 -0.092262603 -0.0046118577 0
-0.0059999935 -0.092306398 -0.0019306607 0
-0.0049949768 -0.091473468 -0.0049382877 0
-0.0059999949 -0.091527723 -0.0011521763 0
-0.0060000042 -0.091646746 0.0015280724 0
-0.005288803 -0.091548428 0.0050652805 0
-0.0014146054 -0.091404699 -0.0052103181 0
-0.0015061246 -0.091548093 0.0052056806 0
0.0017091938 -0.091482386 -0.0052074427 0
0.0015145272 -0.09115348 0.0052202428 0
0.0045168856 -0.091624618 -0.0052021863 0
0.0044772904 -0.091533922 0.0052062254 0
0.0066066501 -0.091207139 -0.00445244 0
0.0067145494 -0.091528982 -0.0014503596 0
0.0067114695 -0.091436431 0.0014259483 0
0.0065872488 -0.091414429 0.0043761274 0
-0.0059999889 -0.088680461 -0.003279727 0
-0.0059999898 -0.089923359 -0.0029745477 0
-0.0052831247 -0.088427104 -0.0049920497 0
-0.0059999945 -0.088595554 -0.001209669 0
-0.0060000066 -0.088433273 0.0016114988 0
-0.005291644 -0.088418476 0.0050127334 0
-0.0017366406 -0.088791966 -0.0053066816 0
-0.0016077773 -0.088578127 0.0053151962 0
0.001326952 -0.088633485 -0.0053125159 0
0.0013297707 -0.088681549 0.0053113927 0
0.0046750382 -0.088568471 -0.005314901 0
0.0043067536 -0.088516891 0.0053174752 0
0.0065452629 -0.088500299 -0.0043809717 0
0.0066171857 -0.088595442 -0.0015584669 0
0.0066150194 -0.088530459 0.0014264586 0
0.0065450259 -0.088666365 0.0043524625 0
-0.0059999828 -0.085283093 -0.0048684715 0
-0.0050948444 -0.085473053 -0.0051864055 0
-0.0059999945 -0.085192099 -0.0013439232 0
-0.0060000042 -0.085452773 0.001560326 0
-0.0053835348 -0.085558057 0.0049518407 0
-0.0015023381 -0.085531317 -0.0054269382 0
-0.0017749557 -0.085473292 0.0054296837 0
0.0015355452 -0.085453726 -0.0054297885 0
0.0014569493 -0.085371263 0.0054334574 0
0.0045002378 -0.085414939 -0.0054312074 0
0.004387009 -0.085541807 0.0054271794 0
0.0064646369 -0.085655093 -0.0044018258 0
0.0065166228 -0.0855655 -0.0015005065 0
0.0065127048 -0.085447744 0.0014765176 0
0.0064889966 -0.085451141 0.0045511918 0
-0.0059999805 -0.082766391 -0.0055682156 0
-0.0052239648 -0.082568273 -0.0051698652 0
-0.005999994 -0.082545228 -0.0013993689 0
-0.0060000042 -0.082664385 0.0014939103 0
-0.0054617068 -0.082233906 0.0049889069 0
-0.0012512078 -0.082346633 -0.0055443919 0
-0.0014069086 -0.082433037 0.0055417907 0
0.0014310629 -0.082631879 -0.0055338629 0
0.0018712379 -0.08242669 0.0055420366 0
0.0047359369 -0.082625866 -0.0055340724 0
0.0043547857 -0.082318261 0.0055460441 0
0.0063786218 -0.082643971 -0.0044091484 0
0.0064112931 -0.082391933 -0.0015511585 0
0.0064105242 -0.082369119 0.0017410752 0
0.006400343 -0.082547598 0.0044737724 0
-0.0059999833 -0.079197474 -0.0047264416 0
-0.0059999907 -0.080022231 -0.0026926061 0
-0.0053643915 -0.0796028 -0.005273479 0
-0.0059999935 -0.079539366 -0.0013601142 0
-0.0060000028 -0.079318829 0.0011890566 0
-0.0054389369 -0.07932093 0.0051223431 0
-0.0013823926 -0.079633743 -0.0056444472 0
-0.0013478319 -0.079440758 0.0056521287 0
0.0014052878 -0.079629645 -0.0056445887 0
0.0013665166 -0.079134159 0.0056634438 0
0.0043301526 -0.079408541 -0.0056527322 0
0.0043953755 -0.079442784 0.0056520747 0
0.0062897066 -0.07934384 -0.0046390146 0
0.0063159931 -0.079520576 -0.0014751403 0
0.0063115689 -0.07938759 0.0016019918 0
0.0063029593 -0.079318643 0.0044898535 0
-0.0059999861 -0.077332057 -0.0039343145 0
-0.0059999912 -0.076594152 -0.0025673164 0
-0.0053013628 -0.076599255 -0.0049113557 0
-0.005999994 -0.07641717 -0.0012372424 0
-0.0060000028 -0.076311529 0.0011408591 0
-0.0052860812 -0.07627669 0.0050446023 0
-0.0012403372 -0.076510042 -0.0057596536 0
-0.0014774407 -0.076306529 0.0057676993 0
0.0017546063 -0.076370277 -0.0057647978 0
0.0016738424 -0.076695196 0.0057533793 0
0.0043883095 -0.076605566 -0.0057561086 0
0.0046748482 -0.076400988 0.0057642395 0
0.0062056794 -0.076689504 -0.0047103358 0
0.0062159877 -0.076507472 -0.0014533397 0
0.0062257014 -0.076800443 0.0013684564 0
0.0062080445 -0.076317601 0.0044102287 0
-0.0059999814 -0.073731042 -0.0052751717 0
-0.005102823 -0.073626809 -0.0052908417 0
-0.005999994 -0.073472723 -0.001255394 0
-0.0060000042 -0.073551767 0.0015392697 0
-0.0051612444 -0.073324308 0.0053472756 0
-0.0016285856 -0.073311836 -0.0058776089 0
-0.0014623428 -0.073456049 0.0058728084 0
0.0012710225 -0.073419735 -0.0058736186 0
0.0014415733 -0.073515691 0.0058706203 0
0.0042664115 -0.073462248 -0.0058720396 0
0.0045399927 -0.073313646 0.0058780815 0
0.0061192173 -0.073591486 -0.0043589449 0
0.006115953 -0.073493473 -0.0015158126 0
0.0061140331 -0.073435955 0.0015456387 0
0.006121601 -0.073664263 0.0043515232 0
-0.009170617 -0.069443323 -0.0017631961 0
-0.0092747137 -0.069423646 0.00092054764 0
-0.0068021314 -0.069697097 -0.0062475782 0
-0.007341458 -0.069874942 -0.0045530098 0
-0.0076081958 -0.070009753 -0.0015804686 0
-0.0075086821 -0.069999978 0.0015889396 0
-0.0075360131 -0.069794342 0.0044113826 0
-0.0063595115 -0.069598012 0.0066334903 0
-0.0043348232 -0.069863312 -0.0074747037 0
-0.0053723976 -0.071037203 -0.0053578294 0
-0.0059999959 -0.070893615 -0.0012481229 0
-0.0060000033 -0.0709242 0.0012517297 0
-0.0051673288 -0.070946179 0.0052929423 0
-0.0045015216 -0.069722794 0.0074035805 0
-0.0012793757 -0.069778383 -0.0092006177 0
-0.0015070963 -0.069977559 -0.0078595085 0
-0.0015740916 -0.071096465 -0.0059593152 0
-0.0015965246 -0.070898697 0.005967109 0
-0.0014401175 -0.069995038 0.0074862628 0
-0.0018779011 -0.06954246 0.0091170426 0
0.0012667103 -0.069625407 -0.0092414087 0
0.0014882018 -0.069973864 -0.0076717883 0
0.0014709847 -0.071068197 -0.0059603462 0
0.0016862013 -0.071216241 0.0059554111 0
0.0016724942 -0.069959886 0.0075252228 0
0.0013133639 -0.069583178 0.0091940723 0
0.0045418101 -0.069849826 -0.0073712645 0
0.0044241259 -0.07118497 -0.0059560295 0
0.0044931648 -0.070955172 0.005965048 0
0.0043865549 -0.06975276 0.0074203154 0
0.0065376032 -0.069559202 -0.0064856191 0
0.0070224684 -0.070254736 -0.0044702757 0
0.006987242 -0.070415147 -0.0016180911 0
0.0069347187 -0.070436515 0.0013684878 0
0.0069870986 -0.070187166 0.0043244516 0
0.0063103749 -0.069611363 0.0067769396 0
0.0092039919 -0.069682769 -0.0013493178 0
0.0092001315 -0.069583245 0.0014211872 0
-0.0092438618 -0.067717753 -0.001248866 0
-0.009239248 -0.067253038 0.0012421989 0
-0.0065405574 -0.067580186 -0.0066126245 0
-0.0080314223 -0.067640387 -0.004536924 0
-0.0089653423 -0.067320466 -0.0027094788 0
-0.0089135328 -0.067720272 0.0028291116 0
-0.0081509873 -0.067518681 0.0044060545 0
-0.0064515905 -0.067576848 0.0066672871 0
-0.0045587244 -0.067634024 -0.0080581671 0
-0.0045190002 -0.067392007 0.0080438228 0
-0.0013708419 -0.06742546 -0.009223151 0
-0.0028110677 -0.067181565 -0.008921029 0
-0.0028322723 -0.067246445 0.0089123026 0
-0.0013727373 -0.067302786 0.0092283273 0
0.0010220305 -0.06744419 -0.0092709744 0
0.0028069692 -0.067205884 -0.0089228172 0
0.0028536387 -0.067322589 0.008903007 0
0.0015266613 -0.067340523 0.0092029395 0
0.0044587748 -0.067430295 -0.0081286421 0
0.0045719873 -0.067515634 0.0080469493 0
0.0065398109 -0.06796325 -0.0065944637 0
0.0080980565 -0.067641541 -0.0045302995 0
0.0089167459 -0.067659162 -0.0028212322 0
0.0089204805 -0.067382567 0.0028131488 0
0.0081112646 -0.067717232 0.004445225 0
0.0067167613 -0.067639671 0.0064269393 0
0.0092201214 -0.067601994 -0.0014142714 0
0.0092499796 -0.067531988 0.0011762766 0
-0.009225064 -0.064620458 -0.0013828056 0
-0.0092382105 -0.064497143 0.0012841561 0
-0.0064933952 -0.064643569 -0.0066475128 0
-0.0081930887 -0.06440267 -0.0043377411 0
-0.0089277737 -0.064405672 -0.0027958972 0
-0.0089756772 -0.063364506 0.0026861632 0
-0.0081635546 -0.064629592 0.0043439898 0
-0.0065994649 -0.064268224 0.0065463847 0
-0.004775194 -0.064451188 -0.0079273842 0
-0.0044878456 -0.064522602 0.0080938339 0
-0.0015780397 -0.064440906 -0.0091966279 0
-0.0029188306 -0.06431672 -0.0088741854 0
-0.0029100564 -0.065689415 0.0088784788 0
-0.0013503957 -0.064469106 0.0092229368 0
0.0013616146 -0.064408943 -0.0092228176 0
0.0027824051 -0.064766072 -0.0089335069 0
0.0027705671 -0.064643949 0.0089391135 0
0.0013019955 -0.064344898 0.0092334719 0
0.0046354602 -0.064361565 -0.0080117779 0
0.0045725703 -0.064612597 0.008051387 0
0.0065906304 -0.06439507 -0.0065528909 0
0.0081228213 -0.064733244 -0.0044434476 0
0.0089148832 -0.06399633 -0.0028255288 0
0.0089304596 -0.064801663 0.0027901884 0
0.008032253 -0.064714834 0.0046041464 0
0.006495133 -0.064257532 0.0066513014 0
0.0092658689 -0.064633951 -0.0010728074 0
0.0092242053 -0.064684629 0.0013554872 0
-0.0092243366 -0.061646745 -0.0013815012 0
-0.0092329225 -0.061544135 0.00131691 0
-0.0066919234 -0.061466526 -0.006448512 0
-0.0080930647 -0.061374981 -0.0045020557 0
-0.0089186309 -0.060587108 -0.0028169409 0
-0.0089613404 -0.06189432 0.0027191322 0
-0.008072204 -0.061320391 0.0045209527 0
-0.0065596639 -0.061460562 0.0065780701 0
-0.0045453948 -0.061566677 -0.0080884472 0
-0.0044853408 -0.061439388 0.0081019765 0
-0.0013385712 -0.061659567 -0.0092314975 0
-0.002737846 -0.061250076 -0.0089528859 0
-0.0027041745 -0.061235089 0.008967977 0
-0.001130198 -0.061664376 0.009257663 0
0.0013512128 -0.061637834 -0.0092241559 0
0.0027210217 -0.061178204 -0.0089602079 0
0.0027611577 -0.06112415 0.0089431927 0
0.0014239374 -0.061145674 0.0092220996 0
0.0046689641 -0.061463498 -0.0079800636 0
0.0045746998 -0.061212294 0.0080356887 0
0.006560653 -0.061511926 -0.0065689674 0
0.0080812359 -0.06149552 -0.0045044655 0
0.0089571672 -0.060653038 -0.0027282885 0
0.008935635 -0.061445683 0.0027782714 0
0.0080260132 -0.061647855 0.0046054935 0
0.006654893 -0.060861275 0.0064875153 0
0.0092251915 -0.061557539 -0.0013640418 0
0.009241241 -0.061287366 0.0012495705 0
-0.0092198215 -0.058587331 -0.0014134556 0
-0.0092378026 -0.058189794 0.0012836137 0
-0.0066787642 -0.058233395 -0.0064460495 0
-0.0081928391 -0.058663309 -0.0042911535 0
-0.0089295954 -0.058832921 -0.0027917274 0
-0.0089086182 -0.058034509 0.00284038 0
-0.0081183817 -0.058285188 0.0044421828 0
-0.0066582081 -0.05802346 0.0064890599 0
-0.0045843623 -0.058719326 -0.0080284877 0
-0.0044610407 -0.058630846 0.0081088729 0
-0.0015686174 -0.05841244 -0.0091997087 0
-0.0027726123 -0.058429819 -0.0089377798 0
-0.0026828973 -0.058619332 0.0089772185 0
-0.0010072123 -0.058457002 0.0092733838 0
0.0012043571 -0.058255967 -0.0092488704 0
0.0028125565 -0.058362663 -0.00892042 0
0.002861867 -0.05867856 0.0088993972 0
0.0011992941 -0.05834084 0.0092497235 0
0.0045636534 -0.05868816 -0.0080543198 0
0.0048081065 -0.058531519 0.0079105645 0
0.0065628937 -0.058377881 -0.0065831277 0
0.0080910092 -0.05852551 -0.0044965018 0
0.0089256596 -0.058776174 -0.0028007615 0
0.0089508835 -0.059024472 0.0027431918 0
0.0079774307 -0.05869171 0.0047004945 0
0.0065836092 -0.058398057 0.006556238 0
0.0092276558 -0.058639262 -0.0013660309 0
0.0092332065 -0.058643468 0.0013332684 0
-0.0092251953 -0.055563122 -0.0013847712 0
-0.0092413547 -0.055890188 0.001269058 0
-0.0065787951 -0.0550953 -0.0065585081 0
-0.0081745563 -0.055655029 -0.0043259314 0
-0.0089290086 -0.055957131 -0.0027930879 0
-0.008946442 -0.055845875 0.0027533805 0
-0.007954224 -0.055554084 0.0047244327 0
-0.0066579417 -0.055120323 0.0064712274 0
-0.0044966913 -0.055495169 -0.0080822846 0
-0.004816243 -0.055459566 0.0078812651 0
-0.0014118218 -0.055574968 -0.0092214216 0
-0.0028985874 -0.055328898 -0.0088830199 0
-0.0027439988 -0.055903591 0.0089506423 0
-0.001239568 -0.055401407 0.0092413463 0
0.0012915767 -0.055411261 -0.0092343558 0
0.0027175969 -0.055602685 -0.0089617176 0
0.0029427181 -0.055900078 0.0088642342 0
0.001151217 -0.055606645 0.0092526972 0
0.0044038282 -0.055440977 -0.0081299171 0
0.0047411257 -0.055439707 0.0079565896 0
0.0065564476 -0.055314776 -0.0065769018 0
0.0079674451 -0.055476598 -0.004719872 0
0.008912771 -0.055639267 -0.0028304167 0
0.0088592721 -0.054813612 0.0029538823 0
0.0080248229 -0.055497762 0.004625571 0
0.006628708 -0.055302851 0.006499948 0
0.0092500197 -0.05559497 -0.0011996343 0
0.0092482707 -0.055440713 0.0011971775 0
-0.0092509007 -0.052711125 -0.001160761 0
-0.0092403805 -0.05227856 0.0012689836 0
-0.0065759625 -0.052659389 -0.0065719923 0
-0.0080265533 -0.052852847 -0.0045818747 0
-0.0089118676 -0.052269481 -0.0028325254 0
-0.0089187706 -0.05232358 0.0028170107 0
-0.0081577227 -0.052633237 0.0043649906 0
-0.0065084053 -0.05252324 0.0066125048 0
-0.004724659 -0.052666996 -0.0079622166 0
-0.0046954979 -0.05254636 0.0079943435 0
-0.0012508526 -0.052326586 -0.0092417309 0
-0.0029747793 -0.052865617 -0.008849903 0
-0.0028371166 -0.051993467 0.0089101428 0
-0.0013856109 -0.052695129 0.00922349 0
0.0012962501 -0.052502327 -0.009236631 0
0.0028003908 -0.052384954 -0.0089257313 0
0.0027860021 -0.05265639 0.0089323614 0
0.0011412823 -0.052549824 0.0092572263 0
0.0043983888 -0.052756157 -0.0081564048 0
0.0044007627 -0.052518468 0.0081674475 0
0.006541186 -0.052914687 -0.006593422 0
0.0080650458 -0.052506987 -0.0045162286 0
0.0089391312 -0.053164382 -0.0027697973 0
0.0089251278 -0.052545991 0.002802406 0
0.0079939747 -0.052227817 0.0046494948 0
0.006649991 -0.052307967 0.0064796219 0
0.0092474064 -0.052654371 -0.0011951287 0
0.0092219282 -0.052350227 0.001400756 0
-0.0091834292 -0.049628526 -0.0016897917 0
-0.00922684 -0.049496923 0.001328172 0
-0.0065743653 -0.049552508 -0.006564266 0
-0.0079525569 -0.049616124 -0.0047643306 0
-0.0088980542 -0.049121089 -0.0028643073 0
-0.0088985367 -0.048913956 0.0028635364 0
-0.0080545433 -0.049459614 0.0044879764 0
-0.0066260751 -0.049798913 0.0065157362 0
-0.0045374846 -0.049476583 -0.0080781607 0
-0.0046678088 -0.049561035 0.0080065485 0
-0.0011820851 -0.049184237 -0.0092461435 0
-0.0028704277 -0.049893312 -0.0088952817 0
-0.0028237258 -0.04980306 0.0089159561 0
-0.0014306906 -0.049525347 0.0092119714 0
0.0013217336 -0.049282037 -0.0092318337 0
0.0028612514 -0.048079472 -0.0088992864 0
0.0028942279 -0.049135577 0.0088852923 0
0.0011350156 -0.049416147 0.0092569124 0
0.004425793 -0.049486186 -0.0081189545 0
0.0042966236 -0.049483847 0.0081886677 0
0.006549106 -0.04960455 -0.0065977476 0
0.0079982998 -0.049600262 -0.0046786293 0
0.0089451307 -0.049504083 -0.0027560131 0
0.0089741731 -0.04948492 0.0026895932 0
0.0080375699 -0.049435489 0.0045791599 0
0.0066582342 -0.049272075 0.0064878417 0
0.0092117013 -0.049462438 -0.0014647404 0
0.0091788303 -0.049511362 0.0017021834 0
-0.0092149992 -0.046533808 -0.0014256936 0
-0.009226203 -0.046313845 0.0013591894 0
-0.0066762948 -0.046478901 -0.006462974 0
-0.0079595624 -0.046718962 -0.0047108284 0
-0.0089609837 -0.046656378 -0.0027195802 0
-0.0088744201 -0.047967054 0.0029189989 0
-0.0080642253 -0.046467692 0.0044995346 0
-0.0064675361 -0.046479739 0.0066662948 0
-0.0045190933 -0.046432253 -0.0080697956 0
-0.0046414258 -0.046675492 0.0080089942 0
-0.0011343026 -0.046672709 -0.0092570111 0
-0.0027031265 -0.046528693 -0.0089680338 0
-0.0027901188 -0.046506371 0.0089305565 0
-0.0013829296 -0.046596073 0.0092212446 0
0.0012334727 -0.046688542 -0.0092436736 0
0.002904841 -0.045926981 -0.0088803414 0
0.0028297857 -0.046517078 0.0089133028 0
0.0013944043 -0.046470884 0.0092205293 0
0.0045689633 -0.04638318 -0.0080518601 0
0.004568445 -0.046565063 0.0080381623 0
0.0065550911 -0.046796057 -0.0065842387 0
0.0081313923 -0.046569541 -0.0044117193 0
0.0089139435 -0.046679709 -0.0028277524 0
0.00889403 -0.046714768 0.0028739087 0
0.0081536984 -0.046486445 0.0043537524 0
0.0065300516 -0.04686413 0.0066027245 0
0.0092164865 -0.046375953 -0.0014160229 0
0.0092519587 -0.046699706 0.0011845002 0
-0.0092364699 -0.043480132 -0.00129017 0
-0.0092310198 -0.043613724 0.0013385064 0
-0.0065700468 -0.043624278 -0.0065687918 0
-0.0081070112 -0.043570269 -0.0044795023 0
-0.008914155 -0.043181814 -0.0028272986 0
-0.0089075724 -0.042944793 0.0028427348 0
-0.008047143 -0.043458089 0.0045767482 0
-0.0066150376 -0.043654989 0.0065127788 0
-0.0048063439 -0.043491278 -0.007917596 0
-0.0044341087 -0.043481112 0.0081134634 0
-0.0013036665 -0.043578662 -0.0092342123 0
-0.0028007387 -0.043812361 -0.0089256037 0
-0.002778216 -0.043451343 0.0089357197 0
-0.0014489564 -0.043728899 0.0092181033 0
0.0014364752 -0.043507449 -0.0092196623 0
0.0027838845 -0.043355383 -0.0089329416 0
0.0026929399 -0.044009972 0.0089727892 0
0.0014605903 -0.043508798 0.0092121642 0
0.0043029943 -0.043361932 -0.0081902239 0
0.0045937286 -0.043549918 0.0080335559 0
0.006569081 -0.043392003 -0.0065697995 0
0.008078781 -0.043572221 -0.0045219646 0
0.0089384653 -0.044783905 -0.0027713603 0
0.0089129498 -0.043626036 0.0028303852 0
0.0080507966 -0.043491948 0.0045898068 0
0.0064775771 -0.043751538 0.0066714506 0
0.0092286319 -0.043606382 -0.0013334048 0
0.0092094047 -0.043458506 0.001511095 0
-0.0092349127 -0.040616196 -0.001310347 0
-0.0092399614 -0.040732857 0.0012556523 0
-0.0065343529 -0.040665332 -0.0066096932 0
-0.0079978462 -0.040489174 -0.0046265419 0
-0.008884415 -0.040021226 -0.0028957108 0
-0.0089294221 -0.039963041 0.0027924676 0
-0.0080635212 -0.040543754 0.0045636958 0
-0.0065343981 -0.040807988 0.0066087311 0
-0.0045633321 -0.040271591 -0.0080660367 0
-0.0045222221 -0.040408909 0.0080776447 0
-0.0014398375 -0.040698364 -0.0092153475 0
-0.0028145602 -0.040518664 -0.0089196069 0
-0.0029039385 -0.040300559 0.0088810464 0
-0.0013751131 -0.040243056 0.0092249131 0
0.0014819189 -0.040473651 -0.0092093544 0
0.0028152771 -0.040175036 -0.0089193042 0
0.0028438549 -0.041168895 0.0089071644 0
0.0014604605 -0.040447794 0.0092123579 0
0.0046729688 -0.040569589 -0.0080046384 0
0.0044998801 -0.040375408 0.0081033502 0
0.0065932795 -0.040634554 -0.0065369275 0
0.0080116084 -0.040419001 -0.0046143951 0
0.0089210793 -0.040183384 -0.0028113653 0
0.0089340499 -0.040578227 0.0027818421 0
0.0079927258 -0.040465157 0.0046614255 0
0.0066271713 -0.040317897 0.0065153185 0
0.0092155766 -0.040512316 -0.0014166503 0
0.0092308065 -0.040142205 0.0013412618 0
-0.0092357276 -0.03722458 -0.0012865948 0
-0.0092551438 -0.037752338 0.0011301322 0
-0.0065644025 -0.037593588 -0.0065799393 0
-0.0081647327 -0.037434328 -0.0043691378 0
-0.008929898 -0.037071239 -0.0027911095 0
-0.0089129731 -0.037566036 0.0028302893 0
-0.0081100203 -0.037534859 0.004445855 0
-0.0066456655 -0.03739392 0.0064885267 0
-0.0047156597 -0.037520029 -0.0079659251 0
-0.0042086174 -0.037370443 0.0082635414 0
-0.0012610581 -0.037301607 -0.0092370184 0
-0.0028406684 -0.037171349 -0.0089082671 0
-0.0027677885 -0.036961619 0.0089402311 0
-0.0014944209 -0.037296008 0.0092031881 0
0.0013663141 -0.037452877 -0.0092242071 0
0.0028129618 -0.036892328 -0.0089203231 0
0.002798035 -0.037449144 0.0089270743 0
0.0013729868 -0.03743368 0.0092260838 0
0.0047337068 -0.037585597 -0.0079608113 0
0.0043710209 -0.037376072 0.0081679029 0
0.0066900509 -0.037337437 -0.0064352429 0
0.0081202779 -0.037376586 -0.0044240635 0
0.0088888705 -0.037604101 -0.0028854532 0
0.0089756707 -0.038010444 0.0026861071 0
0.0080129569 -0.037357144 0.004640298 0
0.00655356 -0.037769385 0.0065762796 0
0.0092296991 -0.03753718 -0.0013057388 0
0.0092491992 -0.037137058 0.0012065477 0
-0.0092302207 -0.034579586 -0.0013401966 0
-0.0092117041 -0.03457148 0.0014930657 0
-0.0066108489 -0.034573313 -0.0065293303 0
-0.0081975693 -0.034641191 -0.0043060924 0
-0.0089117801 -0.034496754 -0.0028327901 0
-0.0089241145 -0.03408511 0.0028046523 0
-0.0078906873 -0.03452716 0.004824223 0
-0.0064662206 -0.03472577 0.0066819526 0
-0.0045627682 -0.03460094 -0.008065911 0
-0.0046774414 -0.034532666 0.0079762116 0
-0.0014376416 -0.034643695 -0.0092158765 0
-0.0028497004 -0.0339588 -0.0089043519 0
-0.0028012581 -0.035076357 0.0089256708 0
-0.0012915635 -0.034242928 0.0092358952 0
0.0013955013 -0.03471395 -0.0092221452 0
0.0028321533 -0.03458456 -0.0089119859 0
0.0028627256 -0.034625314 0.0088989381 0
0.0014014652 -0.034661267 0.0092220809 0
0.0046957773 -0.034550037 -0.0079802107 0
0.0045449124 -0.034630831 0.0080765309 0
0.0066804704 -0.034347817 -0.0064626872 0
0.0080320891 -0.034576003 -0.0046059769 0
0.0089244107 -0.034108255 -0.002803724 0
0.0089193033 -0.034580529 0.0028157395 0
0.0079854717 -0.034596246 0.0046875672 0
0.0065691378 -0.034772869 0.0065716137 0
0.0092077628 -0.034213781 -0.0015176036 0
0.0092085097 -0.034309946 0.0014821751 0
-0.0092098732 -0.031447999 -0.0014849773 0
-0.0092441607 -0.031605024 0.0012260769 0
-0.0064506833 -0.031523429 -0.0066809212 0
-0.0081087686 -0.031401806 -0.0044692289 0
-0.0089322533 -0.032370474 -0.0027857097 0
-0.0089023123 -0.031563759 0.0028547882 0
-0.0080565438 -0.031468298 0.0045628981 0
-0.0065463469 -0.031310875 0.006584886 0
-0.0046974458 -0.031513251 -0.00798441 0
-0.0044417088 -0.031324882 0.0081141833 0
-0.0009207399 -0.031416133 -0.0092842253 0
-0.0028110484 -0.032232005 -0.0089211632 0
-0.0028063592 -0.031689782 0.0089234412 0
-0.0013789469 -0.031477019 0.0092248814 0
0.0015441675 -0.031686265 -0.0092047956 0
0.0027041787 -0.032301348 -0.0089676352 0
0.002769398 -0.031200105 0.0089395028 0
0.0014824594 -0.031655531 0.0092107784 0
0.0045126453 -0.031596113 -0.0080538737 0
0.0043455618 -0.031537578 0.0081704082 0
0.0066277059 -0.031666938 -0.0065278453 0
0.0081564486 -0.031495169 -0.0043780808 0
0.0089034438 -0.031462971 -0.002851957 0
0.0089429412 -0.031978294 0.0027613605 0
0.0080204373 -0.031582598 0.0046183257 0
0.0066689774 -0.031445667 0.0064580725 0
0.00921576 -0.031453978 -0.0014546206 0
0.0092377281 -0.031516302 0.0012680014 0
-0.0092257401 -0.028561467 -0.00136417 0
-0.0092382915 -0.028457595 0.0012745066 0
-0.0065113939 -0.02872145 -0.0066397074 0
-0.0081207445 -0.028754547 -0.0044411835 0
-0.0088982917 -0.029081659 -0.0028638337 0
-0.0089043267 -0.027690092 0.0028501425 0
-0.0080257086 -0.028666578 0.0046317182 0
