# .PCD v0.7 - Point Cloud Data file format
VERSION 0.7
FIELDS x y z rgb
SIZE 4 4 4 4
TYPE F F F F
COUNT 1 1 1 1
WIDTH 1200
HEIGHT 1
VIEWPOINT 0 0 0 1 0 0 0
POINTS 1200
DATA ascii
0.073145829 -0.2235985 -0.0099313715 0
0.072392091 -0.22302383 -0.0077086664 0
0.072319038 -0.22324295 -0.0047466573 0
0.072322592 -0.22323222 -0.0015960957 0
0.072413392 -0.22295983 0.0014920008 0
0.072376765 -0.22306965 0.0043977383 0
0.072344147 -0.22316739 0.0073275771 0
0.073510185 -0.2235802 0.0099337893 0
0.076433495 -0.22345433 -0.0099989148 0
0.076355122 -0.22355735 0.010001085 0
0.079622082 -0.22369483 -0.009998899 0
0.079432145 -0.22338839 0.010001095 0
0.082535394 -0.22343172 -0.0099988906 0
0.082748473 -0.22334357 0.010001107 0
0.085646994 -0.22347566 -0.0099988785 0
0.08541806 -0.22335643 0.010001114 0
0.088437207 -0.22337729 -0.0099988701 0
0.088479325 -0.2234955 0.010001129 0
0.090000056 -0.22326587 -0.0093509918 0
0.090000004 -0.22346173 -0.0076631657 0
0.090000026 -0.22344865 -0.0045117969 0
0.089999996 -0.22358519 -0.0016492634 0
0.089999989 -0.22377931 0.0016990779 0
0.089999966 -0.2236816 0.0042631929 0
0.089999974 -0.22333926 0.0077547063 0
0.089999981 -0.22355904 0.009496416 0
-0.0098630525 -0.22057851 -0.0097269807 0
-0.0099999728 -0.22046471 -0.0074314238 0
-0.009999983 -0.22052848 -0.0044361525 0
-0.0099999923 -0.22063367 -0.0017234054 0
-0.010000005 -0.22064015 0.0017340872 0
-0.010000017 -0.22034861 0.0041713649 0
-0.010000027 -0.22020033 0.0076183677 0
-0.0097325202 -0.22056094 0.0097905854 0
-0.00746638 -0.22057182 -0.0099992277 0
-0.007461457 -0.22067566 0.010000769 0
-0.0043043792 -0.22041048 -0.0099992165 0
-0.004543466 -0.22047183 0.010000779 0
-0.0014963413 -0.22052789 -0.0099992054 0
-0.0011255809 -0.22037375 0.010000793 0
0.0015563465 -0.22032149 -0.0099991942 0
0.0015473441 -0.22069675 0.010000804 0
0.0042162226 -0.22058098 -0.0099991867 0
0.0042834333 -0.22054708 0.010000815 0
0.0075304387 -0.22057573 -0.0099991756 0
0.0076430216 -0.22058634 0.010000824 0
0.0098726368 -0.22079998 -0.0096105346 0
0.010000028 -0.22057322 -0.0075162081 0
0.010000015 -0.22046341 -0.0044646831 0
0.010000006 -0.22067183 -0.0013579123 0
0.0099999933 -0.220585 0.0014624832 0
0.0099999821 -0.22042248 0.0044505298 0
0.00999997 -0.22053923 0.0075655621 0
0.0097565297 -0.2203158 0.0097592194 0
0.073713042 -0.22097404 -0.0098711941 0
0.07335829 -0.2201253 -0.007363331 0
0.073213458 -0.22055969 -0.0043930793 0
0.07312645 -0.22082068 -0.0015539391 0
0.07325983 -0.22042054 0.0013391682 0
0.073228799 -0.22051357 0.0047055669 0
0.073307902 -0.22027618 0.0075759185 0
0.073725626 -0.22059445 0.0098316353 0
0.076554164 -0.22047375 -0.0099989204 0
0.07666073 -0.220332 0.010001073 0
0.079445325 -0.22056988 -0.0099989157 0
0.079532392 -0.22047527 0.010001083 0
0.082579993 -0.22065371 -0.0099989008 0
0.082441919 -0.22046116 0.010001092 0
0.085477196 -0.22071177 -0.0099988915 0
0.085924633 -0.22028364 0.010001107 0
0.08846949 -0.22031072 -0.0099988822 0
0.088493645 -0.22036518 0.010001117 0
0.090000041 -0.22109649 -0.0095504643 0
0.090000018 -0.22042079 -0.0074860388 0
0.090000026 -0.22070035 -0.0043317452 0
0.090000018 -0.22040625 -0.001662055 0
0.089999981 -0.22046131 0.001668269 0
0.089999966 -0.22032765 0.004560513 0
0.089999966 -0.22035556 0.007715859 0
0.089999981 -0.22030383 0.0095355483 0
-0.0096300188 -0.21738122 -0.009883754 0
-0.0099999728 -0.21756987 -0.0077123046 0
-0.0099999839 -0.21762136 -0.0044193682 0
-0.0099999979 -0.21725452 -0.0010940054 0
-0.010000004 -0.21714383 0.0015922621 0
-0.010000016 -0.21776733 0.0044463966 0
-0.010000028 -0.21739745 0.0075384378 0
-0.009743114 -0.21737051 0.0097370706 0
-0.0070877224 -0.21751039 -0.009999237 0
-0.0073810942 -0.21772449 0.010000759 0
-0.0047122827 -0.21755587 -0.0099992296 0
-0.0047474825 -0.21754318 0.010000774 0
-0.0014833917 -0.21764719 -0.0099992156 0
-0.0014206865 -0.21737413 0.010000779 0
0.0014551295 -0.21746114 -0.0099992082 0
0.0017109874 -0.21762516 0.010000795 0
0.0044549177 -0.21748589 -0.0099991951 0
0.0045588836 -0.21732417 0.010000802 0
0.0074828244 -0.21746975 -0.0099991867 0
0.0073161647 -0.21740693 0.010000814 0
0.0097299451 -0.21768133 -0.0097512659 0
0.010000029 -0.21754906 -0.0078178151 0
0.010000017 -0.21754591 -0.0046021454 0
0.010000004 -0.21751778 -0.0012868476 0
0.0099999961 -0.21735385 0.0015526307 0
0.009999983 -0.21763667 0.0047592348 0
0.0099999718 -0.217586 0.0074116034 0
0.0096306186 -0.21740559 0.0098947585 0
0.074316643 -0.21803246 -0.0097345281 0
0.074160859 -0.21771756 -0.0074642478 0
0.074275725 -0.21737291 -0.0046062488 0
0.074222364 -0.21753296 -0.0014784946 0
0.074276559 -0.21737033 0.0013167069 0
0.074267454 -0.21739757 0.0046382141 0
0.074163124 -0.21771051 0.0072404179 0
0.07424327 -0.21812584 0.0096203629 0
0.076628134 -0.21764387 -0.0099989325 0
0.076543853 -0.21755806 0.010001063 0
0.079481587 -0.21762536 -0.0099989222 0
0.079554439 -0.21749006 0.010001073 0
0.08258719 -0.21785833 -0.0099989129 0
0.082553141 -0.21732467 0.010001083 0
0.085563272 -0.21776383 -0.0099989017 0
0.085586958 -0.21748067 0.010001098 0
0.088731378 -0.21752363 -0.0099988887 0
0.088469028 -0.21738999 0.010001108 0
0.090000056 -0.21761504 -0.0094493292 0
0.090000026 -0.21741842 -0.0074942405 0
0.089999996 -0.21754397 -0.0044715209 0
0.090000011 -0.21793425 -0.0018210221 0
0.089999974 -0.21756151 0.0014498577 0
0.089999974 -0.217409 0.0044803261 0
0.089999959 -0.21768171 0.0072699822 0
0.089999966 -0.21690878 0.0095652742 0
-0.0097723976 -0.21457927 -0.0096805152 0
-0.0099999746 -0.2146683 -0.0075189578 0
-0.0099999849 -0.21473378 -0.0045388448 0
-0.0099999923 -0.21451268 -0.0018544911 0
-0.010000003 -0.21410258 0.0014711076 0
-0.010000017 -0.21441667 0.0044424473 0
-0.010000026 -0.21446985 0.0074003404 0
-0.0097109322 -0.2144476 0.0096430117 0
-0.0075269258 -0.21439837 -0.0099992519 0
-0.0074529471 -0.21426389 0.010000749 0
-0.0045636836 -0.21451031 -0.009999237 0
-0.0045786793 -0.21434613 0.010000759 0
-0.0013184265 -0.21456397 -0.0099992268 0
-0.0014500767 -0.21449737 0.010000772 0
0.0012883064 -0.21471809 -0.0099992156 0
0.0015444549 -0.21433766 0.01000078 0
0.0043055019 -0.2144883 -0.0099992072 0
0.0043807412 -0.21439397 0.010000791 0
0.0074147996 -0.2146854 -0.0099991942 0
0.0072396863 -0.21419439 0.010000799 0
0.0098083001 -0.21467951 -0.0098535735 0
0.010000025 -0.2142528 -0.0075351931 0
0.010000014 -0.21437757 -0.0044696797 0
0.010000004 -0.21454519 -0.0012766338 0
0.0099999933 -0.21456262 0.0014239564 0
0.0099999812 -0.21440242 0.0043237004 0
0.0099999709 -0.21465921 0.0074089542 0
0.0097513106 -0.21456119 0.009700791 0
0.074973695 -0.21527904 -0.0095506757 0
0.074864537 -0.21560651 -0.0074188318 0
0.074840657 -0.2156781 -0.0043578683 0
0.074923553 -0.21542938 -0.0015833995 0
0.07484892 -0.21565324 0.0014015672 0
0.074871249 -0.21558623 0.0042598392 0
0.074866161 -0.21560141 0.0076315408 0
0.07497298 -0.21528092 0.0096895276 0
0.076208308 -0.21445945 -0.0098720938 0
0.075367257 -0.21409835 -0.0074346852 0
0.075384103 -0.21404774 -0.0043653264 0
0.075403459 -0.21398966 -0.001613941 0
0.075275525 -0.21437341 0.0014453656 0
0.075363241 -0.21411023 0.004279403 0
0.075421564 -0.21393526 0.0076772813 0
0.076359674 -0.21437465 0.009919758 0
0.079610966 -0.21427426 -0.0099989381 0
0.079226077 -0.2145562 0.010001061 0
0.082302228 -0.2145431 -0.0099989269 0
0.082280323 -0.21462166 0.010001072 0
0.085467257 -0.21413796 -0.0099989176 0
0.08520554 -0.21454902 0.010001084 0
0.088621937 -0.2145846 -0.0099989008 0
0.088554733 -0.21480049 0.010001098 0
0.090000048 -0.21523201 -0.009604929 0
0.090000033 -0.21449241 -0.0074550654 0
0.089999996 -0.21434228 -0.0044236542 0
0.089999996 -0.21483502 -0.0014110823 0
0.089999981 -0.21440481 0.0015073257 0
0.089999959 -0.21460019 0.0047077709 0
0.089999951 -0.21431842 0.0073305676 0
0.089999966 -0.2141058 0.0096326619 0
-0.0098031182 -0.21146539 -0.0096659511 0
-0.0099999756 -0.21141148 -0.0072691706 0
-0.0099999821 -0.21142903 -0.0044706678 0
-0.0099999923 -0.21138753 -0.0017206278 0
-0.010000003 -0.21142358 0.0016415453 0
-0.010000016 -0.21149713 0.0043039303 0
-0.010000025 -0.21134219 0.007562913 0
-0.0096555343 -0.21152964 0.0097696688 0
-0.0076300609 -0.21143483 -0.0099992594 0
-0.0076201777 -0.21167038 0.010000739 0
-0.0044563399 -0.21138185 -0.0099992482 0
-0.0047154967 -0.21168196 0.01000075 0
-0.0013735368 -0.21161444 -0.0099992361 0
-0.0013133709 -0.21171966 0.010000762 0
0.0014497343 -0.21140356 -0.0099992305 0
0.001586752 -0.21107054 0.010000768 0
0.0046091075 -0.21151413 -0.0099992147 0
0.0045081391 -0.21167447 0.010000782 0
0.0073192567 -0.21170506 -0.0099992063 0
0.0077030063 -0.21153255 0.010000792 0
0.0097476607 -0.21157236 -0.0098275747 0
0.010000028 -0.21123374 -0.0071728532 0
0.010000015 -0.21168122 -0.0042668926 0
0.010000004 -0.21146296 -0.0013547378 0
0.0099999961 -0.21139057 0.0012565672 0
0.0099999821 -0.21183957 0.0044904072 0
0.0099999737 -0.21145667 0.0074515874 0
0.0096843317 -0.2114924 0.0097956788 0
0.076631904 -0.2116878 -0.0098220259 0
0.076239415 -0.21148188 -0.0075408127 0
0.076203637 -0.21158917 -0.0045835241 0
0.076251052 -0.2114469 -0.0014153162 0
0.076199211 -0.21160236 0.0016946507 0
0.076215759 -0.21155265 0.0044994121 0
0.076259613 -0.21142104 0.0075602308 0
0.07673604 -0.21168624 0.0097583877 0
0.079520673 -0.21155439 -0.0099989437 0
0.079265662 -0.21139289 0.01000105 0
0.082392141 -0.2115043 -0.0099989353 0
0.082674645 -0.21156703 0.010001062 0
0.085504018 -0.2118475 -0.0099989232 0
0.085542426 -0.21141526 0.010001072 0
0.088426493 -0.21154599 -0.0099989139 0
0.088437855 -0.21185416 0.010001088 0
0.090000041 -0.21171547 -0.0095417416 0
0.090000011 -0.21150774 -0.0073583466 0
0.090000004 -0.21155682 -0.0044195508 0
0.090000011 -0.2115386 -0.0014203724 0
0.089999981 -0.21129274 0.0014431868 0
0.089999974 -0.21142922 0.0044068513 0
0.089999989 -0.21115088 0.0074602361 0
0.089999966 -0.21135409 0.0096041551 0
-0.009756594 -0.20832103 -0.0097963056 0
-0.0099999718 -0.2085456 -0.0074998848 0
-0.0099999802 -0.20849878 -0.0046186368 0
-0.0099999942 -0.20859493 -0.0014726951 0
-0.010000004 -0.20879751 0.0013368453 0
-0.010000014 -0.20829247 0.0047548339 0
-0.010000027 -0.20870681 0.0073154103 0
-0.0097898021 -0.20834085 0.0097496053 0
-0.0072718975 -0.20838259 -0.0099992706 0
-0.0075595989 -0.20840353 0.010000725 0
-0.004357886 -0.20846866 -0.0099992622 0
-0.0043826913 -0.20853011 0.01000074 0
-0.0014611608 -0.20868568 -0.0099992491 0
-0.001605724 -0.20871936 0.01000075 0
0.0014986013 -0.20850112 -0.009999237 0
0.0015823429 -0.20854455 0.010000759 0
0.0046937899 -0.2084202 -0.0099992268 0
0.0044490052 -0.20852682 0.010000772 0
0.0072483183 -0.20862493 -0.0099992203 0
0.0075598382 -0.20830795 0.010000781 0
0.0096811075 -0.20860113 -0.0098771192 0
0.010000027 -0.20817417 -0.0074559129 0
0.010000016 -0.20845969 -0.0044925837 0
0.010000006 -0.20843081 -0.0015558512 0
0.0099999951 -0.20813562 0.0013892828 0
0.0099999839 -0.20839955 0.0044146487 0
0.0099999718 -0.20849831 0.0073107751 0
0.0097663831 -0.20863798 0.0097692804 0
0.077386729 -0.20845938 -0.0097684236 0
0.077285312 -0.20834418 -0.0075491196 0
0.077194504 -0.20861655 -0.0044707279 0
0.077197351 -0.20860799 -0.0013842328 0
0.07724449 -0.20846653 0.0017303767 0
0.077275768 -0.20837265 0.0047305734 0
0.077221841 -0.2085344 0.0075360234 0
0.077391431 -0.20885085 0.0097329915 0
0.079552926 -0.20876029 -0.0099989576 0
0.079713643 -0.20846167 0.010001042 0
0.08229392 -0.20834161 -0.0099989455 0
0.082611486 -0.20838638 0.010001052 0
0.085332923 -0.20856081 -0.0099989343 0
0.085354 -0.20839611 0.010001063 0
0.088279277 -0.20864889 -0.009998926 0
0.08852689 -0.20843944 0.010001074 0
0.090000056 -0.20849451 -0.0095139965 0
0.090000004 -0.20848313 -0.0076919142 0
0.090000004 -0.2082473 -0.0044200602 0
0.090000011 -0.20845501 -0.0011294616 0
0.089999996 -0.20842363 0.0013768948 0
0.090000004 -0.2084619 0.0043214243 0
0.089999944 -0.20846255 0.0074550044 0
0.089999981 -0.20856129 0.0094335936 0
-0.009830242 -0.20542677 -0.0097140828 0
-0.0099999718 -0.20553666 -0.0074706441 0
-0.0099999812 -0.20539576 -0.004619272 0
-0.0099999942 -0.20530324 -0.0014697051 0
-0.010000004 -0.20566773 0.0016139834 0
-0.010000016 -0.20542359 0.0042617042 0
-0.010000026 -0.20545222 0.0074835871 0
-0.0096180486 -0.20563051 0.0098048821 0
-0.0075528673 -0.20563921 -0.0099992817 0
-0.0074503431 -0.20546593 0.010000716 0
-0.0045492151 -0.20554009 -0.0099992715 0
-0.0046664136 -0.20559716 0.01000073 0
-0.001323588 -0.20559262 -0.0099992584 0
-0.0015806393 -0.20541413 0.010000739 0
0.001484332 -0.20552613 -0.0099992491 0
0.0014529235 -0.20545295 0.010000749 0
0.0045952229 -0.2056528 -0.0099992398 0
0.0045123314 -0.20548829 0.010000762 0
0.0076060696 -0.20576724 -0.0099992258 0
0.0072186519 -0.20563611 0.010000768 0
0.0098160021 -0.2055268 -0.0096533149 0
0.010000025 -0.20546097 -0.0073775365 0
0.010000016 -0.20547117 -0.0046434463 0
0.010000006 -0.20556735 -0.0016017306 0
0.0099999942 -0.20544675 0.0015425717 0
0.0099999812 -0.205438 0.0043798052 0
0.0099999709 -0.20549375 0.0075268298 0
0.0098161995 -0.20550926 0.0097117657 0
0.077902816 -0.20649169 -0.0096589476 0
0.077846698 -0.20666003 -0.0072750766 0
0.07783547 -0.20669369 -0.0041650753 0
0.077895105 -0.20651475 -0.0020147208 0
0.077881195 -0.20655642 0.0013527069 0
0.077882633 -0.20655206 0.0041213902 0
0.077855259 -0.20663413 0.0071102413 0
0.077796616 -0.20681003 0.0091190943 0
0.079324484 -0.20550239 -0.0099175163 0
0.078347668 -0.20515712 -0.0076533072 0
0.078372061 -0.20508388 -0.0044715763 0
0.078336626 -0.20519017 -0.0013364784 0
0.078388169 -0.20503551 0.001717865 0
0.078351624 -0.20514505 0.004482456 0
0.078424558 -0.20492618 0.0074757338 0
0.079334095 -0.20526464 0.0099355159 0
0.082497463 -0.20558687 -0.0099989558 0
0.082613528 -0.20577081 0.010001043 0
0.085469201 -0.20566761 -0.0099989446 0
0.085625544 -0.20553476 0.010001052 0
0.088488065 -0.20543334 -0.0099989353 0
0.088477917 -0.20556216 0.010001063 0
0.090000048 -0.20525736 -0.009420841 0
0.090000004 -0.20551197 -0.0075208377 0
0.089999996 -0.20549729 -0.0043837307 0
0.089999989 -0.20571628 -0.0015940018 0
0.089999996 -0.20519982 0.0016735636 0
0.089999996 -0.20553707 0.0045124367 0
0.089999959 -0.20526035 0.0071730372 0
0.089999981 -0.20533051 0.0095531521 0
-0.0096819531 -0.20264961 -0.0097883688 0
-0.0099999681 -0.20260242 -0.0076308963 0
-0.0099999821 -0.20237301 -0.0049176151 0
-0.0099999951 -0.20253874 -0.0013761994 0
-0.010000004 -0.20245939 0.0014872396 0
-0.010000015 -0.20248838 0.0046640621 0
-0.010000027 -0.20267433 0.0077049974 0
-0.009789818 -0.2022243 0.0096753463 0
-0.0075132377 -0.20245814 -0.0099992929 0
-0.007787907 -0.20250046 0.010000704 0
-0.0047564656 -0.20211259 -0.0099992855 0
-0.0045884736 -0.20255366 0.010000713 0
-0.001346916 -0.20250353 -0.0099992733 0
-0.0015826344 -0.2025445 0.010000726 0
0.0013841867 -0.20241609 -0.0099992612 0
0.0018393697 -0.20235218 0.01000074 0
0.0046578627 -0.20220643 -0.0099992519 0
0.004924275 -0.2029101 0.010000753 0
0.0075892191 -0.20254965 -0.0099992389 0
0.0074787284 -0.20244594 0.010000758 0
0.0098060742 -0.20281416 -0.0097050499 0
0.010000026 -0.20263073 -0.0074237352 0
0.010000014 -0.20251258 -0.0044610021 0
0.010000006 -0.20263541 -0.0014368637 0
0.0099999923 -0.20255038 0.0013981914 0
0.009999983 -0.20255479 0.0045813583 0
0.0099999718 -0.20249684 0.0075572897 0
0.0097887553 -0.20260613 0.0095962761 0
0.079990134 -0.20305 -0.0098565668 0
0.079157807 -0.20272666 -0.0077147977 0
0.079230182 -0.20250946 -0.0046035545 0
0.079178669 -0.20266399 -0.0015003375 0
0.079251803 -0.20244458 0.0014421244 0
0.079332031 -0.20220383 0.0044162627 0
0.079315759 -0.20225263 0.0075705196 0
0.079686642 -0.20249251 0.0097784018 0
0.082460947 -0.20267616 -0.009998966 0
0.08233089 -0.20255193 0.010001029 0
0.085808456 -0.20256765 -0.0099989539 0
0.085602596 -0.20256552 0.010001041 0
0.088266417 -0.20259292 -0.0099989455 0
0.088525862 -0.20244756 0.010001052 0
0.090000041 -0.20286152 -0.0095094917 0
0.090000041 -0.2024157 -0.0074317916 0
0.090000033 -0.20278957 -0.004599317 0
0.090000011 -0.20262891 -0.0014235079 0
0.089999989 -0.2021921 0.0014526661 0
0.089999966 -0.20270818 0.0045956494 0
0.089999981 -0.20246105 0.0076326253 0
0.089999974 -0.2024408 0.0094701601 0
-0.009735073 -0.19950449 -0.0097635398 0
-0.0099999718 -0.19952956 -0.0075095231 0
-0.0099999812 -0.19944806 -0.0045493692 0
-0.0099999951 -0.19969718 -0.0015203845 0
-0.010000005 -0.1996178 0.0016618751 0
-0.010000015 -0.19965017 0.0043835375 0
-0.010000028 -0.19932972 0.007330596 0
-0.0097118905 -0.19959517 0.0098254019 0
-0.0071534207 -0.19934891 -0.0099993031 0
-0.007728192 -0.19937918 0.010000695 0
-0.0043864721 -0.19946909 -0.009999291 0
-0.0043510161 -0.19948108 0.010000708 0
-0.0015680784 -0.1997961 -0.0099992827 0
-0.0014575617 -0.19937709 0.010000715 0
0.0016937511 -0.19972765 -0.0099992715 0
0.0014959951 -0.19956301 0.010000729 0
0.0046260511 -0.19969988 -0.0099992594 0
0.0045989044 -0.19941978 0.010000736 0
0.0075214333 -0.19947051 -0.0099992482 0
0.0075515504 -0.19926152 0.010000746 0
0.0096768597 -0.19940005 -0.0097835064 0
0.010000025 -0.1998429 -0.0074413535 0
0.010000018 -0.19926457 -0.0046363021 0
0.010000004 -0.19962855 -0.0011815085 0
0.0099999961 -0.19929472 0.0014009839 0
0.009999983 -0.19944502 0.0044703656 0
0.0099999709 -0.19968301 0.0074513736 0
0.0097353021 -0.19950151 0.0097907251 0
0.080483928 -0.19957097 -0.0097406739 0
0.080292396 -0.199323 -0.0073472103 0
0.080255382 -0.19943389 -0.004567788 0
0.08031778 -0.1992467 -0.0015540168 0
0.080159523 -0.1997214 0.0015548397 0
0.080219947 -0.19954012 0.004508567 0
0.08028245 -0.19935252 0.0076276273 0
0.080374703 -0.20000094 0.009849159 0
0.082598858 -0.19944324 -0.009998979 0
0.082397349 -0.19953758 0.010001021 0
0.085352816 -0.19956343 -0.009998966 0
0.085467555 -0.19947688 0.010001031 0
0.08874236 -0.19980142 -0.0099989548 0
0.088656783 -0.19954745 0.010001042 0
0.090000056 -0.1998817 -0.0095269559 0
0.090000018 -0.19967522 -0.0074923034 0
0.089999996 -0.19950941 -0.0044743912 0
0.089999989 -0.19938076 -0.0016078884 0
0.089999959 -0.19952182 0.0014853701 0
0.089999966 -0.19940478 0.0046354914 0
0.089999959 -0.19943163 0.0075862757 0
0.089999981 -0.19950826 0.0096004289 0
-0.0098576806 -0.19650142 -0.0096781943 0
-0.0099999737 -0.19619645 -0.0074836258 0
-0.0099999849 -0.19644928 -0.0043919822 0
-0.0099999923 -0.19644766 -0.0014627954 0
-0.010000003 -0.1961547 0.0011565115 0
-0.010000014 -0.19657493 0.0044837222 0
-0.010000028 -0.19641548 0.0073580192 0
-0.0097024115 -0.19631027 0.0096714646 0
-0.007227309 -0.19672297 -0.0099993115 0
-0.0074266479 -0.19631498 0.010000684 0
-0.0046057226 -0.19666952 -0.0099993022 0
-0.0046960451 -0.19640946 0.010000695 0
-0.0013844405 -0.1964258 -0.009999292 0
-0.001606797 -0.19679819 0.010000708 0
0.0015598716 -0.19661532 -0.0099992817 0
0.0015671223 -0.19646558 0.010000715 0
0.0045492002 -0.19652157 -0.0099992687 0
0.0044737998 -0.19630331 0.010000727 0
0.0075479075 -0.19660887 -0.0099992612 0
0.0072632213 -0.19634815 0.010000737 0
0.0098117925 -0.19686623 -0.0097583793 0
0.010000026 -0.19660419 -0.0074910657 0
0.010000018 -0.19642444 -0.0048284195 0
0.010000004 -0.19643861 -0.0017068274 0
0.0099999961 -0.19649978 0.0015633104 0
0.0099999821 -0.19634312 0.0045229392 0
0.0099999737 -0.19648968 0.0075418251 0
0.0097845858 -0.19632556 0.0096673928 0
0.080828644 -0.19771419 -0.0092160571 0
0.080826432 -0.19772084 -0.0075116879 0
0.080889411 -0.19753188 -0.0046493327 0
0.080867194 -0.19759843 -0.0014083138 0
0.080900081 -0.19749977 0.001378083 0
0.080843501 -0.19766948 0.004304498 0
0.080873683 -0.19757882 0.0072806408 0
0.080824517 -0.19772631 0.0094957529 0
0.082113549 -0.1965192 -0.0098775644 0
0.081393175 -0.1960206 -0.0077315178 0
0.081361048 -0.19611692 -0.0048103351 0
0.081421182 -0.19593647 -0.0012447943 0
0.081331149 -0.19620652 0.0015027241 0
0.081411533 -0.19596533 0.00441291 0
0.081387088 -0.19603863 0.0073485677 0
0.08250995 -0.19611795 0.0099078417 0
0.085611604 -0.19662796 -0.0099989772 0
0.085485585 -0.19646743 0.01000102 0
0.088699743 -0.19655444 -0.0099989669 0
0.088186227 -0.19654614 0.010001031 0
0.090000056 -0.1967867 -0.0094957147 0
0.090000011 -0.19656862 -0.0072878334 0
0.089999981 -0.19642133 -0.0048372601 0
0.089999989 -0.19648339 -0.0015421599 0
0.089999974 -0.19646944 0.0015294241 0
0.089999996 -0.19657299 0.0046149632 0
0.089999989 -0.19675146 0.0072678481 0
0.089999974 -0.19646047 0.0094716093 0
-0.0098669566 -0.19372012 -0.0096928617 0
-0.00999997 -0.19345723 -0.0074898647 0
-0.0099999849 -0.19363442 -0.0044756006 0
-0.0099999923 -0.19321083 -0.0016249424 0
-0.010000007 -0.19335666 0.0018928564 0
-0.010000017 -0.19381028 0.004527091 0
-0.010000026 -0.1935506 0.0075317575 0
-0.0096548013 -0.19405699 0.0097996909 0
-0.0072048279 -0.19330782 -0.0099993264 0
-0.0079142284 -0.1934462 0.010000671 0
-0.0047308756 -0.19331303 -0.0099993162 0
-0.0046827612 -0.1933935 0.010000684 0
-0.0016967069 -0.19388257 -0.0099993022 0
-0.001531898 -0.19366504 0.010000694 0
0.0015224398 -0.19382676 -0.009999291 0
0.00134434 -0.19362444 0.010000707 0
0.0046545537 -0.19351575 -0.0099992808 0
0.0043941149 -0.19358736 0.010000717 0
0.0074963425 -0.19341661 -0.0099992706 0
0.0072410712 -0.1932781 0.010000727 0
0.0098404046 -0.19362916 -0.0096131675 0
0.010000027 -0.19340682 -0.0075902748 0
0.010000015 -0.19334231 -0.0044180341 0
0.010000003 -0.19329455 -0.0013340596 0
0.0099999951 -0.19327268 0.0014037821 0
0.0099999821 -0.19350503 0.0043165917 0
0.0099999728 -0.19341594 0.0075363591 0
0.0096598379 -0.19385272 0.0097242668 0
0.082607418 -0.19370496 -0.0097229471 0
0.08226262 -0.1934123 -0.0075093438 0
0.082223512 -0.19352955 -0.004594896 0
0.082109831 -0.1938705 -0.0014799067 0
0.082197443 -0.19360767 0.0016818068 0
0.082222603 -0.19353214 0.0046239309 0
0.082233496 -0.19349942 0.0074319919 0
0.082751848 -0.19371729 0.009804545 0
0.08566986 -0.19362596 -0.0099989874 0
0.085147075 -0.19364882 0.010001007 0
0.088589422 -0.19360927 -0.0099989763 0
0.088555284 -0.19348228 0.010001021 0
0.090000056 -0.19382675 -0.009538684 0
0.090000041 -0.19386196 -0.0075092963 0
0.090000011 -0.19357021 -0.0044490211 0
0.089999989 -0.19345252 -0.001421093 0
0.089999989 -0.19360203 0.0014404793 0
0.089999966 -0.19344497 0.004670185 0
0.089999951 -0.19357118 0.0073741255 0
0.089999981 -0.193294 0.0095474692 0
-0.0097317146 -0.1904619 -0.0097442707 0
-0.0099999737 -0.19034672 -0.0075783506 0
-0.0099999821 -0.19071221 -0.0046048029 0
-0.0099999942 -0.19057539 -0.0014392016 0
-0.010000004 -0.19023715 0.0015374977 0
-0.010000017 -0.19057685 0.0044860994 0
-0.010000027 -0.19030198 0.0074562463 0
-0.0098446105 -0.1907254 0.0096631944 0
-0.0073009767 -0.19068329 -0.0099993357 0
-0.0075568059 -0.19051808 0.010000661 0
-0.0045080069 -0.19047335 -0.0099993255 0
-0.0044401251 -0.19056743 0.010000674 0
-0.0016317653 -0.19051756 -0.0099993143 0
-0.0018981403 -0.19048962 0.010000681 0
0.0013555613 -0.19075559 -0.0099993031 0
0.0016408949 -0.19041008 0.010000695 0
0.0044592195 -0.19051279 -0.0099992948 0
0.0046166377 -0.19063382 0.010000709 0
0.0077373576 -0.19044949 -0.0099992845 0
0.0072342986 -0.1903756 0.010000716 0
0.0097388886 -0.19068471 -0.0097589977 0
0.010000026 -0.19044411 -0.0076880427 0
0.010000013 -0.19065367 -0.0044488972 0
0.010000004 -0.19019617 -0.0014815705 0
0.0099999923 -0.19074365 0.0014110856 0
0.009999983 -0.19030601 0.0043953494 0
0.0099999709 -0.19053742 0.0075548613 0
0.0097135315 -0.19044164 0.0097759841 0
0.083366826 -0.19051784 -0.0096971812 0
0.083290689 -0.19032806 -0.0073715122 0
0.083328947 -0.19021319 -0.0046871076 0
0.083219953 -0.19054015 -0.0014833879 0
0.08318802 -0.19063589 0.0015236812 0
0.083192244 -0.19062321 0.0043742619 0
0.083222233 -0.19053318 0.0074692564 0
0.083317071 -0.19074273 0.0097707044 0
0.085557729 -0.19050737 -0.0099989986 0
0.085520528 -0.19053523 0.010001 0
0.08869525 -0.19031943 -0.0099989865 0
0.088477932 -0.19041409 0.010001008 0
0.090000048 -0.19036514 -0.0096257878 0
0.090000026 -0.19034925 -0.0073588514 0
0.089999996 -0.19039541 -0.0044537163 0
0.090000004 -0.1907654 -0.0015370501 0
0.089999996 -0.19030228 0.0014610681 0
0.089999966 -0.19031356 0.004585566 0
0.089999959 -0.19050606 0.0075951316 0
0.089999959 -0.19084546 0.0095441006 0
-0.0097960327 -0.18765198 -0.0097462917 0
-0.00999997 -0.18742633 -0.007740167 0
-0.0099999821 -0.18763997 -0.0043986733 0
-0.0099999961 -0.18768944 -0.0015599628 0
-0.010000005 -0.18742597 0.0016037095 0
-0.010000017 -0.18745941 0.0045459606 0
-0.010000023 -0.18746929 0.0072707245 0
-0.0096939728 -0.18750294 0.0097996062 0
-0.0075121219 -0.1875125 -0.0099993469 0
-0.0072747883 -0.18759391 0.010000653 0
-0.0042703813 -0.18745019 -0.0099993348 0
-0.0045935553 -0.18746446 0.010000658 0
-0.0016006718 -0.18735991 -0.0099993255 0
-0.0016924491 -0.18728048 0.010000669 0
0.0010857967 -0.18783273 -0.009999318 0
0.0016265251 -0.18747236 0.010000685 0
0.0046588392 -0.18756709 -0.0099993022 0
0.0044356212 -0.18763505 0.010000692 0
0.0073288986 -0.18736637 -0.0099992938 0
0.0074565057 -0.18756476 0.010000705 0
0.0097210472 -0.18762295 -0.0098165907 0
0.010000029 -0.18747732 -0.0072836662 0
0.010000014 -0.18748741 -0.0044763922 0
0.010000005 -0.18740495 -0.0014130434 0
0.0099999923 -0.18749186 0.0014467489 0
0.0099999821 -0.18756701 0.0044709053 0
0.0099999728 -0.18739894 0.0076655848 0
0.0097483154 -0.1871715 0.0097836498 0
0.083876967 -0.18867965 -0.009553507 0
0.083852112 -0.1886438 -0.0075686825 0
0.083887815 -0.18853664 -0.0046061943 0
0.083862148 -0.18861359 -0.0017674535 0
0.083889782 -0.18853065 0.0013442915 0
0.08389052 -0.18852839 0.0045156642 0
0.083863765 -0.18860862 0.0073949997 0
0.083792903 -0.1888212 0.0098515712 0
0.085357018 -0.18731651 -0.0098510273 0
0.084392399 -0.18702294 -0.007300552 0
0.084298089 -0.18730579 -0.0043056183 0
0.084346846 -0.18715952 -0.0016096665 0
0.084371902 -0.18708427 0.0017707195 0
0.084357381 -0.18712781 0.0046407743 0
0.084316753 -0.18724968 0.0075294925 0
0.085357636 -0.18729559 0.0098963659 0
0.08840856 -0.18758023 -0.0099989995 0
0.088455431 -0.18742317 0.010000998 0
0.090000048 -0.1876999 -0.0095390296 0
0.090000011 -0.18735428 -0.0074742548 0
0.089999996 -0.18761949 -0.0047078789 0
0.090000018 -0.18738073 -0.0017526071 0
0.089999989 -0.18759863 0.0016936758 0
0.089999966 -0.18765333 0.0045522978 0
0.089999974 -0.18741594 0.0073778839 0
0.089999966 -0.18690468 0.0096898247 0
-0.0097323405 -0.18467027 -0.0097272713 0
-0.0099999756 -0.18472759 -0.0072561316 0
-0.0099999812 -0.18461661 -0.0045670327 0
-0.0099999933 -0.18459541 -0.0014211057 0
-0.010000004 -0.18456443 0.0014531242 0
-0.010000014 -0.18453428 0.0044072927 0
-0.010000025 -0.18432426 0.0073577031 0
-0.0096805776 -0.18437079 0.009791608 0
-0.0073651792 -0.18468519 -0.00999936 0
-0.0073806783 -0.18457456 0.010000641 0
-0.004385924 -0.18405987 -0.0099993488 0
-0.0044344324 -0.18423331 0.01000065 0
-0.0014380235 -0.18448183 -0.0099993357 0
-0.0014243103 -0.18463497 0.010000665 0
0.0016309865 -0.18450306 -0.0099993236 0
0.0014940987 -0.1843845 0.010000671 0
0.004603459 -0.18467793 -0.0099993162 0
0.004541494 -0.18452393 0.010000682 0
0.0075297998 -0.18415929 -0.0099993069 0
0.0077113281 -0.18460219 0.010000695 0
0.0096825613 -0.18447909 -0.0097870827 0
0.010000027 -0.18445283 -0.0072379131 0
0.010000017 -0.18441223 -0.0047385241 0
0.010000007 -0.18460552 -0.0015863031 0
0.0099999905 -0.18475157 0.0017589303 0
0.0099999858 -0.18447521 0.0044408818 0
0.0099999718 -0.1845066 0.0074238521 0
0.0097789541 -0.184478 0.0098211439 0
0.085733898 -0.18449254 -0.0097524496 0
0.085219912 -0.18454044 -0.0076731211 0
0.085219868 -0.18454041 -0.004446161 0
0.08520963 -0.18457121 -0.0013619117 0
0.085220478 -0.18453856 0.0014387043 0
0.085181825 -0.18465452 0.004501381 0
0.085242487 -0.18447241 0.0073778857 0
0.085540242 -0.18469608 0.0098139886 0
0.088495471 -0.1843189 -0.0099990098 0
0.088568866 -0.18450661 0.010000989 0
0.090000048 -0.18432675 -0.0095351515 0
0.090000018 -0.1844227 -0.0077735437 0
0.089999989 -0.18457042 -0.0047113094 0
0.090000004 -0.18466263 -0.0017333028 0
0.089999974 -0.1842192 0.0015409807 0
0.089999974 -0.18464167 0.0044602049 0
0.089999966 -0.18442535 0.0072714947 0
0.089999981 -0.1846588 0.009372388 0
-0.0098121827 -0.18163428 -0.0097921034 0
-0.00999997 -0.18140845 -0.0074316817 0
-0.0099999821 -0.18146496 -0.0046347012 0
-0.0099999942 -0.18123564 -0.0012917047 0
-0.010000004 -0.18141356 0.0014390395 0
-0.010000015 -0.18152326 0.0046395054 0
-0.010000027 -0.18143764 0.0077066477 0
-0.0097304871 -0.18154852 0.0098228008 0
-0.0076704593 -0.18159385 -0.0099993693 0
-0.0073783435 -0.18157241 0.010000631 0
-0.0047215838 -0.18170807 -0.009999359 0
-0.0046335082 -0.18158084 0.010000641 0
-0.0015448557 -0.18148211 -0.0099993469 0
-0.0017720192 -0.18134791 0.010000649 0
0.0013842807 -0.18108821 -0.0099993404 0
0.0015388181 -0.1817773 0.010000662 0
0.0048810951 -0.18143295 -0.0099993236 0
0.0043670121 -0.181318 0.010000673 0
0.0075181141 -0.18154958 -0.0099993134 0
0.0075531597 -0.18128996 0.010000683 0
0.0098052425 -0.18183316 -0.0097553851 0
0.010000025 -0.1816517 -0.0075303637 0
0.010000015 -0.18180069 -0.0043430519 0
0.010000004 -0.18161441 -0.0014258396 0
0.0099999933 -0.18150483 0.0016262928 0
0.0099999849 -0.18158332 0.0044493978 0
0.0099999746 -0.18179797 0.0071438886 0
0.0096737295 -0.18151292 0.0098102028 0
0.086282618 -0.18195444 -0.0097137056 0
0.086212948 -0.18156128 -0.0074197957 0
0.086229891 -0.18151042 -0.0046494687 0
0.086222492 -0.18153259 -0.0016548518 0
0.086305052 -0.18128483 0.0017564733 0
0.086292766 -0.18132167 0.0044800513 0
0.086227261 -0.18151811 0.0075403471 0
0.086364664 -0.18173219 0.0097969621 0
0.088522054 -0.18159363 -0.009999021 0
0.088510513 -0.18142976 0.010000976 0
0.090000056 -0.18149114 -0.0094487267 0
0.090000018 -0.18167178 -0.0073150005 0
0.089999996 -0.18152235 -0.0044451649 0
0.089999989 -0.1814518 -0.0017415655 0
0.089999974 -0.18153612 0.0016465633 0
0.089999959 -0.18168876 0.0044272067 0
0.089999959 -0.18169159 0.0075040609 0
0.089999974 -0.18119636 0.0095483596 0
-0.0099096159 -0.17839724 -0.0095821703 0
-0.0099999728 -0.17858873 -0.0073785605 0
-0.0099999821 -0.17853212 -0.004213579 0
-0.0099999933 -0.17846303 -0.0014790426 0
-0.010000006 -0.17875174 0.0015983157 0
-0.010000017 -0.17872517 0.0046397513 0
-0.010000025 -0.1785419 0.0074933218 0
-0.0097194929 -0.17810678 0.0098002451 0
-0.0072542112 -0.17866132 -0.0099993786 0
-0.007583478 -0.1785076 0.010000618 0
-0.0044146902 -0.17845897 -0.0099993674 0
-0.0044483617 -0.17870264 0.010000629 0
-0.0013241944 -0.17849264 -0.0099993553 0
-0.0014946708 -0.17873934 0.010000642 0
0.001439083 -0.17846893 -0.0099993469 0
0.0014450046 -0.17881106 0.010000651 0
0.0044480013 -0.17860384 -0.0099993376 0
0.0045004357 -0.17848033 0.01000066 0
0.0074860123 -0.17875667 -0.0099993227 0
0.0075610648 -0.17828855 0.01000067 0
0.0098588159 -0.1783635 -0.0097051719 0
0.010000024 -0.17833968 -0.0075258021 0
0.010000014 -0.17851391 -0.0047513442 0
0.010000004 -0.17845008 -0.001612742 0
0.0099999933 -0.17835349 0.0016146305 0
0.0099999839 -0.17864043 0.0047047203 0
0.00999997 -0.17850679 0.0074667572 0
0.0097300466 -0.17866114 0.0097074993 0
0.086852923 -0.17964137 -0.009505365 0
0.086849675 -0.17965113 -0.0077110939 0
0.086863309 -0.17961015 -0.0042827153 0
0.086858593 -0.17962429 -0.0017992517 0
0.086831152 -0.17970657 0.0019074674 0
0.086865619 -0.17960313 0.0040200572 0
0.086825609 -0.17972305 0.0072147544 0
0.086844765 -0.17966557 0.009481227 0
0.088422224 -0.17854443 -0.0099087013 0
0.087359898 -0.17812046 -0.0073030996 0
0.087377675 -0.17806706 -0.0045614433 0
0.087373562 -0.17807935 -0.0015572058 0
0.087446533 -0.17786033 0.00141166 0
0.087397128 -0.17800857 0.0043848958 0
0.087436862 -0.1778893 0.0076328586 0
0.088410094 -0.17835632 0.0099321138 0
0.090000048 -0.1782507 -0.0095323455 0
0.090000048 -0.17834273 -0.0075703906 0
0.089999996 -0.17843594 -0.004615502 0
0.089999989 -0.17831384 -0.0013802499 0
0.090000004 -0.17865089 0.0011982166 0
0.089999996 -0.17872155 0.004575952 0
0.089999981 -0.17835532 0.0077537685 0
0.089999966 -0.1782086 0.0093488321 0
-0.0098225009 -0.17530908 -0.0096929325 0
-0.0099999718 -0.17577912 -0.0077328803 0
-0.0099999839 -0.17548256 -0.0046741664 0
-0.0099999951 -0.17550732 -0.0013065807 0
-0.010000005 -0.17565289 0.0014961159 0
-0.010000016 -0.17555031 0.0046637692 0
-0.010000029 -0.17562839 0.0076105716 0
-0.0097399727 -0.17588079 0.0097952439 0
-0.007622045 -0.17514321 -0.0099993944 0
-0.0073485617 -0.17560323 0.010000609 0
-0.0045256405 -0.17549151 -0.0099993777 0
-0.0042943629 -0.17567836 0.010000619 0
-0.0011167547 -0.17541315 -0.0099993693 0
-0.0016901246 -0.17543325 0.010000628 0
0.0011808153 -0.17561851 -0.0099993581 0
0.0018569209 -0.17554545 0.010000641 0
0.0045799441 -0.17560846 -0.0099993469 0
0.0046311892 -0.17520325 0.010000649 0
0.007450907 -0.17557713 -0.0099993367 0
0.0074955467 -0.1755283 0.010000663 0
0.0097749177 -0.17564327 -0.0096380524 0
0.010000029 -0.17558222 -0.007879965 0
0.010000017 -0.17537582 -0.0044755051 0
0.010000004 -0.17520435 -0.0014647485 0
0.0099999923 -0.17564 0.0016406411 0
0.0099999812 -0.17549914 0.004622397 0
0.0099999728 -0.17579509 0.0076710386 0
0.0097375223 -0.1756029 0.0097595993 0
0.08881107 -0.17559941 -0.0097529152 0
0.088276207 -0.17537148 -0.0076310881 0
0.088212781 -0.17556173 -0.0043665189 0
0.088238388 -0.17548491 -0.0016916785 0
0.088276125 -0.17537163 0.0014229553 0
0.088323548 -0.17522931 0.0046993769 0
0.088248424 -0.17545463 0.0073621003 0
0.088775583 -0.17567073 0.0097600333 0
0.090000056 -0.17556088 -0.0095761837 0
0.090000011 -0.17534985 -0.0077157929 0
0.089999996 -0.17561616 -0.0045637107 0
0.090000011 -0.17566776 -0.0013709567 0
0.089999974 -0.17541996 0.0014672303 0
0.089999989 -0.17553584 0.0045077312 0
0.089999944 -0.17534421 0.0077323802 0
0.089999974 -0.17535299 0.0095265638 0
-0.0096663758 -0.1726044 -0.0098055089 0
-0.0099999709 -0.17260645 -0.0075690704 0
-0.0099999802 -0.17242515 -0.0046877828 0
-0.0099999905 -0.17251019 -0.0016451459 0
-0.010000003 -0.17236151 0.0013331256 0
-0.010000017 -0.17262383 0.0044220127 0
-0.010000026 -0.1724609 0.0074482695 0
-0.0097882943 -0.17238387 0.0097501623 0
-0.0075574825 -0.17256102 -0.0099994028 0
-0.0076363659 -0.1723763 0.010000594 0
-0.0042208321 -0.17234895 -0.0099993907 0
-0.0045229704 -0.1726348 0.010000606 0
-0.0013261981 -0.17247981 -0.0099993814 0
-0.0014583902 -0.17229888 0.010000617 0
0.001438753 -0.17235023 -0.0099993693 0
0.001592012 -0.17250407 0.010000627 0
0.0047020721 -0.17237328 -0.0099993581 0
0.0042831502 -0.17277652 0.010000641 0
0.0074113319 -0.17249256 -0.0099993469 0
0.0075833444 -0.17234315 0.010000651 0
0.0098082069 -0.17240232 -0.0096969074 0
0.010000026 -0.17218816 -0.007676119 0
0.010000014 -0.17261432 -0.0044321408 0
0.010000003 -0.17227878 -0.0014415978 0
0.0099999933 -0.17242412 0.0014713319 0
0.009999983 -0.17260724 0.0042029093 0
0.0099999709 -0.1724993 0.0073844506 0
0.0097752633 -0.17259049 0.0095587391 0
0.089267381 -0.17278962 -0.0095986687 0
0.089199774 -0.17260082 -0.0075683785 0
0.089298777 -0.17230378 -0.0044789524 0
0.089229323 -0.17251211 -0.0013571646 0
0.089185126 -0.17264463 0.0016387549 0
0.089160256 -0.1727192 0.0046522222 0
0.089324623 -0.17222603 0.0076892893 0
0.089284107 -0.17270674 0.0096708192 0
0.090000041 -0.17279936 -0.0093131531 0
0.090000011 -0.17268568 -0.0074095717 0
0.090000011 -0.17282903 -0.0046050427 0
0.089999989 -0.17263292 -0.0015850331 0
0.089999959 -0.17236471 0.0013996058 0
0.089999974 -0.17263873 0.0043932367 0
0.089999996 -0.17262287 0.0075159017 0
0.089999974 -0.17256095 0.0093885558 0
-0.0097609041 -0.16945341 -0.0098163569 0
-0.0099999728 -0.16939792 -0.007671474 0
-0.009999983 -0.16956332 -0.0044009471 0
-0.0099999942 -0.1694832 -0.001527918 0
-0.010000005 -0.1694887 0.0014068588 0
-0.010000013 -0.16946404 0.0044592996 0
-0.010000028 -0.16918701 0.0075964979 0
-0.0098175248 -0.1695012 0.0097213276 0
-0.0074856225 -0.1693562 -0.0099994149 0
-0.0074921399 -0.16972935 0.010000588 0
-0.0045758933 -0.16952834 -0.0099994019 0
-0.0046108882 -0.16931574 0.010000596 0
-0.0016918234 -0.16979633 -0.0099993935 0
-0.0011526768 -0.16955043 0.010000608 0
0.0014781866 -0.16931739 -0.0099993823 0
0.001442894 -0.16927224 0.01000062 0
0.0045113675 -0.16948819 -0.0099993702 0
0.0045884047 -0.16972424 0.010000628 0
0.0074574924 -0.16926484 -0.00999936 0
0.0075743897 -0.16977917 0.010000641 0
0.009736795 -0.1694532 -0.009752796 0
0.010000024 -0.16958551 -0.0075098989 0
0.010000016 -0.16945621 -0.0046249866 0
0.010000004 -0.16952857 -0.0014624347 0
0.0099999905 -0.16965134 0.0016898362 0
0.0099999858 -0.16901153 0.0042177211 0
0.0099999718 -0.16973341 0.00729767 0
0.0097761378 -0.16961427 0.0095859757 0
0.089879185 -0.17066193 -0.0097571174 0
0.089839429 -0.17068185 -0.0074088797 0
0.08986938 -0.17059192 -0.0040846746 0
0.089829199 -0.17071241 -0.0012579433 0
0.089863732 -0.1706088 0.0011361054 0
0.089863248 -0.17061025 0.0045727054 0
0.089841977 -0.170674 0.007549007 0
0.089900285 -0.17049901 0.0094268452 0
0.090000041 -0.17060851 -0.0095172599 0
0.090000026 -0.17047526 -0.0068917861 0
0.090000018 -0.17055005 -0.0041632159 0
0.090000026 -0.17063613 -0.0012761403 0
0.089999996 -0.17056696 0.0014920933 0
0.089999989 -0.17066284 0.0047882306 0
0.089999981 -0.17062733 0.0078168456 0
0.089999966 -0.17094418 0.0097196139 0
-0.0097804898 -0.16648787 -0.009708263 0
-0.0099999709 -0.16634387 -0.0076563591 0
-0.0099999821 -0.16618538 -0.0047161877 0
-0.0099999923 -0.1664921 -0.0016297761 0
-0.010000005 -0.16619645 0.0016173224 0
-0.010000016 -0.16653425 0.0043336214 0
-0.010000028 -0.16683559 0.007559719 0
-0.0097139562 -0.16652395 0.0098161148 0
-0.0074678962 -0.16636604 -0.0099994214 0
-0.0076525616 -0.16642334 0.010000572 0
-0.0041443445 -0.16642204 -0.0099994112 0
-0.0046278038 -0.16635078 0.010000585 0
-0.00142373 -0.16672643 -0.0099994009 0
-0.0015058131 -0.166324 0.010000596 0
0.0016667575 -0.16648284 -0.0099993898 0
0.0012688213 -0.16633995 0.010000606 0
0.004318512 -0.16659456 -0.0099993804 0
0.0043203561 -0.16653341 0.010000619 0
0.0074653542 -0.1665469 -0.0099993683 0
0.0077982745 -0.16626257 0.01000063 0
0.0098868161 -0.16637675 -0.009577292 0
0.010000029 -0.1662665 -0.0074774404 0
0.010000017 -0.16663912 -0.0047882507 0
0.010000004 -0.16639905 -0.0016494929 0
0.0099999951 -0.16606727 0.0014868516 0
0.0099999839 -0.16654423 0.0044767722 0
0.0099999737 -0.16640545 0.0075217565 0
0.0095664514 -0.16634579 0.0098091373 0
-0.0096581178 -0.16354042 -0.0098151369 0
-0.0099999718 -0.16349013 -0.0075819595 0
-0.009999983 -0.16328876 -0.004474069 0
-0.0099999923 -0.16359816 -0.0014332071 0
-0.010000004 -0.16348954 0.0016063474 0
-0.010000017 -0.16339813 0.0045183669 0
-0.010000026 -0.1633324 0.0076958691 0
-0.009766777 -0.16336891 0.0097508887 0
-0.0073962002 -0.16366361 -0.0099994335 0
-0.0074409661 -0.16372304 0.010000563 0
-0.0043159383 -0.16342531 -0.0099994252 0
-0.0046155537 -0.1634154 0.010000573 0
-0.0013144374 -0.16322953 -0.0099994149 0
-0.0015705477 -0.16343275 0.010000585 0
0.0015564297 -0.16335528 -0.0099994009 0
0.0016893697 -0.16347663 0.010000599 0
0.0044106338 -0.16346663 -0.0099993916 0
0.0045011537 -0.16351219 0.010000606 0
0.0075739529 -0.16322151 -0.0099993804 0
0.0075208982 -0.1634285 0.010000619 0
0.0097683091 -0.16359583 -0.0097371107 0
0.010000026 -0.16332735 -0.0075727711 0
0.010000017 -0.1633542 -0.0043499144 0
0.010000007 -0.16362168 -0.0017370272 0
0.0099999905 -0.16330175 0.0014958277 0
0.009999983 -0.16349134 0.0044929255 0
0.0099999746 -0.16337475 0.007143734 0
0.0096290968 -0.16333371 0.0099357069 0
-0.0098782675 -0.16052122 -0.0096676033 0
-0.0099999728 -0.16073927 -0.0071837641 0
-0.009999983 -0.16049279 -0.0046356623 0
-0.0099999951 -0.16019616 -0.0015753426 0
-0.010000004 -0.16058995 0.0016686964 0
-0.010000015 -0.16036116 0.0043711294 0
-0.010000027 -0.16050567 0.0075357282 0
-0.0098744361 -0.16065207 0.0096951593 0
-0.0075698858 -0.16076595 -0.0099994438 0
-0.0074208709 -0.16062753 0.010000555 0
-0.0047424799 -0.16043566 -0.0099994373 0
-0.0045197317 -0.16062646 0.010000565 0
-0.0015006894 -0.16048095 -0.0099994224 0
-0.0015907985 -0.16040695 0.010000573 0
0.0015238117 -0.16018176 -0.009999414 0
0.0015195149 -0.16050796 0.010000586 0
0.0047815363 -0.16062638 -0.0099994009 0
0.0046016076 -0.16037115 0.010000596 0
0.0074902037 -0.16034733 -0.0099993935 0
0.0076404661 -0.16045447 0.010000607 0
0.0097909793 -0.16079631 -0.0097064748 0
0.010000024 -0.16066456 -0.007495909 0
0.010000017 -0.16053754 -0.0047160708 0
0.010000004 -0.1608851 -0.0013894854 0
0.0099999905 -0.16049953 0.0017065004 0
0.0099999821 -0.16047388 0.0043557971 0
0.009999969 -0.16049175 0.0077722822 0
0.0095973676 -0.16062768 0.0098688686 0
-0.0098169409 -0.15731902 -0.0096836705 0
-0.0099999728 -0.15767218 -0.0076719201 0
-0.0099999821 -0.15756674 -0.0044150515 0
-0.0099999933 -0.15733723 -0.0014597424 0
-0.010000006 -0.1572233 0.0016683512 0
-0.010000017 -0.15708479 0.004445957 0
-0.010000026 -0.15743396 0.0074581197 0
-0.0098651769 -0.15741134 0.0097244876 0
-0.0074633993 -0.15764965 -0.0099994559 0
-0.0076584434 -0.15738578 0.010000539 0
-0.0043299734 -0.15745032 -0.0099994438 0
-0.0045883018 -0.15749161 0.010000554 0
-0.00158974 -0.15773878 -0.0099994345 0
-0.0017310977 -0.15747221 0.010000562 0
0.0017771032 -0.15749401 -0.0099994233 0
0.0014706968 -0.15746444 0.010000574 0
0.00429053 -0.15710402 -0.0099994158 0
0.0044437833 -0.1574336 0.010000585 0
0.0076910132 -0.15756163 -0.0099994037 0
0.0075751478 -0.1575125 0.010000596 0
0.0096938852 -0.15786009 -0.0097940722 0
0.010000027 -0.15757315 -0.0075637875 0
0.010000015 -0.15768096 -0.0041721002 0
0.010000003 -0.15767106 -0.0013893566 0
0.0099999914 -0.1574908 0.0014424052 0
0.0099999867 -0.15724102 0.004116457 0
0.00999997 -0.15753256 0.0073543927 0
0.0098206531 -0.15743236 0.0096833948 0
-0.0098153576 -0.15461184 -0.0096814372 0
-0.0099999709 -0.15458773 -0.0076741576 0
-0.0099999839 -0.15430884 -0.0047177076 0
-0.0099999923 -0.15445808 -0.0015690557 0
-0.010000007 -0.15434849 0.0015199123 0
-0.010000016 -0.15454592 0.0047281403 0
-0.010000025 -0.1543927 0.0074199149 0
-0.0097830473 -0.15462917 0.0098038772 0
-0.0075574093 -0.1545599 -0.0099994643 0
-0.0074663362 -0.15453292 0.010000531 0
-0.0042145099 -0.15435585 -0.0099994522 0
-0.0047007659 -0.15440702 0.010000544 0
-0.0014550517 -0.154458 -0.0099994456 0
-0.001300105 -0.15451464 0.010000556 0
0.0017050212 -0.15450795 -0.0099994345 0
0.0016406556 -0.15455976 0.010000564 0
0.0046476303 -0.15474522 -0.0099994242 0
0.0047721439 -0.15434428 0.010000577 0
0.0074860002 -0.15441471 -0.0099994149 0
0.0073978491 -0.15443739 0.010000587 0
0.009881326 -0.15419835 -0.0097056115 0
0.010000028 -0.15441494 -0.0075668027 0
0.010000016 -0.15479596 -0.0046029063 0
0.010000003 -0.1547896 -0.0015337362 0
0.0099999942 -0.15457892 0.0013970284 0
0.009999983 -0.15467481 0.0046018981 0
0.0099999718 -0.15449063 0.0074665262 0
0.0098456386 -0.15468585 0.0096616764 0
-0.0097332234 -0.15131539 -0.0097784111 0
-0.0099999709 -0.15154691 -0.0074983789 0
-0.0099999802 -0.15155317 -0.0046146777 0
-0.0099999942 -0.15153144 -0.0014850774 0
-0.010000004 -0.15153384 0.0014422286 0
-0.010000018 -0.15128076 0.0046875132 0
-0.010000025 -0.15173286 0.0074848356 0
-0.0097248927 -0.15163346 0.0097046327 0
-0.0074632592 -0.15159515 -0.0099994782 0
-0.0074894689 -0.15152182 0.010000519 0
-0.0045708027 -0.15136053 -0.0099994661 0
-0.0044510011 -0.15160049 0.010000531 0
-0.0015206872 -0.15174556 -0.009999455 0
-0.0015169152 -0.15135103 0.010000541 0
0.0013192785 -0.15147305 -0.0099994447 0
0.0012065192 -0.15154128 0.010000554 0
0.0043418654 -0.15124804 -0.0099994363 0
0.0047116801 -0.15143454 0.010000565 0
0.0077721369 -0.1515684 -0.0099994242 0
0.0073307808 -0.15159099 0.010000574 0
0.0097375223 -0.15151 -0.0097692255 0
0.010000028 -0.15155275 -0.0077167754 0
0.010000015 -0.15146677 -0.0046675047 0
0.010000006 -0.15121613 -0.0015425389 0
0.0099999923 -0.15170197 0.0016274619 0
0.0099999821 -0.15176088 0.0043663946 0
0.0099999718 -0.15170389 0.0075603952 0
0.009769598 -0.15193781 0.009706608 0
-0.009806104 -0.14865974 -0.0097068073 0
-0.0099999709 -0.14863472 -0.0075884988 0
-0.0099999849 -0.14871289 -0.0045593712 0
-0.0099999923 -0.14865194 -0.0016951998 0
-0.010000004 -0.14848033 0.0014234399 0
-0.010000013 -0.1486578 0.004490192 0
-0.010000025 -0.14839351 0.0071744137 0
-0.0097815311 -0.14866507 0.0097160079 0
-0.0074685835 -0.14852194 -0.0099994885 0
-0.0075321202 -0.14848399 0.010000507 0
-0.0044579557 -0.14841902 -0.0099994773 0
-0.0042905612 -0.14832811 0.010000521 0
-0.0014739926 -0.14865823 -0.009999468 0
-0.001659831 -0.14851066 0.01000053 0
0.001483321 -0.14835624 -0.009999454 0
0.0013831822 -0.14883406 0.010000545 0
0.0047290707 -0.14858297 -0.0099994438 0
0.0041546798 -0.14872192 0.010000552 0
0.0075384891 -0.1486232 -0.0099994363 0
0.0075722351 -0.14853726 0.010000562 0
0.0098149953 -0.14847939 -0.0097126458 0
0.010000027 -0.14882107 -0.0073323767 0
0.010000017 -0.14841056 -0.0044249259 0
0.010000005 -0.14830871 -0.0017006142 0
0.0099999933 -0.14834478 0.0016022433 0
0.009999983 -0.14889747 0.0047341906 0
0.009999969 -0.14839062 0.0077376114 0
0.0098424135 -0.14818521 0.0097378809 0
-0.0095788063 -0.14571619 -0.0098399762 0
-0.0099999718 -0.14557898 -0.0073829857 0
-0.0099999849 -0.14519733 -0.0046581733 0
-0.0099999933 -0.14554106 -0.0015262408 0
-0.010000004 -0.1457089 0.0016212169 0
-0.010000014 -0.14543991 0.0044103595 0
-0.010000026 -0.14556876 0.0076861437 0
-0.0097204167 -0.14569479 0.0097418902 0
-0.0074435151 -0.14548303 -0.0099994997 0
-0.0075324136 -0.14569966 0.010000501 0
-0.0042699389 -0.14562972 -0.0099994875 0
-0.0044801915 -0.14553079 0.01000051 0
-0.0015788514 -0.14539415 -0.0099994801 0
-0.0016187307 -0.14546128 0.01000052 0
0.0016216733 -0.14540541 -0.0099994689 0
0.0016147689 -0.14541164 0.010000532 0
0.0044147749 -0.14548376 -0.0099994568 0
0.0043165665 -0.14549853 0.010000542 0
0.0074165156 -0.14557791 -0.0099994428 0
0.0074528684 -0.14547829 0.01000055 0
0.009714881 -0.14564481 -0.0097705564 0
0.010000026 -0.14556192 -0.0076578795 0
0.010000013 -0.14542261 -0.0044795461 0
0.010000008 -0.14567833 -0.0017481756 0
0.0099999923 -0.14571816 0.0016757904 0
0.0099999821 -0.14592229 0.0044702105 0
0.009999969 -0.14558648 0.0074122371 0
0.0097832717 -0.14549279 0.0097636208 0
-0.0097107841 -0.14236937 -0.009752254 0
-0.0099999746 -0.14240813 -0.0075397929 0
-0.0099999812 -0.14243916 -0.0046902616 0
-0.0099999914 -0.142546 -0.0015047867 0
-0.010000004 -0.14258328 0.0017296918 0
-0.010000017 -0.14258732 0.0046321671 0
-0.010000029 -0.142479 0.0078378292 0
-0.0097587109 -0.14257643 0.0097026192 0
-0.0077074026 -0.14222975 -0.0099995118 0
-0.0077604866 -0.14246324 0.010000487 0
-0.004542795 -0.14255787 -0.0099994987 0
-0.0048135738 -0.14248213 0.0100005 0
-0.0018397848 -0.14249362 -0.0099994885 0
-0.0015639598 -0.14289495 0.01000051 0
0.001473109 -0.14241435 -0.0099994792 0
0.0014273751 -0.14234726 0.010000519 0
0.004298999 -0.14237987 -0.0099994689 0
0.0047687292 -0.14259404 0.010000532 0
0.0075070783 -0.14253108 -0.0099994577 0
0.0075093918 -0.14246657 0.010000542 0
0.0097331423 -0.14228544 -0.0097516067 0
0.010000025 -0.14241108 -0.0076164226 0
0.010000017 -0.14259839 -0.0043387329 0
0.010000005 -0.14235607 -0.0013642762 0
0.0099999914 -0.14244083 0.0016436581 0
0.0099999821 -0.14230402 0.0043334654 0
0.0099999709 -0.14241301 0.0075553083 0
0.0096452376 -0.14263888 0.0098150102 0
-0.0096223196 -0.13955094 -0.0098646786 0
-0.0099999737 -0.13937785 -0.0074473801 0
-0.0099999839 -0.13925783 -0.0045565222 0
-0.0099999961 -0.13946648 -0.001233892 0
-0.010000004 -0.1397054 0.0014183038 0
-0.010000017 -0.13975193 0.0043903003 0
-0.010000028 -0.13955428 0.0075970874 0
-0.0097867101 -0.13941304 0.0096709514 0
-0.0076897345 -0.13964431 -0.0099995211 0
-0.007677136 -0.13964286 0.010000478 0
