# .PCD v0.7 - Point Cloud Data file format
VERSION 0.7
FIELDS x y z rgb
SIZE 4 4 4 4
TYPE F F F F
COUNT 1 1 1 1
WIDTH 1178
HEIGHT 1
VIEWPOINT 0 0 0 1 0 0 0
POINTS 1178
DATA ascii
0.0045433757 -0.18735959 -0.0059307548 0
0.006000007 -0.18755792 -0.002080967 0
0.0053727832 -0.18781993 0.0060006995 0
0.0041260202 -0.18751636 0.006000693 0
0.006000015 -0.18743017 -0.004508134 0
0.0060000056 -0.18754835 -0.0013963879 0
0.0059999935 -0.18767071 0.0013980658 0
0.0059999819 -0.18744257 0.0046700649 0
0.090862073 -0.18719755 -0.0045763254 0
0.089999981 -0.18757923 -0.0014290095 0
0.089999959 -0.18771285 0.001418525 0
0.090887323 -0.18727674 0.0045780735 0
0.094475888 -0.18734802 -0.0049989787 0
0.094689459 -0.18745832 0.0050010202 0
0.097315051 -0.18742277 -0.0049989671 0
0.097334169 -0.18754607 0.0050010299 0
0.099836364 -0.18751322 -0.0043593519 0
0.099999972 -0.18730471 -0.0013244946 0
0.099999957 -0.18758652 0.0013411457 0
0.099815466 -0.18730003 0.004361805 0
-0.005999987 -0.18445598 -0.0037524418 0
-0.0059999963 -0.18537095 -0.0011333181 0
-0.0052490304 -0.18468037 -0.0052945893 0
-0.0059999921 -0.18446539 -0.0018219764 0
-0.0060000042 -0.18464406 0.001502652 0
-0.0060000154 -0.18482171 0.0044960119 0
-0.0042248815 -0.18454614 0.006000652 0
-0.0014839442 -0.18481649 -0.005999336 0
-0.0013576064 -0.18458873 0.0060006618 0
0.0015444695 -0.18456739 -0.0059993248 0
0.0019381811 -0.18332113 0.0060006701 0
0.0017354226 -0.18439066 0.0060006725 0
0.0040095737 -0.18540549 -0.0059993151 0
0.004610131 -0.18432592 -0.0058169621 0
0.0060000094 -0.18555768 -0.0026652617 0
0.0044780197 -0.18358403 0.0060006804 0
0.0045385286 -0.18458296 0.0060006832 0
0.0060000154 -0.18456773 -0.0046055936 0
0.0060000033 -0.18454997 -0.00129681 0
0.0059999949 -0.18453033 0.0014528055 0
0.0059999828 -0.18440664 0.0043568462 0
0.091007225 -0.18440893 -0.0045327465 0
0.090000018 -0.18440904 -0.0013753149 0
0.089999966 -0.18461865 0.0014442148 0
0.090982914 -0.1843081 0.004595906 0
0.094433658 -0.18463053 -0.0049989894 0
0.094381958 -0.18452092 0.005001008 0
0.097427852 -0.18478729 -0.0049989773 0
0.0978515 -0.18454561 0.0050010211 0
0.099825725 -0.18456602 -0.0043337923 0
0.099999964 -0.18437614 -0.0014932881 0
0.099999964 -0.184595 0.001418882 0
0.099888444 -0.18394049 0.0043805377 0
-0.0059999852 -0.18194096 -0.0042934525 0
-0.005999994 -0.182431 -0.0017976325 0
-0.0060000014 -0.18102241 0.00021932814 0
-0.0050489255 -0.18133707 -0.0054541375 0
-0.0059999931 -0.18123274 -0.0015167182 0
-0.0060000052 -0.18182926 0.0016105185 0
-0.0060000145 -0.1814744 0.0043505845 0
-0.0044480418 -0.18157955 0.0060006399 0
-0.001509777 -0.18157142 -0.0059993467 0
-0.0015372507 -0.18151511 0.0060006496 0
0.0017874616 -0.18147182 -0.0059993351 0
0.0015027327 -0.18152134 0.0060006613 0
0.0040285359 -0.18086596 -0.0059993314 0
0.0044605983 -0.18160273 -0.0059627309 0
0.0060000103 -0.1810652 -0.0029528053 0
0.0044414597 -0.18150024 0.006000672 0
0.006000015 -0.18142022 -0.0044401111 0
0.0060000042 -0.18145074 -0.0014989779 0
0.0059999926 -0.18115169 0.0016291846 0
0.0059999828 -0.18178399 0.0043658805 0
0.090849563 -0.18133017 -0.0045715356 0
0.089999996 -0.18133458 -0.001632311 0
0.089999981 -0.1817527 0.0014508757 0
0.090790369 -0.18132904 0.0045005353 0
0.094759107 -0.18150668 -0.0049990001 0
0.094355911 -0.18171042 0.0050009992 0
0.097499073 -0.18125339 -0.0049989899 0
0.09755826 -0.18183443 0.0050010108 0
0.099780716 -0.18169631 -0.0044144164 0
0.099999964 -0.18146123 -0.0015243083 0
0.099999964 -0.18151191 0.0016540528 0
0.099805705 -0.18153839 0.0043806359 0
-0.0059999856 -0.1789756 -0.0040532639 0
-0.0059999931 -0.17904226 -0.0020197139 0
-0.0060000019 -0.17760797 0.00034862783 0
-0.0053735753 -0.1785769 -0.0052044629 0
-0.0059999954 -0.17863964 -0.0014309783 0
-0.0060000038 -0.17877403 0.0015702528 0
-0.0060000154 -0.17853923 0.0044130487 0
-0.0043855221 -0.17852394 0.0060006292 0
-0.0013711674 -0.17840308 -0.0059993579 0
-0.0016533098 -0.17861108 0.0060006389 0
0.0018766682 -0.17885643 -0.0059993463 0
0.0010996758 -0.17843826 -0.0059993486 0
0.0010831618 -0.17927681 0.0060006524 0
0.0015767529 -0.17838925 0.0060006501 0
0.0049794391 -0.1786698 -0.0059993356 0
0.0043272376 -0.17838469 -0.0059332787 0
0.0060000075 -0.17780297 -0.0022231091 0
0.0032122938 -0.17773595 0.0060006548 0
0.0045439769 -0.17831583 0.0060006608 0
0.0060000154 -0.17845115 -0.0046586315 0
0.0060000038 -0.17850654 -0.0014392382 0
0.0059999926 -0.17867863 0.0016375604 0
0.0059999828 -0.17853123 0.0043339948 0
0.090930074 -0.17850322 -0.0045597069 0
0.090000011 -0.17843823 -0.0014319755 0
0.089999981 -0.17846483 0.0012381369 0
0.091038696 -0.17838174 0.0046499926 0
0.09452337 -0.17853931 -0.0049990099 0
0.094393641 -0.17874655 0.0050009871 0
0.097465552 -0.17832376 -0.0049990001 0
0.097624987 -0.17842312 0.0050009997 0
0.099855602 -0.17871353 -0.0044591594 0
0.099999979 -0.17830981 -0.0014842962 0
0.099999957 -0.1787131 0.0016451456 0
0.099874169 -0.17878738 0.004303318 0
-0.0059999861 -0.17464146 -0.0039628041 0
-0.0059999907 -0.17686889 -0.0027044157 0
-0.0053124004 -0.17562538 -0.0051690093 0
-0.005999994 -0.17529429 -0.0013478771 0
-0.0060000047 -0.1753401 0.0016400871 0
-0.0060000145 -0.1754597 0.0044157659 0
-0.0046448396 -0.17541285 0.0060006198 0
-0.0014410109 -0.17541915 -0.0059993691 0
-0.0013634464 -0.17552538 0.0060006292 0
0.00039117463 -0.1746067 -0.0059993672 0
0.001449761 -0.17585512 -0.0059993574 0
0.0014599558 -0.17473543 0.0060006371 0
0.0014338531 -0.17557225 0.0060006394 0
0.0053248522 -0.17592756 -0.0059993444 0
0.0043245303 -0.17558193 -0.0059014014 0
0.0050211456 -0.17616855 0.0060006557 0
0.0043752678 -0.17564948 0.0060006501 0
0.006000015 -0.17556454 -0.0044791712 0
0.0060000047 -0.17558329 -0.00149164 0
0.0059999949 -0.17569183 0.0015396348 0
0.0059999833 -0.17576632 0.0042932238 0
0.090875499 -0.17559156 -0.0044911583 0
0.089999989 -0.17561419 -0.0017001857 0
0.089999959 -0.17535929 0.0014017108 0
0.090829216 -0.17562151 0.0045210002 0
0.094411373 -0.17546119 -0.004999022 0
0.094360478 -0.17553629 0.0050009759 0
0.097590268 -0.17547877 -0.0049990094 0
0.097644612 -0.17540117 0.0050009876 0
0.099784441 -0.17543672 -0.0041792975 0
0.099999972 -0.17566316 -0.0015892799 0
0.099999957 -0.17562163 0.0016066444 0
0.099845052 -0.17581078 0.0043567391 0
-0.0052136192 -0.17242262 -0.00527373 0
-0.0059999926 -0.17246047 -0.0015869589 0
-0.0060000038 -0.17255925 0.0015145232 0
-0.0060000154 -0.17292796 0.0046429075 0
-0.0042518964 -0.17259495 0.0060006082 0
-0.00060618849 -0.17107046 -0.0059993835 0
-0.0014836362 -0.17261827 -0.0059993793 0
-0.001598803 -0.17255205 0.0060006185 0
0.0015384408 -0.17218758 -0.0059993695 0
0.001403606 -0.17258963 0.0060006287 0
0.0045638941 -0.17237367 -0.0059557124 0
0.0060000066 -0.17290334 -0.0019167643 0
0.0045913458 -0.17252466 0.0060006399 0
0.0060000164 -0.1723665 -0.0047108214 0
0.0060000047 -0.17242903 -0.0017127774 0
0.0059999959 -0.17254229 0.0013336238 0
0.0059999824 -0.17256065 0.0044407351 0
0.090897448 -0.17256893 -0.0045412984 0
0.090000004 -0.17278206 -0.0015000314 0
0.089999966 -0.1726657 0.0014322929 0
0.090897672 -0.1726433 0.0046526701 0
0.094570532 -0.17243348 -0.0049990332 0
0.094571739 -0.17235088 0.0050009652 0
0.097367473 -0.17272924 -0.0049990211 0
0.097321346 -0.17258452 0.0050009759 0
0.099792868 -0.17200504 -0.0042767525 0
0.099999972 -0.17244534 -0.0013753014 0
0.099999942 -0.17234561 0.0014058815 0
0.099824853 -0.17260787 0.0043485458 0
-0.0052769324 -0.16959681 -0.00517795 0
-0.005999994 -0.16952062 -0.0013024646 0
-0.0060000066 -0.16954982 0.0014720409 0
-0.0060000154 -0.1694577 0.0046846475 0
-0.0045370418 -0.16941507 0.0060005956 0
-0.0014599864 -0.16961789 -0.0059993896 0
-0.0013468155 -0.16966102 0.0060006082 0
0.001581699 -0.16962455 -0.0059993789 0
0.0012383336 -0.17007945 0.0060006198 0
0.001110625 -0.16951223 0.0060006161 0
0.0046454794 -0.16942008 -0.0059261732 0
0.0049831513 -0.16956981 0.0060006315 0
0.0042918073 -0.16951817 0.0060006287 0
0.0060000145 -0.1695506 -0.0043434198 0
0.0060000042 -0.16956866 -0.0015176402 0
0.0059999926 -0.16978247 0.0016235998 0
0.0059999828 -0.16941383 0.0043668956 0
0.090812303 -0.16945034 -0.004467004 0
0.090000004 -0.16969307 -0.001420357 0
0.089999981 -0.16935536 0.001470833 0
0.09080448 -0.16942418 0.0046349661 0
0.094515152 -0.16927455 -0.0049990439 0
0.094659053 -0.16957194 0.0050009559 0
0.097748309 -0.16953458 -0.0049990308 0
0.097283348 -0.16945288 0.0050009638 0
0.099874564 -0.16944481 -0.0042286385 0
0.099999972 -0.1692058 -0.0013091001 0
0.099999949 -0.16960756 0.001300276 0
0.099873282 -0.16917452 0.0042460668 0
-0.0059999959 -0.16793194 -0.0013236244 0
-0.0054509155 -0.16638173 -0.0052581844 0
-0.0059999931 -0.16643381 -0.0014354963 0
-0.0060000042 -0.16605435 0.0015407203 0
-0.006000015 -0.16671656 0.0045029963 0
-0.0044205282 -0.16666828 0.0060005873 0
-0.0013706221 -0.16652638 -0.0059994007 0
-0.0016911644 -0.1665301 0.0060005956 0
0.0016351849 -0.16638973 -0.0059993905 0
0.0018381729 -0.16515145 0.006000604 0
0.0014534848 -0.16645277 0.0060006063 0
0.0044632819 -0.16650806 -0.0059709507 0
0.0060000042 -0.1656701 -0.0013127901 0
0.0038338022 -0.16669005 0.0060006171 0
0.0045801033 -0.16679102 0.0060006194 0
0.0060000154 -0.16642976 -0.00459135 0
0.0060000033 -0.16641827 -0.0013013381 0
0.0059999931 -0.16625039 0.0013659924 0
0.0059999828 -0.16646856 0.0043594409 0
0.090858787 -0.1664028 -0.0046417289 0
0.089999981 -0.16656525 -0.001594605 0
0.089999966 -0.16662809 0.0017417322 0
0.090939507 -0.16637021 0.0046510878 0
0.094177075 -0.16634753 -0.0049990555 0
0.094720893 -0.1665587 0.0050009442 0
0.097600818 -0.16636266 -0.0049990434 0
0.097640961 -0.16635008 0.005000954 0
0.099863276 -0.16650368 -0.0042632623 0
0.099999964 -0.16657951 -0.0016241381 0
0.099999957 -0.16648488 0.0013818602 0
0.099902555 -0.16667135 0.0042616636 0
-0.0060000014 -0.16219907 0.00028162697 0
-0.0052354382 -0.16331382 -0.0052344976 0
-0.0059999935 -0.16345286 -0.0015912142 0
-0.0060000038 -0.16363148 0.0014535064 0
-0.006000015 -0.16316305 0.0045030019 0
-0.0046387427 -0.16358295 0.0060005737 0
-0.001340637 -0.16351122 -0.0059994115 0
-0.00081477716 -0.16490756 0.0060005938 0
-0.0013252218 -0.16347006 0.0060005859 0
0.0018367178 -0.16294591 -0.005999404 0
0.001568923 -0.16350982 -0.0059994012 0
0.0012882246 -0.16353254 0.0060005952 0
0.0045230091 -0.16319574 -0.0059563941 0
0.0060000001 -0.16369873 -0.00017906413 0
0.0046174349 -0.16336173 0.0060006068 0
0.0060000145 -0.16334489 -0.0043264567 0
0.0060000047 -0.16375174 -0.0016667817 0
0.0059999931 -0.16357739 0.0015137155 0
0.0059999824 -0.16335492 0.0043791742 0
0.090855531 -0.16347212 -0.0046291808 0
0.089999989 -0.1635544 -0.0016300263 0
0.089999966 -0.16327721 0.0014100593 0
0.090832427 -0.16331963 0.0045929309 0
0.094338156 -0.16338223 -0.0049990676 0
0.094160557 -0.16364598 0.0050009326 0
0.097598523 -0.16359845 -0.0049990532 0
0.097384103 -0.16355994 0.0050009438 0
0.099813826 -0.16350512 -0.0045209862 0
0.099999964 -0.16362408 -0.0015649614 0
0.099999979 -0.16359824 0.0014745856 0
0.099755235 -0.1636892 0.0045057321 0
-0.005219372 -0.16054361 -0.0052008005 0
-0.0059999954 -0.16052519 -0.0012623946 0
-0.0060000028 -0.16052681 0.0011411884 0
-0.0060000154 -0.16049807 0.0044146073 0
-0.0045438143 -0.16061771 0.006000564 0
-0.0011878448 -0.16138598 -0.0059994203 0
-0.0013703037 -0.16054663 -0.0059994226 0
-0.0015714481 -0.16063049 0.0060005751 0
6.1214967e-05 -0.15989108 -0.0059994217 0
0.0014807552 -0.16071855 -0.0059994115 0
0.0016830236 -0.16038316 0.0060005854 0
0.0045466581 -0.16067728 -0.0059994007 0
0.0059999959 -0.15958416 0.0010663817 0
0.0034327738 -0.16020086 0.0060005919 0
0.0043598493 -0.16083705 0.006000597 0
0.0060000159 -0.16044973 -0.0047224155 0
0.0060000047 -0.16043992 -0.0016183821 0
0.0059999931 -0.16072284 0.0015032266 0
0.0059999819 -0.16051662 0.0044945832 0
0.090787619 -0.16046152 -0.004562682 0
0.089999996 -0.1602025 -0.0013646391 0
0.089999996 -0.16084157 0.001673376 0
0.090788811 -0.16039529 0.004645864 0
0.094673358 -0.16072668 -0.0049990756 0
0.094348185 -0.16049825 0.0050009219 0
0.097667791 -0.1605493 -0.0049990644 0
0.097259581 -0.16033979 0.0050009317 0
0.099794529 -0.16027319 -0.0045018829 0
0.099999979 -0.16062433 -0.0014589269 0
0.099999964 -0.1604909 0.0019168338 0
0.099693485 -0.16047628 0.0044900379 0
-0.0059999945 -0.15770578 -0.0017008649 0
-0.0060000014 -0.15778214 0.00026882507 0
-0.005289847 -0.15765926 -0.0051220371 0
-0.0059999931 -0.15726702 -0.0016345541 0
-0.0060000042 -0.15766194 0.0015439548 0
-0.0060000145 -0.15740223 0.0043442445 0
-0.0047310684 -0.15755898 0.0060005523 0
-0.0017631237 -0.15770076 -0.0059994343 0
-0.0013911696 -0.15755272 0.006000564 0
0.00033588527 -0.15706389 -0.0059994305 0
0.001571661 -0.15752469 -0.0059994231 0
0.0021844406 -0.15748025 0.0060005775 0
0.0013542918 -0.15758698 0.0060005742 0
0.0045750989 -0.15738378 -0.0059994124 0
0.0060000024 -0.15730533 -0.00070844125 0
0.0059999921 -0.15692797 0.002014708 0
0.0045392462 -0.1574847 0.0060005849 0
0.0060000177 -0.15739653 -0.0044972077 0
0.0060000042 -0.15739502 -0.0015003714 0
0.0059999931 -0.15768903 0.0015793671 0
0.0059999828 -0.15749149 0.0043936572 0
0.091014691 -0.15750001 -0.0047269287 0
0.090000011 -0.15753809 -0.0015560443 0
0.089999974 -0.15748598 0.0014276503 0
0.090737276 -0.15748006 0.004602903 0
0.094494537 -0.15733509 -0.0049990863 0
0.094549842 -0.15716773 0.0050009117 0
0.097596273 -0.15769984 -0.0049990751 0
0.097278148 -0.15741977 0.00500092 0
0.099881224 -0.15711729 -0.0042636227 0
0.099999964 -0.15772803 -0.0013594306 0
0.099999957 -0.15756263 0.0014987717 0
0.099905722 -0.15764137 0.0042660702 0
-0.0059999935 -0.15328938 -0.0019195478 0
-0.0053557856 -0.15458718 -0.0052625439 0
-0.0059999935 -0.15464544 -0.0014337655 0
-0.0060000038 -0.15460543 0.0013732815 0
-0.0060000154 -0.15464212 0.0046882969 0
-0.0044458592 -0.15443002 0.0060005425 0
-0.0018117296 -0.15431815 -0.0059994468 0
-0.0013974645 -0.15473479 0.0060005547 0
-0.0014114855 -0.15445821 0.0060005528 0
0.0012970928 -0.15449095 -0.0059994347 0
0.001515198 -0.15453318 0.0060005635 0
0.0044751456 -0.15455166 -0.0059994231 0
0.0060000061 -0.15449268 -0.0018055373 0
0.0033233829 -0.15453216 0.006000571 0
0.0047603436 -0.15460058 0.0060005756 0
0.006000014 -0.15465166 -0.0043528946 0
0.0060000056 -0.15468341 -0.0015456169 0
0.0059999926 -0.15449765 0.0015138792 0
0.0059999819 -0.15489146 0.0046400344 0
0.09082564 -0.15460484 -0.0045258603 0
0.089999989 -0.15464963 -0.0013574256 0
0.089999966 -0.15453459 0.001667724 0
0.090907492 -0.15432416 0.0046839877 0
0.094415635 -0.1544438 -0.0049990979 0
0.094421439 -0.15474947 0.0050009009 0
0.097657189 -0.15464829 -0.0049990858 0
0.097380504 -0.15419647 0.0050009103 0
0.099834323 -0.15462528 -0.0041525681 0
0.099999987 -0.15445141 -0.0013825303 0
0.099999949 -0.15445931 0.0014942809 0
0.099849388 -0.15437213 0.0043867249 0
-0.0053290087 -0.15151386 -0.0053133783 0
-0.0059999935 -0.1514944 -0.0014720026 0
-0.0060000047 -0.15134536 0.0016664489 0
-0.0060000164 -0.15164302 0.004847642 0
-0.004242606 -0.15133931 0.0060005314 0
-0.0017580045 -0.15161705 -0.0059994562 0
-0.0014807804 -0.15150493 0.0060005416 0
0.0016017329 -0.15149662 -0.0059994445 0
0.0018880862 -0.1512561 0.0060005542 0
0.0012201903 -0.15147674 0.0060005542 0
0.0045465473 -0.15149444 -0.0059994338 0
0.006000008 -0.15096818 -0.0023113447 0
0.0048262598 -0.15133771 0.0060005649 0
0.0060000145 -0.15130931 -0.0044323881 0
0.0060000038 -0.1514143 -0.0014756419 0
0.005999994 -0.15162869 0.0013241689 0
0.0059999819 -0.15156238 0.0046276459 0
0.090951249 -0.15166283 -0.0046917521 0
0.089999989 -0.15161788 -0.0014259563 0
0.089999996 -0.15147589 0.001560916 0
0.090716086 -0.1514443 0.0045250738 0
0.094510645 -0.1514392 -0.0049991081 0
0.094583884 -0.15124713 0.0050008884 0
0.097634383 -0.1514402 -0.0049990974 0
0.097577266 -0.15146115 0.0050009005 0
0.09988188 -0.15125059 -0.0044120387 0
0.099999972 -0.15144414 -0.0018172696 0
0.099999957 -0.15155727 0.0012173613 0
0.099808834 -0.15176354 0.0042822459 0
-0.0051740571 -0.14861557 -0.0053736456 0
-0.0059999926 -0.14854024 -0.0017045307 0
-0.0060000028 -0.1486191 0.0014550783 0
-0.006000015 -0.14855127 0.0044861124 0
-0.0047046323 -0.14828894 0.0060005183 0
-0.0014136591 -0.14858267 -0.0059994659 0
-0.0013393693 -0.14996789 0.0060005379 0
-0.0016630617 -0.14851612 0.0060005304 0
0.0013546476 -0.14845188 -0.0059994557 0
0.0025989574 -0.14853227 0.0060005467 0
0.0016228379 -0.14821695 0.0060005412 0
0.0043810639 -0.14867228 -0.0059994445 0
0.0059999921 -0.14721413 0.0020790568 0
0.0030862915 -0.14989682 0.0060005533 0
0.0043631881 -0.14829521 0.0060005523 0
0.006000015 -0.14842923 -0.0044833054 0
0.0060000028 -0.14818305 -0.0011280285 0
0.0059999935 -0.14839627 0.0015005727 0
0.0059999824 -0.14836583 0.0044880388 0
0.090859324 -0.14853743 -0.0046242629 0
0.089999974 -0.14850464 -0.0017302015 0
0.089999974 -0.14836518 0.0016004435 0
0.090760767 -0.14850834 0.0046486272 0
0.094417207 -0.14880599 -0.0049991184 0
0.094445057 -0.14839323 0.0050008777 0
0.097529024 -0.14860468 -0.0049991072 0
0.097293876 -0.14847372 0.0050008879 0
0.09980353 -0.14835718 -0.0044384412 0
0.099999979 -0.14846635 -0.0016148586 0
0.099999964 -0.14854567 0.0013273932 0
0.09985818 -0.14886847 0.0042228256 0
-0.0050756661 -0.14546372 -0.0053933649 0
-0.0059999931 -0.14538643 -0.0015793586 0
-0.0060000038 -0.14556623 0.0014321242 0
-0.0060000154 -0.14564556 0.0046290676 0
-0.0045613628 -0.145282 0.0060005081 0
-0.0014388876 -0.1455888 -0.0059994766 0
-0.0015747971 -0.14556332 0.0060005202 0
0.0014640311 -0.14551531 -0.0059994669 0
0.0015369152 -0.14545096 0.0060005309 0
0.0042636809 -0.14568236 -0.0059994562 0
0.0044525079 -0.14560679 0.0060005416 0
0.006000014 -0.14540668 -0.0042788591 0
0.0060000042 -0.1453319 -0.0015948836 0
0.005999994 -0.14514594 0.0014498518 0
0.0059999833 -0.14550371 0.0043024523 0
0.090853773 -0.14552817 -0.0046319743 0
0.089999989 -0.14553316 -0.0017321719 0
0.089999974 -0.14541939 0.0013884935 0
0.091177344 -0.14525571 0.004711987 0
0.094635539 -0.14521998 -0.0049991319 0
0.094483443 -0.14572661 0.0050008702 0
0.097541295 -0.14552587 -0.0049991198 0
0.097365245 -0.14591038 0.0050008805 0
0.099879473 -0.1454684 -0.0043502389 0
0.099999964 -0.14561237 -0.0015429024 0
0.099999957 -0.14547795 0.0013946164 0
0.099813364 -0.145211 0.0041401857 0
-0.0051149484 -0.14242816 -0.0054413751 0
-0.0059999926 -0.14255907 -0.0015004402 0
-0.0060000038 -0.14246374 0.0014680817 0
-0.0060000187 -0.1426248 0.0045292634 0
-0.0044802772 -0.14252415 0.0060004983 0
-0.0015596151 -0.14245491 -0.0059994883 0
-0.0015147839 -0.14244278 0.0060005086 0
0.001621468 -0.14249891 -0.0059994785 0
0.0015362401 -0.14249292 0.0060005202 0
0.0044494676 -0.14233927 -0.0059994687 0
0.004713479 -0.14266165 0.0060005323 0
0.0060000164 -0.14254577 -0.0047189845 0
0.0060000038 -0.14259401 -0.0013550115 0
0.0059999931 -0.14246421 0.0015972231 0
0.0059999828 -0.14278747 0.0043984028 0
0.090992689 -0.14254992 -0.0046623754 0
0.089999989 -0.14221044 -0.0015499844 0
0.089999974 -0.14256407 0.0015059394 0
0.090784654 -0.14244264 0.0045980951 0
0.0943617 -0.14246725 -0.0049991407 0
0.094430186 -0.14254951 0.0050008572 0
0.097347148 -0.14264655 -0.0049991296 0
0.097627528 -0.14244959 0.0050008674 0
0.099787168 -0.14227253 -0.0043124147 0
0.099999964 -0.14237367 -0.0016547819 0
0.099999964 -0.14250371 0.0014535894 0
0.099686533 -0.14234641 0.0045159203 0
-0.0051784227 -0.13941336 -0.00536031 0
-0.0059999935 -0.13923302 -0.00144198 0
-0.0060000038 -0.1394584 0.0014150611 0
-0.006000014 -0.13924555 0.0042095617 0
-0.0045605102 -0.13958162 0.0060004881 0
-0.0014058497 -0.13953206 -0.0059994995 0
-0.0014754052 -0.13965182 0.0060004992 0
0.0013048857 -0.1396215 -0.0059994888 0
0.0017103368 -0.14072219 0.0060005151 0
0.001350243 -0.13961838 0.0060005086 0
0.0046242489 -0.13961259 -0.0059994766 0
0.0059999959 -0.13973266 0.0010909247 0
0.0059999856 -0.13900401 0.0038811844 0
0.0044602426 -0.13973129 0.0060005207 0
0.0060000164 -0.13975556 -0.0048542218 0
0.0060000028 -0.13933581 -0.0011664707 0
0.0059999931 -0.13946871 0.0015627701 0
0.0059999824 -0.13951738 0.004553189 0
0.090910435 -0.13950047 -0.0046333391 0
0.089999989 -0.13971436 -0.0014808119 0
0.089999974 -0.13943887 0.0016377899 0
0.090837613 -0.13951096 0.004624601 0
0.094283186 -0.13961937 -0.0049991529 0
0.094475426 -0.13935834 0.0050008446 0
0.09745077 -0.13955006 -0.0049991403 0
0.097622618 -0.1393954 0.0050008576 0
0.099879302 -0.13945773 -0.0042762975 0
0.099999972 -0.13971883 -0.0014731624 0
0.099999957 -0.1394235 0.0012698141 0
0.099859856 -0.1395572 0.0042240503 0
-0.0053133606 -0.13646878 -0.0051811314 0
-0.0059999945 -0.13670018 -0.00160032 0
-0.0060000042 -0.13652205 0.0014467362 0
-0.0059536183 -0.1364837 0.0046630804 0
-0.0044202833 -0.13646862 0.0060004774 0
-0.0025546039 -0.13675907 -0.0059995148 0
-0.0014384232 -0.13670453 -0.0059995088 0
-0.0018534726 -0.13645582 0.0060004862 0
0.0015793728 -0.13636091 -0.0059994995 0
0.0014250407 -0.1364197 0.0060004978 0
0.0045076837 -0.13646442 -0.0059994892 0
0.0060000038 -0.13664877 -0.0011962617 0
0.0059999921 -0.13522798 0.0020535786 0
0.0059999833 -0.13621826 0.0044625094 0
0.0045120819 -0.13647075 0.006000509 0
0.0060000159 -0.13670959 -0.0045953798 0
0.0060000038 -0.13643496 -0.001470865 0
0.0059999931 -0.13660267 0.0015855207 0
0.0059999842 -0.13659951 0.0044963206 0
0.091008984 -0.13656598 -0.0045875399 0
0.089999989 -0.13676463 -0.001548146 0
0.089999974 -0.13626292 0.0013998338 0
0.090636604 -0.13655788 0.0044907597 0
0.094476812 -0.1365618 -0.0049991631 0
0.094713531 -0.13625094 0.0050008339 0
0.097692676 -0.1364816 -0.0049991533 0
0.097296804 -0.13664827 0.0050008451 0
0.099912047 -0.13647038 -0.0043394919 0
0.099999957 -0.13657786 -0.0014883141 0
0.099999957 -0.13631627 0.0015601102 0
0.099835798 -0.13658427 0.0043450086 0
-0.0060000014 -0.13467136 0.00020510575 0
-0.0053271907 -0.13348123 -0.0052582985 0
-0.0059999949 -0.13359296 -0.0015345716 0
-0.0060000047 -0.13349076 0.0015133331 0
-0.0059778877 -0.1335934 0.0043264152 0
-0.0045170048 -0.1333064 0.0060004648 0
-0.0017518704 -0.13368629 -0.0059995209 0
-0.0014614592 -0.13413522 0.0060004801 0
-0.0015803479 -0.13327724 0.0060004755 0
0.0012664152 -0.13339832 -0.0059995111 0
0.0011404926 -0.13282575 0.0060004848 0
0.0015652828 -0.13350126 0.0060004876 0
0.0046427753 -0.13361411 -0.005999499 0
0.0059999945 -0.13230295 0.00141641 0
0.0059999861 -0.13327903 0.0037748904 0
0.0040353737 -0.1336367 0.0060004988 0
0.006000015 -0.133797 -0.0044514677 0
0.0060000038 -0.13335264 -0.0014512617 0
0.0059999931 -0.13386941 0.0016441967 0
0.0059999833 -0.13355489 0.0046354425 0
0.070588179 -0.13333899 -0.0014381497 0
0.070680209 -0.1331813 0.0016003075 0
0.073484734 -0.13339837 -0.0017024985 0
0.073474281 -0.13327417 0.0019076715 0
0.076517679 -0.13337696 -0.00175291 0
0.076524533 -0.13342987 0.0016982735 0
0.079485446 -0.13342559 -0.0019263998 0
0.079502754 -0.13338377 0.0017673799 0
0.082458019 -0.13336781 -0.0017337686 0
0.082683206 -0.13345183 0.0017554407 0
0.085489944 -0.13351744 -0.001516607 0
0.085401841 -0.13335444 0.0019559269 0
0.088357396 -0.1333238 -0.0019838181 0
0.088569231 -0.13342001 0.0018304081 0
0.090849414 -0.13354687 -0.0045860307 0
0.090000026 -0.13368037 -0.0020470889 0
0.089999996 -0.13415651 0.0017649371 0
0.090929441 -0.13364786 0.004625483 0
0.094556883 -0.13360579 -0.0049991738 0
0.094603673 -0.13365795 0.0050008246 0
0.097386874 -0.13345106 -0.0049991636 0
0.097415283 -0.13356692 0.0050008344 0
0.099739797 -0.13352872 -0.0045429883 0
0.099999964 -0.13352311 -0.0014092509 0
0.099999979 -0.13348998 0.0014318087 0
0.099857055 -0.13362615 0.0042622047 0
-0.0053611365 -0.13043948 -0.0052404781 0
-0.0059999945 -0.13058679 -0.0013234259 0
-0.0060000047 -0.13060491 0.001678316 0
-0.0058943806 -0.13047089 0.0044945655 0
-0.004360788 -0.13029021 0.006000455 0
-0.0022089097 -0.13023183 -0.0059995372 0
-0.0013879675 -0.1307963 -0.0059995307 0
-0.0014934503 -0.13045681 0.0060004652 0
0.0015475419 -0.13060726 -0.0059995204 0
0.0011910041 -0.13058196 0.0060004755 0
0.0044370834 -0.13066748 -0.0059995097 0
0.006000001 -0.1318973 -0.00038021617 0
0.0059999819 -0.1298705 0.0049268147 0
0.0046667713 -0.13045636 0.0060004876 0
0.006000015 -0.13063644 -0.0045641065 0
0.0060000038 -0.13058653 -0.0014563474 0
0.0059999931 -0.13041911 0.0015063374 0
0.0059999828 -0.13072345 0.0043296888 0
0.07064984 -0.13073221 -0.0017947023 0
0.070656762 -0.13079971 0.0016319413 0
0.073307954 -0.13058035 -0.0019343001 0
0.073445939 -0.13048579 0.0016875849 0
0.076138325 -0.13055593 -0.0016738805 0
0.076565653 -0.13056239 0.0018126592 0
0.079446457 -0.13055025 -0.0017828953 0
0.079472378 -0.13052224 0.0017648888 0
0.082822785 -0.13070756 -0.0017541683 0
0.082499102 -0.13046002 0.0017115166 0
0.085481979 -0.13052061 -0.0016599003 0
0.085481845 -0.13053046 0.0017598626 0
0.088500284 -0.13057701 -0.0018700459 0
0.088554561 -0.13052694 0.0016702034 0
0.091037348 -0.13069901 -0.0043240571 0
0.091340996 -0.13026454 -0.0014896225 0
0.091436535 -0.13029943 0.0016054204 0
0.091164611 -0.13063708 0.0043368852 0
0.094628565 -0.13072425 -0.0044923117 0
0.094763584 -0.13019997 -0.0012051152 0
0.094609715 -0.13019997 0.001356638 0
0.094426356 -0.13055876 0.0043846914 0
0.097515084 -0.13062526 -0.0044778627 0
0.097466759 -0.13019995 -0.0013176291 0
0.097570792 -0.13019997 0.0013955084 0
0.097470768 -0.13061708 0.0045356154 0
0.099697538 -0.13074271 -0.0043556546 0
0.099780269 -0.13073108 -0.0012375319 0
0.099857554 -0.13078092 0.0014850397 0
0.099676698 -0.13090821 0.0041911011 0
-0.0053667491 -0.12775189 -0.0051210923 0
-0.0059999931 -0.12732907 -0.0015866186 0
-0.0060000052 -0.12749217 0.0013284626 0
-0.0060000159 -0.12759168 0.0047251424 0
-0.0041135689 -0.12763157 0.0060004466 0
-0.0014374434 -0.12757097 -0.0059995437 0
-0.0013222442 -0.1276138 -0.0059995432 0
-0.0014862849 -0.12746578 0.006000455 0
0.0016171413 -0.12749545 -0.0059995307 0
0.0016910506 -0.12741749 0.0060004662 0
0.0045596454 -0.12755415 -0.0059995204 0
0.0059999973 -0.12756976 0.0008038216 0
0.005999981 -0.12737118 0.0051463116 0
0.0044327029 -0.12770092 0.0060004778 0
0.0060000145 -0.12768538 -0.0045334604 0
0.0060000038 -0.12722394 -0.0013945919 0
0.0059999949 -0.12732601 0.0013641543 0
0.0059999824 -0.12761961 0.0043408214 0
-0.006000015 -0.12405226 0.0040385965 0
-0.0050196298 -0.12304251 -0.005999573 0
-0.0051947855 -0.12442495 -0.005232784 0
-0.0059999949 -0.12452321 -0.0013782205 0
-0.0060000056 -0.1246048 0.0014465321 0
-0.0059373495 -0.12450118 0.0046750698 0
-0.0048689502 -0.12471002 0.0060004322 0
-0.0018773251 -0.12418638 -0.0059995581 0
-0.001572402 -0.12458704 -0.0059995526 0
-0.0015329237 -0.12457771 0.0060004466 0
0.0014557659 -0.12463892 -0.0059995432 0
0.0013047352 -0.12442601 0.0060004536 0
0.0045679221 -0.12448451 -0.0059995321 0
0.0044720522 -0.12447778 0.0060004657 0
0.0060000154 -0.12464581 -0.0045717335 0
0.0060000033 -0.12459372 -0.0012246362 0
0.005999994 -0.12435905 0.0012308176 0
0.0059999828 -0.12437031 0.0046633789 0
-0.0060000098 -0.12130417 0.0025144771 0
-0.0060000145 -0.12119977 0.0038430917 0
-0.0054289536 -0.12148981 -0.0051253443 0
-0.0059999954 -0.12150653 -0.0014512038 0
-0.0060000038 -0.12133732 0.0014072654 0
-0.0058474937 -0.12146983 0.0043321303 0
-0.0044096848 -0.1215935 0.0060004243 0
-0.0018217649 -0.12119398 -0.0059995684 0
-0.0016699967 -0.1216858 -0.0059995642 0
-0.0022675393 -0.12104534 0.0060004294 0
-0.0015010794 -0.12148942 0.0060004327 0
0.0002794363 -0.12270844 -0.0059995553 0
0.0013920737 -0.12152636 -0.0059995535 0
0.0016423387 -0.12159394 0.0060004476 0
0.0046371375 -0.12158681 -0.0059995418 0
0.0059999921 -0.12151245 0.0022076725 0
0.0059999828 -0.12157282 0.004601683 0
0.0046963017 -0.12170126 0.0060004564 0
0.0060000154 -0.12152939 -0.0045884307 0
0.0060000038 -0.1216713 -0.0014728316 0
0.0059999926 -0.12136901 0.001632285 0
0.0059999833 -0.12145537 0.0045522354 0
-0.0060000103 -0.11896249 0.0026767917 0
-0.0060000177 -0.11922856 0.0048184707 0
-0.0039496222 -0.1199771 -0.0059995805 0
-0.005365131 -0.11840269 -0.0053624464 0
-0.005999994 -0.11845363 -0.0017187785 0
-0.0060000042 -0.11850122 0.0015014742 0
-0.0059688683 -0.11850605 0.0043671802 0
-0.0045616971 -0.11857126 0.0060004117 0
-0.0012553475 -0.11841505 -0.0059995744 0
-0.0021054314 -0.11772638 0.0060004182 0
-0.0013434798 -0.11875015 0.0060004266 0
0.0016989061 -0.11839676 -0.0059995642 0
0.0015056003 -0.11868368 0.006000434 0
0.0045472556 -0.11859635 -0.005999553 0
0.0059999898 -0.11985073 0.0027515166 0
0.0059999838 -0.11891393 0.0045442847 0
0.0044572204 -0.11836161 0.0060004438 0
0.0060000164 -0.11848167 -0.0043766992 0
0.0060000075 -0.11861923 -0.0016641321 0
0.0059999931 -0.11867795 0.0016511892 0
0.0059999819 -0.11859684 0.0045726444 0
-0.0060000094 -0.1140312 0.002415237 0
-0.0060000131 -0.11671484 0.00348401 0
-0.0049218028 -0.11569411 -0.0059995996 0
-0.0054382528 -0.11554497 -0.0051304288 0
-0.0059999945 -0.11552136 -0.0015968123 0
-0.0060000042 -0.11558329 0.001581243 0
-0.0060000164 -0.11523073 0.004843208 0
-0.0045238859 -0.1153258 0.0060004001 0
-0.0014920225 -0.11519279 -0.0059995893 0
-0.0014975771 -0.11532784 -0.0059995865 0
-0.0019354009 -0.11562552 0.0060004112 0
-0.0014313031 -0.11557277 0.0060004117 0
0.0017095038 -0.1155152 -0.0059995744 0
0.0014080838 -0.11554012 0.0060004219 0
0.0043586227 -0.11571609 -0.0059995651 0
0.0059999889 -0.11522505 0.0029794336 0
0.0059999865 -0.11575449 0.0035428654 0
0.0044616847 -0.11558463 0.0060004336 0
0.006000015 -0.1153962 -0.004521382 0
0.0060000052 -0.1156894 -0.0016957927 0
0.005999994 -0.11535364 0.001568998 0
0.0059999833 -0.1155796 0.0042219684 0
-0.0060000042 -0.11256267 0.0010521333 0
-0.0060000164 -0.11170045 0.0044110119 0
-0.005194881 -0.1126557 -0.0059996112 0
-0.0053420062 -0.11259081 -0.0051296614 0
-0.0059999931 -0.11258501 -0.0016572014 0
-0.0060000033 -0.11252026 0.0012942746 0
-0.0060000154 -0.11238673 0.0046287449 0
-0.004493074 -0.11236793 0.0060003898 0
-0.001228548 -0.11232597 -0.0059995977 0
-0.0015105106 -0.1124291 0.0060004015 0
1.1134145e-05 -0.11178212 -0.0059995959 0
0.0016480749 -0.11231149 -0.0059995861 0
0.0015566966 -0.11247085 0.0060004112 0
0.0044165007 -0.11261901 -0.0059995754 0
0.0059999903 -0.11195006 0.0027018872 0
0.0059999833 -0.1135793 0.0045352713 0
0.0043398119 -0.11239453 0.0060004215 0
0.006000015 -0.112671 -0.0045029144 0
0.0060000042 -0.11253466 -0.0014228239 0
0.005999994 -0.11229343 0.001442826 0
0.0059999828 -0.11250968 0.0044121249 0
-0.006000008 -0.11013464 0.0020969007 0
-0.0060000173 -0.11041836 0.0046614525 0
-0.0051471274 -0.10961203 -0.0059996224 0
-0.0053896424 -0.10947269 -0.0050198473 0
-0.005999994 -0.10937925 -0.0013209087 0
-0.0060000042 -0.10952837 0.0014448479 0
-0.0058825244 -0.10936709 0.0046456689 0
-0.0044826046 -0.10938163 0.0060003782 0
-0.0023010375 -0.1107499 -0.005999608 0
-0.0014754935 -0.10950803 -0.005999607 0
-0.0026917129 -0.10975616 0.006000387 0
-0.0015065194 -0.1091872 0.0060003884 0
0.0015604112 -0.10946985 -0.0059995968 0
0.0015901427 -0.10946444 0.0060004005 0
0.0044908095 -0.10943191 -0.0059995861 0
0.0059999852 -0.11012332 0.0040668519 0
0.0046101017 -0.10934706 0.0060004112 0
0.0060000177 -0.10938971 -0.0045152046 0
0.0060000042 -0.10951937 -0.0015456886 0
0.0059999931 -0.10938358 0.001487762 0
0.0059999828 -0.10934942 0.0044715255 0
-0.0060000061 -0.10712158 0.0014998128 0
-0.0060000196 -0.1069208 0.0052214721 0
-0.0049223872 -0.10608108 -0.005999634 0
-0.0052520405 -0.10651847 -0.0052461941 0
-0.0059999931 -0.10638073 -0.0017089406 0
-0.0060000038 -0.10656453 0.0014610818 0
-0.005861246 -0.10653979 0.0047395909 0
-0.004206812 -0.10643655 0.0060003684 0
-0.0016106945 -0.10518865 -0.0059996257 0
-0.0018795803 -0.10670886 -0.0059996196 0
-0.0022893136 -0.10751652 0.0060003805 0
-0.0014461322 -0.10638979 0.0060003786 0
0.0012217311 -0.10644478 -0.0059996112 0
0.0014906917 -0.10641639 0.0060003893 0
0.0044822576 -0.10678734 -0.0059995959 0
0.0059999907 -0.10530511 0.0024582706 0
0.0059999847 -0.10643786 0.0042580781 0
0.0043702992 -0.10657419 0.0060004015 0
0.006000015 -0.10645106 -0.0045159156 0
0.0060000038 -0.10660006 -0.0015650722 0
0.0059999935 -0.10659719 0.0013858617 0
0.0059999824 -0.10659558 0.004461599 0
-0.0060000066 -0.10357203 0.0016382171 0
-0.0060000177 -0.10267632 0.0047402191 0
-0.0038719473 -0.10330638 -0.0059996406 0
-0.0054867161 -0.10349052 -0.005168146 0
-0.0059999931 -0.10351155 -0.0015344484 0
-0.006000007 -0.10329928 0.0015483932 0
-0.0059692389 -0.1035921 0.0047568236 0
-0.0046474379 -0.10345268 0.0060003563 0
-0.0020427562 -0.10291778 -0.0059996354 0
-0.0012841865 -0.10375573 -0.0059996275 0
-0.002326803 -0.1036272 0.0060003665 0
-0.0014474785 -0.1035588 0.0060003684 0
0.0018516771 -0.1034511 -0.0059996187 0
0.0016851694 -0.10349854 0.00600038 0
0.0044646324 -0.10341435 -0.0059996089 0
0.0059999893 -0.10317049 0.0028802508 0
0.0059999819 -0.10352896 0.0049154856 0
0.0044889627 -0.10361725 0.0060003903 0
0.0060000154 -0.10341673 -0.0045973719 0
0.0060000042 -0.10351006 -0.0015100798 0
0.0059999931 -0.10372631 0.0014906767 0
0.0059999847 -0.10348859 0.0043838676 0
-0.0060000075 -0.099801138 0.0019777643 0
-0.0060000177 -0.10006603 0.0047634202 0
-0.004036739 -0.10109457 -0.0059996489 0
-0.005286023 -0.10053004 -0.0052523036 0
-0.0059999954 -0.10052139 -0.0014518956 0
-0.0060000047 -0.10039223 0.001469011 0
-0.0059053623 -0.10027981 0.0047202148 0
-0.0047168848 -0.10030556 0.0060003446 0
-0.0011473458 -0.10198322 -0.0059996354 0
-0.0014395573 -0.10051499 -0.005999641 0
-0.0027025498 -0.10180509 0.0060003581 0
-0.0014713708 -0.10095233 0.0060003595 0
0.0013766163 -0.10047342 -0.0059996299 0
0.0012331689 -0.10049964 0.0060003684 0
0.0044864411 -0.10056501 -0.0059996182 0
0.0059999884 -0.099767648 0.003066245 0
0.0045260368 -0.10047109 0.0060003786 0
0.0060000164 -0.10043524 -0.0046244878 0
0.0060000042 -0.100384 -0.0013642276 0
0.0059999945 -0.10052755 0.0013791417 0
0.0059999814 -0.10013887 0.0047411933 0
-0.0060000052 -0.098758779 0.0013478532 0
-0.0060000159 -0.097584151 0.0041923122 0
-0.0048623132 -0.096591547 -0.0059996685 0
-0.0053567486 -0.09740562 -0.0050906916 0
-0.0059999931 -0.097620942 -0.0014951095 0
-0.0060000038 -0.09737654 0.0013738589 0
-0.0059149493 -0.097731002 0.0047173854 0
-0.0046487493 -0.097489439 0.0060003349 0
-0.0023964359 -0.09749566 -0.0059996564 0
-0.0016449121 -0.097517915 -0.0059996517 0
-0.0020796021 -0.097357579 0.0060003446 0
-0.0013562595 -0.097298421 0.0060003456 0
0.0014821576 -0.097492479 -0.0059996401 0
0.0013799004 -0.097578138 0.0060003577 0
0.0045489841 -0.097713724 -0.0059996285 0
0.0059999903 -0.097897507 0.0025639229 0
0.0059999828 -0.098236032 0.004578162 0
0.0046004192 -0.097172193 0.006000367 0
0.0060000145 -0.097693667 -0.0045021349 0
0.0060000047 -0.097502999 -0.0011264995 0
0.0059999935 -0.097401872 0.0014215475 0
0.0059999814 -0.097315766 0.0047594337 0
-0.0045116879 -0.094342776 -0.0059996755 0
-0.0052749501 -0.094549693 -0.0052933404 0
-0.0059999935 -0.094233707 -0.0014569189 0
-0.0060000038 -0.094321705 0.0013765065 0
-0.0060000145 -0.094816953 0.0042618713 0
-0.0043788725 -0.094409794 0.0060003251 0
-0.0025240912 -0.094331838 -0.0059996685 0
-0.0015617798 -0.094064847 -0.0059996638 0
-0.0022562116 -0.094710775 0.0060003339 0
-0.001506519 -0.094637163 0.0060003358 0
0.0016264973 -0.094375573 -0.0059996508 0
0.0014483134 -0.094206735 0.0060003474 0
0.0043342207 -0.094406791 -0.005999641 0
0.0059999912 -0.093004204 0.0023077105 0
0.0059999819 -0.094476476 0.0049895742 0
0.0044170017 -0.09471523 0.0060003572 0
0.006000015 -0.094534449 -0.0044961688 0
0.0060000033 -0.094608046 -0.0013487535 0
0.0059999935 -0.094155021 0.0014073396 0
0.0059999824 -0.094463147 0.0045185662 0
-0.0060000154 -0.0919341 0.0041779988 0
-0.0050223023 -0.091472574 -0.005401074 0
-0.0059999949 -0.091501944 -0.0015332724 0
-0.0060000042 -0.09144602 0.0015007739 0
-0.0059457794 -0.091403477 0.004448304 0
-0.0044770646 -0.091499515 0.0060003144 0
-0.0016582529 -0.091539219 -0.005999675 0
-0.00146776 -0.091328308 -0.0059996732 0
-0.0014383219 -0.091356866 0.0060003242 0
0.0013487636 -0.091363028 -0.0059996638 0
0.0015782283 -0.091684915 0.0060003372 0
0.0044054585 -0.09140037 -0.0059996517 0
0.0059999907 -0.09109246 0.0026180353 0
0.00599998 -0.091531388 0.0053413119 0
0.0045735571 -0.091619231 0.0060003474 0
0.0060000164 -0.091574162 -0.0048312368 0
0.0060000042 -0.091771737 -0.0015658648 0
0.0059999935 -0.091266364 0.0013814863 0
0.005999981 -0.091560572 0.0048769326 0
-0.006000008 -0.088610843 0.0020493809 0
-0.0060000187 -0.088186033 0.0050267051 0
-0.0048621926 -0.088697128 -0.0059996969 0
-0.0052737873 -0.088546753 -0.005164382 0
-0.0059999931 -0.088570736 -0.0015921382 0
-0.0060000052 -0.088493578 0.0015312032 0
-0.0059156921 -0.088654667 0.0044546677 0
-0.004795935 -0.088263169 0.0060003009 0
-0.0014906952 -0.088722549 -0.0059996848 0
-0.0015803473 -0.08854422 -0.0059996839 0
-0.0014354597 -0.088317066 0.0060003134 0
0.0011473141 -0.088678457 -0.0059996736 0
0.0015412226 -0.088655084 0.0060003251 0
0.0046555451 -0.088310026 -0.005999662 0
0.0059999893 -0.087380111 0.0028339396 0
0.0059999833 -0.088680051 0.004510669 0
0.0046874997 -0.088401325 0.0060003353 0
0.0060000154 -0.088559873 -0.0046146209 0
0.0060000028 -0.088642918 -0.0012624098 0
0.0059999926 -0.088605382 0.001609345 0
0.0059999838 -0.088481806 0.0042742081 0
-0.0060000075 -0.085928395 0.0018831569 0
-0.0060000177 -0.085151523 0.0048203785 0
-0.0036363327 -0.084675781 -0.0059997072 0
-0.0052371281 -0.085523643 -0.0053000492 0
-0.0059999935 -0.085465088 -0.0015878229 0
-0.0060000042 -0.085505061 0.0015444313 0
-0.0058594653 -0.085611574 0.0049240822 0
-0.0045133177 -0.085097186 0.0060002906 0
-0.0018857316 -0.086364947 -0.005999695 0
-0.001700177 -0.085426688 -0.0059996955 0
-0.0020671079 -0.085513212 0.0060003018 0
-0.00128015 -0.08546038 0.0060003032 0
0.0015395136 -0.085557349 -0.0059996843 0
0.001666563 -0.08537554 0.0060003139 0
0.004427542 -0.085423589 -0.0059996741 0
0.0059999782 -0.08644782 0.0059129782 0
0.0045134313 -0.085675627 0.0060003251 0
0.006000015 -0.085362725 -0.0046172496 0
0.0060000052 -0.085343942 -0.0015898172 0
0.0059999949 -0.085271157 0.0014973435 0
0.0059999828 -0.08550781 0.0043396493 0
-0.0060000182 -0.08252351 0.0049416018 0
-0.004572846 -0.082395501 -0.0059997188 0
-0.0052289004 -0.082361251 -0.0052042897 0
-0.005999994 -0.082471021 -0.0014806193 0
-0.0060000038 -0.082798608 0.0014592953 0
-0.0059467684 -0.082483239 0.0047333101 0
-0.0046056714 -0.082466386 0.0060002808 0
-0.0019650669 -0.082923129 -0.0059997072 0
-0.001558403 -0.082415909 -0.0059997072 0
-0.0014668956 -0.082571335 0.0060002925 0
0.0013338607 -0.082779631 -0.0059996941 0
0.0013619497 -0.082367897 0.0060003018 0
0.0046809972 -0.082337655 -0.0059996839 0
0.0059999907 -0.082977988 0.0024510587 0
0.0059999796 -0.08223062 0.0056373575 0
0.00438751 -0.082318977 0.0060003125 0
0.0060000145 -0.082321547 -0.0044334647 0
0.0060000047 -0.082379989 -0.0017165277 0
0.0059999926 -0.082315855 0.0017493251 0
0.0059999828 -0.082646988 0.0043898844 0
-0.0060000094 -0.079779916 0.0024179986 0
-0.0060000196 -0.079644598 0.0053343317 0
-0.0048751552 -0.080122866 -0.0059997281 0
-0.0053817867 -0.079314701 -0.0051439754 0
-0.0059999931 -0.079654589 -0.0015913547 0
-0.0060000047 -0.079553455 0.0016179038 0
-0.0059673511 -0.079561941 0.0045017628 0
-0.0044960757 -0.079396591 0.0060002697 0
-0.0014073881 -0.079354838 -0.0059997165 0
-0.0020648434 -0.079818584 0.0060002808 0
-0.0015701998 -0.079553448 0.0060002808 0
0.001701441 -0.079434723 -0.0059997048 0
0.0016960996 -0.079370163 0.006000292 0
0.0044137482 -0.079539277 -0.005999695 0
0.0059999917 -0.078068934 0.0021753872 0
0.0059999833 -0.080285549 0.0044716219 0
0.0045669572 -0.079468325 0.0060003032 0
0.006000015 -0.079674177 -0.0045265532 0
0.0060000042 -0.07944084 -0.0015366956 0
0.005999994 -0.079521425 0.0015235371 0
0.0059999828 -0.079417832 0.0044847331 0
-0.0060000098 -0.0772909 0.0025372386 0
-0.0060000164 -0.075452104 0.0043425299 0
-0.0039719576 -0.075648673 -0.0059997411 0
-0.004987658 -0.076453827 -0.0054253247 0
-0.0059999949 -0.076612346 -0.001378876 0
-0.0060000056 -0.076592468 0.0013522729 0
-0.0059561231 -0.076352447 0.0046927738 0
-0.0045231585 -0.076445453 0.0060002594 0
-0.0024243619 -0.076726168 -0.0059997318 0
-0.0013856806 -0.076682687 -0.0059997272 0
-0.0021577601 -0.07682737 0.0060002701 0
-0.0012481309 -0.076223701 0.0060002701 0
0.001573991 -0.076561287 -0.005999716 0
0.0014129237 -0.076667756 0.0060002818 0
0.004477784 -0.076454915 -0.0059997058 0
0.0059999903 -0.076789297 0.0026096429 0
0.0059999842 -0.076420933 0.00425163 0
0.0045195566 -0.076268919 0.0060002916 0
0.0060000159 -0.076504566 -0.0047742426 0
0.0060000033 -0.076368503 -0.0013373628 0
0.0059999926 -0.076524258 0.0016300731 0
0.0059999824 -0.076505028 0.0043660267 0
-0.0060000173 -0.073833302 0.0046261889 0
-0.0053393445 -0.073678322 -0.0059997533 0
-0.0053085815 -0.073657453 -0.0052847299 0
-0.0059999931 -0.07347735 -0.0016168414 0
-0.0060000052 -0.073278412 0.001612569 0
-0.005968499 -0.073357239 0.0048872526 0
-0.0044049984 -0.073386103 0.0060002482 0
-0.001977257 -0.07358484 -0.0059997411 0
-0.0017567974 -0.073727608 -0.0059997384 0
-0.001273195 -0.073450446 0.0060002599 0
0.0016655184 -0.073467225 -0.0059997281 0
0.0013447666 -0.073517412 0.0060002697 0
0.0046844585 -0.073505588 -0.0059997165 0
0.0059999796 -0.073035359 0.0055330675 0
0.0043544676 -0.07348305 0.0060002804 0
0.0060000159 -0.073495977 -0.0047143199 0
0.0060000042 -0.073358193 -0.0014975253 0
0.0059999959 -0.073214754 0.0012145366 0
0.0059999824 -0.073853247 0.0046867211 0
-0.0092468774 -0.069489703 -0.001183297 0
-0.0092359222 -0.069525063 0.0011857363 0
-0.0064559598 -0.069953561 -0.0063155731 0
-0.0074548689 -0.069777064 -0.0045302473 0
-0.0074844332 -0.069970436 -0.0016457051 0
-0.0072844741 -0.07002721 0.0015195629 0
-0.0074335299 -0.069847129 0.0042705326 0
-0.0065881908 -0.06956099 0.0065618102 0
-0.0041645267 -0.069964424 -0.0074391793 0
-0.0052393214 -0.070962921 -0.0053830105 0
-0.0059999949 -0.070976801 -0.0012085845 0
-0.0060000042 -0.071046203 0.0014594389 0
-0.0058541801 -0.070834212 0.0045343935 0
-0.0043145125 -0.070236228 0.0069430452 0
-0.0010161763 -0.069474392 -0.0092355711 0
-0.0018194168 -0.070024833 -0.0073868474 0
-0.0015753866 -0.071047179 -0.0059997481 0
-0.0026372855 -0.071788758 0.0060002496 0
-0.0014594302 -0.070457377 0.0067990529 0
-0.0012698332 -0.069731548 0.0092082191 0
0.00088456948 -0.069608755 -0.0092464834 0
0.0015757951 -0.069954582 -0.0076437076 0
0.0013912201 -0.070968777 -0.005999737 0
0.0014631683 -0.070249677 0.0071661016 0
0.0011721923 -0.069606468 0.0092083719 0
0.0044005099 -0.069798358 -0.0073147891 0
0.0045126984 -0.070885576 -0.0059997258 0
0.0059999917 -0.071511604 0.0021669434 0
0.0043267962 -0.070189409 0.0070730424 0
0.0064078565 -0.069654755 -0.0066139083 0
0.0069033932 -0.070311531 -0.0044251601 0
0.0069826925 -0.070339307 -0.0017177636 0
0.0067688981 -0.070396192 0.0017006284 0
0.0070223929 -0.070089944 0.0044056005 0
0.006625711 -0.069707036 0.0064051249 0
0.0092233643 -0.0695391 -0.0011786097 0
0.0092145447 -0.069510244 0.0012934032 0
-0.0092143826 -0.067091793 -0.0014580046 0
-0.0092461724 -0.067534469 0.0012211766 0
-0.0066186632 -0.067337945 -0.0065201549 0
-0.0080502927 -0.067444824 -0.0045528612 0
-0.0089028794 -0.067458831 -0.002853144 0
-0.0089300126 -0.067545392 0.0027912071 0
-0.0080604982 -0.067341268 0.0045513273 0
-0.0064351163 -0.067103289 0.0067113368 0
-0.0047167758 -0.067282312 -0.0079709347 0
-0.0045528435 -0.067248233 0.0080589205 0
-0.0012689932 -0.067689262 -0.0092382664 0
-0.002816817 -0.066867441 -0.0089185303 0
-0.0028730156 -0.067709684 0.0088945897 0
-0.0015524573 -0.067457303 0.0092040859 0
0.0012939282 -0.067373663 -0.0092368107 0
0.0027978446 -0.066747546 -0.0089267874 0
0.0028688062 -0.067336209 0.0088964123 0
0.0012267398 -0.067592047 0.0092443852 0
0.0043487805 -0.067426108 -0.0081771761 0
0.0046025524 -0.067424409 0.0080236159 0
0.0066336337 -0.067508556 -0.0064989356 0
0.0080585554 -0.06718117 -0.0045535746 0
0.0089600617 -0.067686729 -0.0027216077 0
0.0089075221 -0.066866271 0.0028429506 0
0.0080737704 -0.067319073 0.0045165177 0
0.0066221273 -0.067594491 0.0065207877 0
0.0092260409 -0.067476809 -0.0013294228 0
0.0092458995 -0.067519248 0.0012046399 0
-0.0092120329 -0.064550824 -0.001478137 0
-0.0092550712 -0.064605437 0.0011405423 0
-0.0066535324 -0.064577132 -0.0064842589 0
-0.0080560092 -0.064193182 -0.0045603579 0
-0.0088944323 -0.064830206 -0.0028725793 0
-0.0089050233 -0.064479724 0.0028486724 0
-0.0081300968 -0.064806812 0.0044211564 0
-0.0065687438 -0.064729817 0.0065579973 0
-0.0042996141 -0.06447307 -0.0082172295 0
-0.0045053996 -0.064591452 0.0080969268 0
-0.0011536531 -0.064500235 -0.0092550553 0
-0.0028984002 -0.064555101 -0.0088830665 0
-0.0028150871 -0.064361155 0.0089197643 0
-0.0012010521 -0.064266212 0.0092481039 0
0.0012086044 -0.06466832 -0.0092486897 0
0.0027974332 -0.064453699 -0.0089269737 0
0.0028265102 -0.064870492 0.008914792 0
0.0013953885 -0.064580679 0.0092208581 0
0.004405797 -0.064547531 -0.0081169764 0
0.0045887535 -0.064360879 0.008015844 0
0.0065008039 -0.064414464 -0.0066455957 0
0.0079771252 -0.064476721 -0.0046608206 0
0.0089095831 -0.06424325 -0.0028377196 0
0.0089026839 -0.065072373 0.002854072 0
0.0080836043 -0.064478092 0.0045151846 0
0.0066631148 -0.064568132 0.006473185 0
0.009233173 -0.064232536 -0.0012935547 0
0.0092336005 -0.064534724 0.0012855319 0
-0.0092377057 -0.061504319 -0.0012981258 0
-0.0092476103 -0.061457135 0.0012134467 0
-0.0064594131 -0.061154388 -0.0066706585 0
-0.0080419155 -0.061316289 -0.0045705568 0
-0.0089275874 -0.060646433 -0.0027963405 0
-0.0089142816 -0.061711133 0.0028273694 0
-0.008117226 -0.061665729 0.0044499189 0
-0.0065858997 -0.061868437 0.0065442547 0
-0.0046192762 -0.061439186 -0.0080296081 0
-0.0044740117 -0.061227147 0.0080885142 0
-0.0013896263 -0.061574634 -0.0092210677 0
-0.0029053777 -0.061094284 -0.0088800471 0
-0.0028327326 -0.061039269 0.00891208 0
-0.0014623359 -0.061562378 0.0092115439 0
0.0014353332 -0.061469592 -0.0092104096 0
0.00282753 -0.061667811 -0.0089138979 0
0.0028584376 -0.061045233 0.0089008976 0
0.0012804206 -0.061283436 0.0092367111 0
0.0045796325 -0.061686777 -0.0080388486 0
0.0045338166 -0.061608575 0.0080885729 0
0.0066484138 -0.0610581 -0.0065050279 0
0.0080015315 -0.06155178 -0.0046508973 0
0.0089311134 -0.060838871 -0.0027882115 0
0.0089415265 -0.061253954 0.0027647212 0
0.0080563808 -0.061701547 0.004566947 0
0.0065049324 -0.061404832 0.006638593 0
0.0092520528 -0.061390243 -0.001174561 0
0.009247886 -0.061331909 0.0012019819 0
-0.0092537366 -0.05871129 -0.0011558713 0
-0.0092355823 -0.058692671 0.001269595 0
-0.0066042207 -0.058677349 -0.0065309657 0
-0.0081797261 -0.058317062 -0.0043530841 0
-0.008946442 -0.058863219 -0.0027529788 0
-0.0089220023 -0.058137167 0.0028095983 0
-0.0080393804 -0.058571205 0.0045952699 0
-0.0065565235 -0.058409926 0.0065769907 0
-0.0046182405 -0.058638051 -0.0080306651 0
-0.004885979 -0.05835063 0.0078498339 0
-0.001367925 -0.058297589 -0.0092260446 0
-0.0028086647 -0.058372878 -0.0089221047 0
-0.0028472054 -0.058375515 0.0089057777 0
-0.0014634221 -0.058411095 0.0092118103 0
0.0010284118 -0.058523841 -0.0092673441 0
0.0028099443 -0.058578588 -0.0089215552 0
0.0027850526 -0.058239799 0.0089327926 0
0.0012896481 -0.058357302 0.0092373798 0
0.0045815422 -0.058217961 -0.0080284178 0
0.00446221 -0.058316234 0.0081025269 0
0.006477668 -0.058547679 -0.0066589508 0
0.0078959689 -0.058391493 -0.0048295967 0
0.008922739 -0.058785357 -0.0028074803 0
0.0089030592 -0.059726853 0.0028531926 0
0.0081906049 -0.058551461 0.004307312 0
0.0065239994 -0.058189042 0.0066138813 0
0.0092429006 -0.058553953 -0.0012220471 0
