ply
format ascii 1.0
element vertex 1252
property float x
property float y
property float z
property uchar diffuse_red
property uchar diffuse_green
property uchar diffuse_blue
end_header
-0.322887 0.146883 0.211917 109 188 60
-0.322834 0.148025 0.211465 113 190 62
-0.321995 0.148792 0.21139 116 194 63
-0.320895 0.149431 0.211441 118 197 66
-0.320055 0.150198 0.211366 119 201 68
-0.319216 0.150965 0.211291 119 202 69
-0.319668 0.152388 0.21058 117 202 68
-0.29575 0.148022 0.219171 109 194 64
-0.294968 0.148736 0.219101 111 198 65
-0.293972 0.149332 0.219141 123 201 67
-0.29319 0.150046 0.219071 121 201 75
-0.292408 0.150761 0.219001 102 174 71
-0.291626 0.151476 0.218931 83 146 59
-0.291054 0.152312 0.218751 76 139 55
-0.29027 0.153028 0.218681 75 136 57
-0.289905 0.153991 0.218391 75 137 57
-0.299312 0.162001 0.212437 81 133 56
-0.298483 0.162758 0.212363 83 132 59
-0.354681 0.120971 0.212182 110 187 70
-0.353848 0.121732 0.212108 96 186 67
-0.353313 0.122593 0.211906 85 176 57
-0.366209 0.127999 0.205959 82 172 54
-0.365332 0.1288 0.20588 80 171 53
-0.364781 0.129715 0.205661 79 171 53
-0.363901 0.130518 0.205582 81 171 55
-0.363022 0.131321 0.205503 86 175 57
-0.361819 0.132009 0.205565 96 183 59
-0.36094 0.132812 0.205486 109 193 61
-0.35942 0.133382 0.205689 107 203 69
-0.35759 0.133831 0.206029 99 195 67
-0.355773 0.134278 0.206368 94 184 61
-0.354588 0.134958 0.206428 99 181 58
-0.352481 0.135282 0.206901 102 183 58
-0.350392 0.135604 0.207369 102 185 58
-0.348923 0.136158 0.207563 103 187 59
-0.345973 0.136122 0.208427 105 190 62
-0.34336 0.136204 0.209145 108 193 64
-0.341641 0.136632 0.209463 110 196 65
-0.339649 0.136942 0.209909 112 199 66
-0.337674 0.137249 0.21035 113 201 67
-0.336273 0.137785 0.210532 113 201 67
-0.334877 0.13832 0.210713 114 200 67
-0.333487 0.138853 0.210893 114 198 66
-0.331831 0.139266 0.211198 113 196 65
-0.330995 0.14003 0.211124 111 192 65
-0.329352 0.140439 0.211428 110 189 64
-0.327453 0.140728 0.211855 108 185 62
-0.326358 0.141368 0.211905 105 183 61
-0.325266 0.142007 0.211956 100 181 59
-0.324437 0.142765 0.211881 97 177 57
-0.323868 0.143643 0.211682 94 173 56
-0.323297 0.144523 0.211482 90 170 54
-0.322725 0.145406 0.211282 88 170 53
-0.322151 0.146291 0.211081 89 172 53
-0.321317 0.147054 0.211007 93 175 56
-0.320481 0.147816 0.210932 103 181 59
-0.319389 0.148453 0.210983 112 190 62
-0.318554 0.149216 0.210908 117 198 65
-0.318486 0.150363 0.210453 119 202 66
-0.295549 0.147703 0.218156 113 196 62
-0.294553 0.148299 0.218196 114 201 65
-0.293346 0.148778 0.218346 130 206 70
-0.292565 0.14949 0.218276 113 185 69
-0.291996 0.150322 0.218096 91 155 63
-0.291214 0.151036 0.218026 81 139 57
-0.290642 0.151872 0.217846 79 138 55
-0.290069 0.152709 0.217665 79 138 55
-0.299465 0.160633 0.211684 79 135 56
-0.298638 0.161388 0.21161 82 135 60
-0.298041 0.162282 0.211413 70 125 62
-0.354469 0.120625 0.21109 121 185 69
-0.353635 0.121385 0.211015 112 198 72
-0.352802 0.122147 0.21094 97 192 67
-0.352265 0.123008 0.210737 89 181 59
-0.365435 0.128547 0.204588 85 176 57
-0.364556 0.12935 0.204509 83 174 57
-0.363677 0.130153 0.20443 82 172 55
-0.362473 0.130842 0.204493 85 175 55
-0.361594 0.131645 0.204414 91 180 56
-0.360073 0.132216 0.204619 100 187 57
-0.358877 0.132901 0.204681 111 199 64
-0.357366 0.133469 0.204884 105 197 67
-0.35555 0.133917 0.205226 98 191 65
-0.354365 0.134597 0.205287 96 184 56
-0.352566 0.13504 0.205627 100 185 57
-0.350779 0.13548 0.205963 102 187 58
-0.348702 0.135801 0.206435 103 190 60
-0.34605 0.135885 0.207172 105 191 62
-0.343724 0.136084 0.207766 109 195 63
-0.341712 0.136397 0.208222 110 199 65
-0.339433 0.136593 0.208804 112 201 66
-0.337178 0.136786 0.20938 114 201 67
-0.335502 0.137208 0.209693 113 202 68
-0.334111 0.137742 0.209875 114 201 67
-0.332725 0.138275 0.210056 115 199 66
-0.331346 0.138806 0.210236 114 197 66
-0.330511 0.139568 0.210161 111 195 65
-0.328603 0.139861 0.210594 111 191 62
-0.32724 0.140386 0.210772 108 186 61
-0.325883 0.140909 0.210949 101 181 60
-0.325054 0.141666 0.210875 92 176 58
-0.324224 0.142423 0.2108 83 170 52
-0.323394 0.143181 0.210726 75 162 50
-0.322824 0.14406 0.210525 69 157 47
-0.322252 0.144942 0.210324 66 156 45
-0.321419 0.145702 0.210249 66 157 46
-0.320586 0.146463 0.210174 69 158 47
-0.319496 0.147099 0.210226 81 163 48
-0.318408 0.147735 0.210277 96 176 52
-0.317576 0.148495 0.210202 109 189 58
-0.31725 0.149509 0.209874 118 199 63
-0.295134 0.147267 0.217252 114 197 65
-0.293926 0.147747 0.217404 127 199 65
-0.292934 0.148342 0.217444 123 201 75
-0.292154 0.149054 0.217374 99 168 68
-0.291585 0.149885 0.217193 83 146 61
-0.291014 0.150718 0.217012 78 141 59
-0.290232 0.151432 0.216942 78 141 57
-0.299253 0.160297 0.210613 77 137 59
-0.298426 0.161052 0.210539 81 135 66
-0.352828 0.120844 0.21018 125 198 73
-0.351997 0.121603 0.210105 113 209 78
-0.35146 0.122462 0.209901 101 194 66
-0.364557 0.12796 0.203723 95 187 61
-0.36368 0.128761 0.203644 91 182 58
-0.362248 0.130477 0.203342 88 180 56
-0.360726 0.131051 0.203549 90 181 56
-0.359529 0.131737 0.203612 95 185 56
-0.358018 0.132307 0.203818 107 192 60
-0.356513 0.132874 0.204022 107 199 68
-0.355326 0.133556 0.204085 101 198 69
-0.353832 0.134119 0.204288 93 188 62
-0.352344 0.13468 0.20449 98 186 58
-0.350862 0.135239 0.204691 102 189 59
-0.348782 0.135561 0.205168 105 192 61
-0.346127 0.135646 0.205915 107 194 62
-0.343798 0.135847 0.206516 111 198 64
-0.342072 0.136278 0.206843 112 200 66
-0.339216 0.136243 0.2077 114 201 68
-0.336683 0.136324 0.208412 117 201 69
-0.33501 0.136747 0.208727 118 201 68
-0.333347 0.137167 0.20904 117 202 66
-0.331966 0.1377 0.209222 116 201 64
-0.330591 0.13823 0.209404 115 199 64
-0.329758 0.138991 0.209329 114 196 64
-0.328124 0.139402 0.209637 111 193 62
-0.327027 0.140044 0.20969 104 187 60
-0.325933 0.140685 0.209742 93 178 57
-0.324841 0.141325 0.209794 80 169 53
-0.324012 0.142082 0.209719 69 161 46
-0.323182 0.14284 0.209644 62 154 44
-0.322611 0.143719 0.209442 61 150 42
-0.321779 0.144478 0.209367 63 149 42
-0.321206 0.14536 0.209164 66 151 44
-0.319859 0.145875 0.209345 69 152 44
-0.318772 0.14651 0.209397 72 153 44
-0.317687 0.147145 0.209449 80 162 47
-0.316856 0.147904 0.209374 103 175 51
-0.294719 0.146832 0.21635 116 201 65
-0.293513 0.147312 0.216503 131 208 75
-0.292522 0.147907 0.216544 109 180 71
-0.291954 0.148736 0.216363 89 150 65
-0.291384 0.149566 0.21618 81 140 61
-0.290813 0.150399 0.215998 79 139 60
-0.290031 0.151113 0.215927 79 138 58
-0.299041 0.15996 0.209542 80 133 59
-0.298214 0.160715 0.209467 63 129 64
-0.352025 0.120304 0.209348 125 183 67
-0.351195 0.121062 0.209273 127 215 81
-0.350364 0.12182 0.209198 112 208 74
-0.349826 0.122678 0.208993 104 199 66
-0.348994 0.123437 0.208918 98 193 60
-0.362256 0.129086 0.202559 93 190 59
-0.361379 0.129886 0.20248 93 186 57
-0.359225 0.130234 0.202974 94 185 56
-0.358035 0.130918 0.203037 95 185 57
-0.357162 0.131715 0.202958 99 188 61
-0.355976 0.132398 0.203022 107 198 66
-0.35448 0.132963 0.203227 107 201 69
-0.353609 0.133758 0.203148 98 197 67
-0.352121 0.13432 0.203352 96 188 59
-0.350945 0.134997 0.203415 99 190 59
-0.348863 0.13532 0.203898 103 193 61
-0.346203 0.135408 0.204654 107 196 63
-0.343872 0.13561 0.205263 110 198 62
-0.342434 0.136158 0.205459 113 198 63
-0.339284 0.136009 0.206461 116 199 65
-0.336468 0.135977 0.207314 119 200 67
-0.334244 0.136173 0.207894 119 205 65
-0.33286 0.136708 0.208079 117 205 63
-0.331211 0.137127 0.208393 116 204 64
-0.330109 0.137772 0.208446 115 202 66
-0.328742 0.138301 0.208629 112 195 66
-0.327911 0.13906 0.208554 109 191 66
-0.326815 0.139702 0.208607 97 184 61
-0.325721 0.140344 0.20866 81 173 55
-0.324891 0.141101 0.208585 68 162 49
-0.323799 0.141741 0.208638 60 153 43
-0.322969 0.142499 0.208563 64 151 42
-0.322398 0.143377 0.208359 73 153 44
-0.321566 0.144136 0.208284 82 158 47
-0.320477 0.144774 0.208337 86 164 51
-0.31939 0.145411 0.208391 88 167 54
-0.317797 0.145802 0.208699 86 166 53
-0.316716 0.146435 0.208752 83 166 53
-0.315888 0.147191 0.208677 111 177 56
-0.315812 0.148322 0.208218 131 194 64
-0.294519 0.146513 0.215337 125 197 69
-0.293101 0.146879 0.215604 120 197 79
-0.292323 0.147589 0.215534 95 159 68
-0.291544 0.148301 0.215463 83 144 63
-0.291184 0.149248 0.215167 81 140 62
-0.299424 0.158734 0.208672 83 133 60
-0.298599 0.159488 0.208597 85 134 67
-0.297773 0.160242 0.208522 51 75 60
-0.297174 0.161134 0.208321 37 48 27
-0.350396 0.120523 0.208445 134 204 73
-0.349568 0.12128 0.208369 122 220 83
-0.348739 0.122037 0.208294 111 209 71
-0.347909 0.122794 0.208219 104 201 64
-0.347658 0.123751 0.207883 100 197 63
-0.347988 0.124917 0.207282 98 192 59
-0.355864 0.128762 0.203254 98 189 58
-0.356868 0.130219 0.202325 97 187 58
-0.355998 0.131013 0.202246 95 188 62
-0.355128 0.131808 0.202167 105 194 63
-0.354257 0.132602 0.202087 108 199 66
-0.353077 0.133282 0.202151 105 202 69
-0.351899 0.13396 0.202215 95 192 63
-0.350723 0.134638 0.202279 97 190 60
-0.348943 0.135079 0.202626 101 193 60
-0.345983 0.135052 0.20353 107 199 63
-0.343945 0.135372 0.204007 110 202 63
-0.342506 0.135921 0.204205 114 200 65
-0.339067 0.135659 0.205355 116 201 67
-0.335974 0.135516 0.20635 117 204 69
-0.333481 0.135601 0.207065 118 206 69
-0.331559 0.13591 0.207512 119 205 66
-0.330728 0.13667 0.207436 118 204 66
-0.329627 0.137315 0.207491 116 201 67
-0.328529 0.137959 0.207545 112 198 68
-0.327698 0.138718 0.20747 111 192 63
-0.326602 0.13936 0.207524 94 180 60
-0.325771 0.140119 0.207449 75 169 54
-0.324678 0.14076 0.207503 64 160 47
-0.323847 0.141518 0.207427 68 152 42
-0.323016 0.142277 0.207352 81 162 46
-0.322185 0.143036 0.207276 93 170 53
-0.321353 0.143795 0.207201 99 178 58
-0.320007 0.144312 0.207385 102 185 61
-0.318413 0.144706 0.207696 103 188 63
-0.317332 0.14534 0.20775 103 189 63
-0.316253 0.145973 0.207803 98 185 61
-0.31443 0.146239 0.208239 123 194 64
-0.314598 0.147484 0.207653 133 203 72
-0.294106 0.146079 0.214437 125 200 74
-0.292902 0.146561 0.214594 104 171 72
-0.292123 0.147272 0.214523 86 144 65
-0.291765 0.148216 0.214225 81 141 63
-0.300631 0.156758 0.207878 80 138 61
-0.299807 0.157511 0.207804 82 136 61
-0.298982 0.158264 0.207729 82 134 61
-0.298387 0.159152 0.207527 58 108 58
-0.297561 0.159906 0.207452 41 49 27
-0.349311 0.119891 0.20775 123 172 61
-0.348485 0.120645 0.207675 132 222 85
-0.347658 0.121399 0.207599 119 213 77
-0.347408 0.122351 0.207263 110 205 71
-0.346579 0.123107 0.207187 104 199 66
-0.346037 0.123964 0.206981 101 196 62
-0.346939 0.125333 0.206111 99 192 60
-0.35447 0.129082 0.202186 98 189 59
-0.355153 0.130428 0.201394 96 190 61
-0.354284 0.13122 0.201315 99 191 61
-0.353415 0.132013 0.201236 106 196 64
-0.352546 0.132807 0.201157 109 202 67
-0.35137 0.133485 0.201221 98 201 68
-0.350501 0.134278 0.201142 95 192 63
-0.348722 0.134721 0.201493 98 191 60
-0.34606 0.134812 0.202265 105 198 60
-0.343726 0.135018 0.202888 109 203 64
-0.342869 0.1358 0.20281 111 201 67
-0.341431 0.136349 0.20301 113 202 68
-0.335759 0.13517 0.205253 115 204 67
-0.332178 0.134809 0.206502 117 207 66
-0.331077 0.135455 0.206557 119 205 65
-0.330246 0.136214 0.206482 120 202 64
-0.329147 0.136859 0.206537 118 200 65
-0.32805 0.137503 0.206592 114 200 65
-0.32722 0.13826 0.206516 121 204 67
-0.326389 0.139018 0.206441 94 185 63
-0.325558 0.139777 0.206365 74 167 55
-0.324727 0.140536 0.206289 70 158 47
-0.323895 0.141295 0.206214 85 164 46
-0.322803 0.141935 0.206269 95 177 56
-0.321972 0.142694 0.206193 102 184 60
-0.32114 0.143453 0.206118 106 189 61
-0.319795 0.143971 0.206303 108 193 63
-0.317948 0.144245 0.206748 111 197 65
-0.316868 0.144879 0.206802 113 200 67
-0.315043 0.145149 0.207242 111 201 65
-0.313725 0.145658 0.207423 131 206 67
-0.312902 0.146409 0.207348 133 210 76
-0.293693 0.145646 0.21354 111 187 74
-0.292913 0.146358 0.213469 91 151 66
-0.292134 0.147069 0.213398 82 143 62
-0.301244 0.15567 0.206885 82 140 61
-0.30042 0.156423 0.20681 82 140 61
-0.299596 0.157175 0.206735 80 137 63
-0.298771 0.157928 0.20666 70 126 62
-0.297946 0.158681 0.206584 37 69 44
-0.347696 0.12011 0.206854 137 199 69
-0.346871 0.120863 0.206778 123 212 80
-0.346046 0.121616 0.206703 113 210 77
-0.345221 0.122369 0.206627 106 199 66
-0.344395 0.123123 0.206552 102 198 63
-0.344137 0.124076 0.206214 99 192 62
-0.345599 0.125647 0.205074 96 189 61
-0.353386 0.129512 0.200978 96 189 58
-0.353753 0.130748 0.200323 95 191 61
-0.352885 0.13154 0.200244 101 194 62
-0.352016 0.132332 0.200164 106 199 64
-0.351147 0.133125 0.200085 105 205 69
-0.34967 0.133687 0.200295 97 196 66
-0.3485 0.134362 0.20036 96 193 61
-0.346137 0.134572 0.200997 100 194 59
-0.343507 0.134664 0.201768 108 200 63
-0.34265 0.135446 0.20169 111 203 67
-0.34296 0.136698 0.201046 112 205 68
-0.337504 0.135618 0.203202 114 207 66
-0.331694 0.134355 0.205549 118 208 64
-0.330326 0.13489 0.205737 121 206 66
-0.329497 0.135646 0.205661 121 204 66
-0.328667 0.136403 0.205585 117 202 66
-0.327837 0.137161 0.205509 113 200 66
-0.327007 0.137918 0.205433 124 204 68
-0.326176 0.138676 0.205358 96 185 64
-0.325345 0.139435 0.205282 80 169 56
-0.324514 0.140193 0.205206 82 166 52
-0.323682 0.140952 0.20513 98 178 55
-0.32285 0.141712 0.205054 103 189 59
-0.321759 0.142352 0.20511 107 192 61
-0.320927 0.143111 0.205034 110 194 63
-0.319582 0.14363 0.205222 113 199 66
-0.317736 0.143905 0.205671 118 204 68
-0.316155 0.144299 0.205986 124 206 69
-0.314584 0.144691 0.206299 120 207 70
-0.313514 0.145321 0.206353 139 212 70
-0.292925 0.146154 0.212341 83 143 63
-0.301033 0.155334 0.205816 82 139 59
-0.300208 0.156087 0.205741 83 137 62
-0.299384 0.156839 0.205666 77 121 65
-0.298559 0.157592 0.20559 53 78 57
-0.346374 0.120424 0.205829 128 192 73
-0.34555 0.121176 0.205753 121 207 77
-0.344725 0.121929 0.205678 108 203 71
-0.3439 0.122681 0.205602 104 194 62
-0.343358 0.123534 0.205394 99 191 61
-0.343097 0.124489 0.205053 95 190 60
-0.344549 0.126063 0.203903 93 189 59
-0.351996 0.129831 0.199912 94 190 60
-0.352048 0.130955 0.199399 95 191 60
-0.351182 0.131746 0.19932 99 193 62
-0.350315 0.132537 0.19924 107 200 65
-0.349145 0.133213 0.199306 102 200 66
-0.347376 0.133658 0.199661 97 195 63
-0.345916 0.134215 0.19987 96 191 60
-0.343873 0.13454 0.200364 103 194 60
-0.343601 0.135556 0.199999 109 203 65
-0.330674 0.133681 0.204863 119 207 66
-0.329846 0.134437 0.204787 120 206 68
-0.328751 0.135081 0.204843 120 205 68
-0.327924 0.135837 0.204768 116 203 68
-0.327095 0.136592 0.204692 113 201 67
-0.32653 0.137462 0.204483 124 206 66
-0.3257 0.138219 0.204407 96 186 65
-0.325133 0.139093 0.204198 83 173 58
-0.324301 0.139851 0.204122 88 174 55
-0.323469 0.14061 0.204046 102 187 60
-0.322377 0.141252 0.204103 106 191 63
-0.321546 0.14201 0.204027 108 193 62
-0.320456 0.14265 0.204083 113 199 65
-0.319114 0.143169 0.204273 121 207 69
-0.316768 0.143208 0.204988 132 213 73
-0.315196 0.143602 0.205304 147 209 74
-0.313879 0.144114 0.205488 129 211 77
-0.313303 0.144984 0.205283 142 216 75
-0.301413 0.154117 0.204953 81 139 60
-0.30059 0.154868 0.204878 82 137 60
-0.299997 0.15575 0.204672 76 131 61
-0.299172 0.156503 0.204597 58 103 53
-0.345054 0.120738 0.204806 121 195 72
-0.34423 0.121489 0.20473 114 207 77
-0.343689 0.122339 0.204521 102 192 67
-0.342863 0.123092 0.204446 98 191 63
-0.342319 0.123945 0.204236 94 189 61
-0.342056 0.124901 0.203892 90 186 60
-0.343499 0.12648 0.202732 91 185 58
-0.3491 0.129599 0.199571 90 186 59
-0.349745 0.130937 0.19877 93 188 60
-0.348882 0.131725 0.19869 99 191 59
-0.348019 0.132513 0.198611 103 197 62
-0.346558 0.133072 0.198822 99 196 63
-0.343925 0.133174 0.199607 95 192 62
-0.343654 0.134185 0.199242 95 189 59
-0.343675 0.135317 0.198729 104 199 62
-0.330462 0.13334 0.203782 119 207 68
-0.329367 0.133985 0.203839 119 209 69
-0.328274 0.134629 0.203896 119 207 70
-0.327447 0.135384 0.20382 115 202 69
-0.326619 0.136139 0.203744 111 200 69
-0.326054 0.137007 0.203535 121 209 68
-0.325225 0.137763 0.203459 93 188 65
-0.324396 0.13852 0.203382 83 175 58
-0.323566 0.139277 0.203306 90 177 56
-0.322736 0.140034 0.20323 105 190 60
-0.321905 0.140792 0.203154 106 194 65
-0.321075 0.14155 0.203077 112 196 67
-0.319731 0.142071 0.203269 123 211 71
-0.317886 0.142353 0.203725 131 226 78
-0.315807 0.142514 0.204309 134 234 85
-0.314489 0.143028 0.204495 133 232 89
-0.313668 0.143777 0.20442 126 222 88
-0.313092 0.144646 0.204213 140 217 82
-0.301792 0.152903 0.204092 82 140 60
-0.30097 0.153653 0.204016 82 138 61
-0.300378 0.154532 0.20381 79 136 63
-0.299785 0.155414 0.203603 63 109 55
-0.343736 0.121051 0.203784 124 200 70
-0.342913 0.121802 0.203708 110 203 75
-0.34237 0.122651 0.203499 102 196 67
-0.341826 0.123503 0.203288 95 191 61
-0.341281 0.124357 0.203077 91 189 59
-0.341015 0.125314 0.202731 87 186 60
-0.342448 0.126896 0.20156 86 185 59
-0.345655 0.129152 0.199519 88 185 57
-0.346867 0.130698 0.198436 92 187 56
-0.346009 0.13148 0.198357 99 191 59
-0.344562 0.132039 0.198567 102 195 62
-0.343121 0.132595 0.198776 99 196 64
-0.342557 0.133488 0.198553 91 192 62
-0.33025 0.132998 0.202701 117 209 68
-0.328889 0.133534 0.202893 122 211 69
-0.327533 0.134068 0.203085 118 208 68
-0.326708 0.134821 0.203009 112 202 68
-0.325882 0.135574 0.202933 110 201 69
-0.32558 0.136553 0.202588 119 209 69
-0.324751 0.137308 0.202512 93 187 63
-0.323923 0.138064 0.202436 85 175 57
-0.322834 0.138705 0.202494 92 178 57
-0.321748 0.139345 0.202552 105 190 61
-0.320663 0.139985 0.20261 106 195 67
-0.319581 0.140623 0.202667 122 208 70
-0.318501 0.14126 0.202725 133 222 78
-0.316169 0.14131 0.203446 142 239 88
-0.314852 0.141825 0.203634 146 250 94
-0.314032 0.142573 0.203558 133 237 86
-0.313212 0.143322 0.203483 126 223 81
-0.301937 0.151565 0.203364 82 140 62
-0.301349 0.15244 0.203157 82 138 65
-0.300759 0.153317 0.20295 84 136 67
-0.299936 0.154067 0.202874 70 110 64
-0.342421 0.121363 0.202764 125 203 78
-0.341878 0.122211 0.202553 110 201 73
-0.341334 0.123062 0.202342 100 197 68
-0.340789 0.123914 0.20213 94 192 62
-0.340241 0.124769 0.201918 90 191 60
-0.339693 0.125625 0.201705 88 188 59
-0.340829 0.127105 0.200665 87 186 58
-0.343423 0.129143 0.1989 89 186 57
-0.344612 0.130682 0.197816 93 188 59
-0.343757 0.131462 0.197737 101 193 61
-0.341743 0.131795 0.198236 103 197 64
-0.341468 0.132796 0.197869 99 198 67
-0.330038 0.132656 0.20162 109 205 65
-0.328147 0.132975 0.202084 119 207 67
-0.327059 0.133619 0.202143 113 205 66
-0.325972 0.134261 0.202201 106 200 65
-0.325148 0.135012 0.202125 105 200 66
-0.324584 0.135876 0.201914 117 207 65
-0.323758 0.136629 0.201838 91 188 60
-0.322932 0.137382 0.201761 84 177 56
-0.321591 0.137908 0.201954 92 180 56
-0.320511 0.138547 0.202012 105 190 61
-0.318673 0.138841 0.202471 109 197 66
-0.317852 0.13959 0.202395 122 212 72
-0.31678 0.140224 0.202453 126 217 72
-0.315462 0.140741 0.202642 130 224 74
-0.314149 0.141257 0.202831 134 235 82
-0.313331 0.142003 0.202756 131 244 91
-0.313001 0.142985 0.202415 116 217 75
-0.302314 0.150358 0.202507 82 140 67
-0.301495 0.151104 0.202432 83 138 68
-0.300907 0.151978 0.202224 85 134 72
-0.300317 0.152854 0.202016 76 112 68
-0.341387 0.121772 0.20161 124 201 77
-0.340843 0.122621 0.201398 116 206 74
-0.340297 0.123472 0.201185 104 201 67
-0.33975 0.124325 0.200971 99 196 62
-0.339201 0.125181 0.200757 96 193 61
-0.338651 0.126038 0.200543 95 191 59
-0.339779 0.127521 0.199494 96 189 58
-0.340639 0.12892 0.198571 98 189 57
-0.340651 0.130012 0.198065 98 192 60
-0.339805 0.130783 0.197987 101 195 64
-0.33896 0.131555 0.197908 104 199 66
-0.327672 0.132527 0.201143 103 197 64
-0.324763 0.132415 0.202143 101 198 63
-0.324203 0.133269 0.201934 93 192 62
-0.323642 0.134125 0.201724 95 193 61
-0.323079 0.134982 0.201513 112 204 60
-0.322257 0.135732 0.201437 88 187 59
-0.320925 0.136258 0.20163 82 179 56
-0.320105 0.137006 0.201554 91 183 57
-0.319031 0.137642 0.201612 102 192 60
-0.31771 0.138164 0.201803 106 200 66
-0.316891 0.13891 0.201727 116 210 70
-0.315823 0.139543 0.201785 119 212 70
-0.314758 0.140175 0.201842 122 215 71
-0.313694 0.140805 0.201899 124 221 73
-0.313121 0.141667 0.20169 120 221 74
-0.312791 0.142649 0.201347 102 209 68
-0.302923 0.149277 0.201521 87 144 70
-0.301872 0.149899 0.201577 87 140 70
-0.301054 0.150645 0.201502 88 137 71
-0.300466 0.151517 0.201293 79 114 71
-0.340353 0.122182 0.200455 126 207 76
-0.339807 0.123031 0.200241 119 212 76
-0.33926 0.123883 0.200027 110 205 68
-0.338711 0.124737 0.199812 106 202 65
-0.338161 0.125593 0.199597 103 200 64
-0.337609 0.126451 0.199381 102 198 63
-0.337889 0.127624 0.198745 102 198 60
-0.337612 0.128595 0.198386 102 200 62
-0.336776 0.129357 0.198308 103 199 64
-0.336495 0.130335 0.197947 103 199 65
-0.325371 0.131333 0.201152 89 187 61
-0.324039 0.131865 0.201344 83 189 59
-0.323223 0.132609 0.201269 76 183 59
-0.322662 0.133462 0.201058 87 190 60
-0.321844 0.134207 0.200982 110 204 61
-0.321026 0.134953 0.200906 87 186 60
-0.319702 0.135479 0.201099 80 180 57
-0.318885 0.136224 0.201023 89 183 57
-0.318068 0.136969 0.200947 101 192 61
-0.317001 0.137602 0.201005 109 204 67
-0.316183 0.138348 0.200929 121 216 70
-0.314872 0.138866 0.201121 128 218 72
-0.313811 0.139497 0.201178 133 218 73
-0.312995 0.14024 0.201103 131 218 73
-0.312911 0.141331 0.200625 117 215 72
-0.303765 0.148319 0.2004 98 144 73
-0.302713 0.148943 0.200458 97 143 73
-0.301663 0.149565 0.200516 97 137 72
-0.300844 0.150311 0.20044 86 116 69
-0.339318 0.122591 0.1993 130 214 79
-0.338771 0.123442 0.199084 126 219 80
-0.337945 0.124194 0.199007 118 214 75
-0.337395 0.125048 0.198791 111 209 71
-0.336568 0.125802 0.198714 109 206 68
-0.33574 0.126556 0.198637 112 205 64
-0.335186 0.127414 0.19842 111 207 66
-0.334357 0.12817 0.198343 110 208 68
-0.333527 0.128927 0.198265 109 208 69
-0.332697 0.129683 0.198188 108 208 71
-0.325979 0.130251 0.200161 101 201 71
-0.324646 0.130785 0.200356 95 193 63
-0.323573 0.131423 0.200414 80 191 60
-0.322758 0.132166 0.200338 73 185 61
-0.321688 0.132803 0.200397 89 195 63
-0.321126 0.133654 0.200186 109 208 65
-0.32031 0.134398 0.20011 84 185 61
-0.319241 0.135033 0.200169 78 181 57
-0.318175 0.135667 0.200228 94 183 57
-0.317359 0.136411 0.200151 115 198 64
-0.316295 0.137044 0.20021 130 223 75
-0.315479 0.137787 0.200134 144 235 79
-0.314417 0.138418 0.200193 141 236 83
-0.312385 0.138598 0.200786 134 231 82
-0.312786 0.139905 0.20004 123 226 79
-0.312457 0.14088 0.199694 107 218 73
-0.305901 0.146856 0.199083 95 146 75
-0.304608 0.14736 0.199277 95 144 75
-0.303321 0.147862 0.199471 94 141 74
-0.302503 0.148608 0.199395 91 135 75
-0.301453 0.149231 0.199454 79 111 70
-0.338283 0.123001 0.198144 136 218 81
-0.337734 0.123852 0.197927 130 220 82
-0.336633 0.124505 0.197989 122 218 78
-0.335534 0.125157 0.198052 117 214 72
-0.334709 0.125909 0.197975 116 210 67
-0.333883 0.126661 0.197897 115 211 69
-0.333057 0.127414 0.19782 114 213 71
-0.331693 0.127959 0.198022 113 215 73
-0.330601 0.128607 0.198084 112 216 73
-0.329245 0.129149 0.198285 120 215 74
-0.326587 0.129169 0.199171 125 214 79
-0.324994 0.129602 0.199503 121 213 80
-0.324179 0.130344 0.199427 106 210 75
-0.323109 0.130982 0.199486 96 202 67
-0.322294 0.131724 0.19941 93 198 64
-0.321479 0.132467 0.199334 104 206 67
-0.320664 0.13321 0.199257 108 209 68
-0.319848 0.133954 0.199181 83 184 61
-0.318781 0.134589 0.199241 76 182 58
-0.317716 0.135222 0.1993 107 191 60
-0.316901 0.135965 0.199224 133 213 70
-0.315839 0.136598 0.199283 146 238 83
-0.314778 0.137229 0.199342 158 247 90
-0.312988 0.137525 0.199805 148 248 95
-0.312177 0.138265 0.199729 129 237 89
-0.312091 0.139343 0.199249 112 225 79
-0.306511 0.145772 0.198093 86 144 69
-0.305218 0.146278 0.198289 87 136 69
-0.304398 0.147025 0.198213 87 137 70
-0.303111 0.147528 0.198409 80 136 69
-0.302061 0.148151 0.198468 66 100 65
-0.337247 0.123411 0.196987 134 209 78
-0.336147 0.124064 0.19705 135 217 80
-0.334778 0.124615 0.197254 132 219 78
-0.333683 0.125265 0.197316 123 216 73
-0.332323 0.125813 0.197518 118 211 71
-0.330701 0.126258 0.197858 115 213 71
-0.329353 0.126802 0.198058 113 215 71
-0.328273 0.127445 0.198119 114 216 72
-0.326934 0.127985 0.198318 119 213 73
-0.325342 0.128421 0.198652 124 217 77
-0.324272 0.129059 0.198712 125 218 81
-0.323458 0.1298 0.198636 122 215 81
-0.322645 0.130542 0.19856 112 216 72
-0.322085 0.131389 0.198347 107 213 69
-0.321017 0.132025 0.198407 112 216 69
-0.320455 0.132874 0.198194 108 210 67
-0.319388 0.13351 0.198254 83 185 60
-0.318322 0.134145 0.198314 79 183 58
-0.317259 0.134778 0.198374 111 208 66
-0.316444 0.13552 0.198298 130 223 74
-0.31563 0.136263 0.198222 137 227 79
-0.313835 0.136563 0.198689 146 234 84
-0.312781 0.137192 0.198749 140 238 92
-0.311007 0.137488 0.199212 121 227 82
-0.311158 0.138671 0.198596 104 215 72
-0.306301 0.145436 0.197026 94 144 70
-0.305244 0.146063 0.197087 89 137 71
-0.304188 0.14669 0.197148 71 132 66
-0.303135 0.147315 0.197209 53 92 49
-0.33539 0.123525 0.196254 137 195 74
-0.334025 0.124076 0.196459 142 210 81
-0.332665 0.124626 0.196662 136 220 82
-0.330779 0.124974 0.197144 128 217 79
-0.329434 0.125519 0.197344 120 214 75
-0.328094 0.126062 0.197544 115 213 71
-0.32676 0.126603 0.197743 113 213 70
-0.324661 0.126841 0.198351 112 212 70
-0.32309 0.127276 0.198682 114 214 72
-0.322283 0.128011 0.198606 116 214 73
-0.322486 0.129156 0.197986 116 215 74
-0.322182 0.130102 0.197635 112 218 74
-0.321369 0.130843 0.197559 113 218 72
-0.320808 0.13169 0.197345 117 220 72
-0.319994 0.132432 0.197268 106 210 68
-0.318928 0.133067 0.197329 82 187 62
-0.318113 0.133809 0.197252 82 183 59
-0.31705 0.134443 0.197313 106 208 69
-0.315742 0.134968 0.197511 119 214 71
-0.314929 0.135708 0.197435 125 212 69
-0.313627 0.13623 0.197632 127 216 70
-0.311128 0.136201 0.198505 124 216 76
-0.309846 0.136717 0.198698 111 216 70
-0.309515 0.137671 0.198353 104 204 66
-0.307149 0.144471 0.195897 92 143 72
-0.306328 0.14522 0.19582 91 141 72
-0.305269 0.145848 0.195882 70 136 73
-0.304213 0.146475 0.195944 49 88 41
-0.331121 0.123794 0.196292 141 202 82
-0.329777 0.124341 0.196494 141 221 83
-0.328177 0.124787 0.196834 129 217 81
-0.326587 0.12523 0.197172 121 214 76
-0.324751 0.125572 0.197644 116 212 70
-0.323183 0.12601 0.197977 112 212 69
-0.321875 0.126545 0.198172 111 210 69
-0.321071 0.127277 0.198096 109 209 70
-0.320517 0.12811 0.197884 108 209 71
-0.321215 0.129457 0.196988 108 212 70
-0.320908 0.130403 0.196636 112 216 70
-0.320347 0.131249 0.196421 118 222 76
-0.319534 0.13199 0.196344 107 212 74
-0.318719 0.132732 0.196267 83 188 62
-0.317656 0.133367 0.196329 81 184 58
-0.316594 0.134001 0.19639 105 207 67
-0.315288 0.134525 0.19659 116 212 69
-0.314721 0.135374 0.196375 119 211 67
-0.311968 0.135243 0.197395 121 212 66
-0.310444 0.135653 0.197726 120 214 70
-0.30893 0.136061 0.198055 108 215 70
-0.307425 0.136466 0.198381 116 201 65
-0.306939 0.144135 0.194829 85 139 69
-0.306117 0.144884 0.194752 80 125 69
-0.305295 0.145633 0.194674 52 87 63
-0.328259 0.123517 0.196128 138 192 68
-0.326673 0.123963 0.196467 135 211 79
-0.324586 0.124212 0.197078 129 217 79
-0.323528 0.124848 0.197138 121 215 74
-0.322221 0.125384 0.197335 114 211 69
-0.32067 0.12582 0.197666 111 209 68
-0.31987 0.126549 0.19759 109 207 69
-0.319069 0.127279 0.197514 108 207 69
-0.319506 0.128512 0.196757 107 211 66
-0.320197 0.129861 0.195854 109 211 68
-0.319887 0.130809 0.195498 118 220 74
-0.319074 0.131549 0.195421 107 210 70
-0.318261 0.13229 0.195344 85 189 61
-0.317447 0.133032 0.195267 79 184 57
-0.316633 0.133773 0.19519 109 205 63
-0.31508 0.134191 0.195531 118 210 65
-0.314023 0.134823 0.195593 120 211 66
-0.313211 0.135562 0.195516 121 213 66
-0.310238 0.135323 0.196678 119 217 69
-0.305933 0.134453 0.198616 112 215 71
-0.304001 0.134648 0.1992 121 204 68
-0.302089 0.134841 0.199777 110 179 65
-0.300637 0.135242 0.200091 90 153 63
-0.30755 0.143051 0.193839 81 137 62
-0.306728 0.143799 0.193761 75 129 64
-0.305906 0.144547 0.193683 60 102 58
-0.325184 0.123148 0.196103 133 184 64
-0.323873 0.123687 0.196302 133 209 76
-0.322567 0.124225 0.1965 125 218 78
-0.321265 0.124761 0.196697 117 212 71
-0.319722 0.125198 0.197028 114 211 68
-0.318188 0.125633 0.197358 113 210 68
-0.317392 0.126358 0.197283 112 211 68
-0.316839 0.127181 0.197072 110 213 67
-0.317507 0.128509 0.196179 109 212 70
-0.318928 0.130162 0.194858 120 221 74
-0.318616 0.13111 0.194501 105 208 70
-0.318052 0.131955 0.194283 82 189 63
-0.317238 0.132697 0.194206 76 182 56
-0.316424 0.133438 0.194129 109 204 59
-0.304588 0.133605 0.198247 116 216 71
-0.302225 0.133597 0.19909 113 200 73
-0.300998 0.134103 0.199275 100 169 67
-0.299995 0.134712 0.199331 86 145 60
-0.299213 0.135424 0.199256 80 143 60
-0.308981 0.141219 0.192927 81 140 60
-0.30816 0.141966 0.192849 81 136 61
-0.307339 0.142714 0.192771 82 132 62
-0.306517 0.143462 0.192693 69 115 63
-0.32266 0.122974 0.195804 136 183 68
-0.321362 0.123511 0.196002 137 211 77
-0.319822 0.123951 0.196335 124 215 79
-0.318291 0.124388 0.196666 117 212 71
-0.316769 0.124823 0.196995 115 212 69
-0.315736 0.125448 0.197054 115 214 68
-0.314945 0.126168 0.196978 114 216 69
-0.315354 0.127381 0.196228 113 216 71
-0.31601 0.128707 0.195331 126 225 75
-0.315452 0.129538 0.195117 106 209 73
-0.317595 0.131515 0.193364 84 186 65
-0.31703 0.132362 0.193144 90 180 54
-0.302808 0.132562 0.198144 121 216 75
-0.301579 0.13307 0.198331 108 191 74
-0.300576 0.133679 0.198387 95 158 67
-0.299794 0.134391 0.198313 85 141 60
-0.299012 0.135103 0.198239 80 140 59
-0.308771 0.140882 0.191859 81 135 61
-0.30795 0.14163 0.191781 80 130 64
-0.307128 0.142378 0.191703 83 128 63
-0.306545 0.143244 0.191481 66 99 62
-0.305722 0.143993 0.191402 42 63 47
-0.320167 0.122804 0.195508 131 198 77
-0.318637 0.123243 0.195841 123 220 88
-0.317115 0.123681 0.196172 118 212 74
-0.316084 0.124306 0.196231 116 210 70
-0.315054 0.12493 0.196291 116 212 69
-0.314264 0.125649 0.196215 118 217 70
-0.31395 0.126563 0.19587 122 222 73
-0.314354 0.127778 0.195113 133 229 77
-0.314761 0.129005 0.194348 115 212 74
-0.317387 0.13118 0.192303 105 196 66
-0.301938 0.131936 0.197519 135 217 78
-0.300936 0.132545 0.197576 109 183 75
-0.300155 0.133256 0.197501 93 154 65
-0.299374 0.133967 0.197427 84 139 58
-0.298593 0.134679 0.197352 81 137 58
-0.30856 0.140546 0.190792 80 130 61
-0.307739 0.141293 0.190713 76 128 65
-0.306918 0.142041 0.190635 83 126 64
-0.306334 0.142907 0.190411 64 88 56
-0.305511 0.143656 0.190332 40 52 38
-0.317704 0.122635 0.195215 130 212 76
-0.31643 0.123167 0.195411 121 210 71
-0.315401 0.123791 0.195471 116 208 69
-0.314613 0.124509 0.195395 122 213 72
-0.313823 0.125227 0.19532 129 222 77
-0.313271 0.126043 0.195108 132 230 81
-0.31415 0.127449 0.194073 134 230 82
-0.314556 0.128675 0.193303 127 218 77
-0.314238 0.129608 0.192946 122 207 70
-0.3033 0.130194 0.196652 114 197 70
-0.302519 0.130904 0.196577 111 189 70
-0.301295 0.131414 0.196766 121 181 68
-0.300515 0.132124 0.196692 104 175 76
-0.299735 0.132834 0.196617 91 151 66
-0.298955 0.133544 0.196542 83 137 59
-0.298392 0.134358 0.196335 80 134 59
-0.30835 0.140209 0.189724 79 129 58
-0.307529 0.140957 0.189645 80 125 58
-0.306707 0.141705 0.189566 83 125 60
-0.306361 0.142688 0.189194 65 73 45
-0.305537 0.143438 0.189116 42 43 30
-0.317017 0.122123 0.194456 128 195 67
-0.315988 0.122748 0.194517 117 209 74
-0.31496 0.123371 0.194577 119 206 68
-0.314172 0.124089 0.194502 130 222 82
-0.313384 0.124806 0.194426 133 231 92
-0.313069 0.125717 0.194077 127 224 90
-0.313228 0.126826 0.19345 119 207 80
-0.313149 0.127846 0.192957 113 199 75
-0.313309 0.128974 0.192321 109 185 66
-0.302654 0.129675 0.195901 75 148 50
-0.301875 0.130384 0.195826 82 143 49
-0.301095 0.131094 0.195751 109 153 53
-0.300095 0.131703 0.195809 104 174 73
-0.299316 0.132412 0.195734 93 151 66
-0.298755 0.133224 0.195526 86 139 62
-0.297974 0.133935 0.195451 83 134 62
-0.308139 0.139873 0.188656 81 130 61
-0.307557 0.140736 0.188429 84 124 55
-0.306735 0.141484 0.18835 86 126 59
-0.306149 0.14235 0.188123 66 71 40
-0.305325 0.1431 0.188044 44 45 26
-0.315547 0.122329 0.193624 113 203 72
-0.31452 0.122953 0.193686 111 198 63
-0.313733 0.123669 0.19361 105 189 64
-0.313182 0.124481 0.193396 94 172 61
-0.312629 0.125295 0.193183 82 150 53
-0.312787 0.126402 0.192553 74 135 45
-0.31223 0.127222 0.192337 68 125 40
-0.311672 0.128045 0.192121 75 130 39
-0.311113 0.128869 0.191904 88 144 46
-0.302454 0.129355 0.194886 58 124 39
-0.301454 0.129965 0.194944 72 129 40
-0.300675 0.130674 0.194869 100 146 48
-0.299896 0.131383 0.194794 104 183 74
-0.298898 0.131991 0.194853 95 154 68
-0.298336 0.132802 0.194644 89 140 64
-0.297774 0.133614 0.194435 86 136 63
-0.307929 0.139536 0.187587 84 133 63
-0.307346 0.140399 0.18736 83 127 60
-0.306524 0.141147 0.18728 85 125 63
-0.305938 0.142013 0.187052 62 72 43
-0.305114 0.142763 0.186973 42 50 26
-0.315106 0.121912 0.192733 110 199 71
-0.314319 0.122628 0.192657 100 186 62
-0.313531 0.123344 0.192581 90 175 58
-0.31298 0.124156 0.192367 76 158 53
-0.312191 0.124874 0.192291 62 140 47
-0.312346 0.125978 0.191657 49 126 40
-0.312027 0.126895 0.1913 37 120 30
-0.311468 0.127717 0.191083 44 111 23
-0.310909 0.128541 0.190865 56 105 19
-0.310584 0.129468 0.190505 63 107 23
-0.302254 0.129035 0.193871 64 134 44
-0.301254 0.129645 0.19393 77 143 47
-0.300475 0.130354 0.193855 95 156 54
-0.299477 0.130963 0.193914 109 191 75
-0.298698 0.131672 0.193839 99 156 68
-0.297919 0.132381 0.193764 91 144 65
-0.297356 0.133192 0.193554 87 141 65
-0.307718 0.1392 0.186519 85 137 64
-0.307135 0.140062 0.18629 84 130 62
-0.306313 0.14081 0.18621 88 129 63
-0.305727 0.141676 0.185981 57 76 54
-0.304903 0.142426 0.185901 35 55 31
-0.314904 0.121587 0.191705 108 193 69
-0.314117 0.122303 0.191629 94 179 63
-0.313329 0.123019 0.191553 85 170 56
-0.312542 0.123736 0.191476 75 157 51
-0.311989 0.124548 0.19126 65 144 47
-0.312143 0.125651 0.190623 54 132 44
-0.311823 0.126567 0.190263 45 121 39
-0.311739 0.127587 0.18976 35 117 27
-0.311178 0.128412 0.18954 33 114 22
-0.310379 0.129139 0.189463 43 118 27
-0.309816 0.129968 0.189242 66 139 43
-0.306455 0.129582 0.190724 75 145 46
-0.302277 0.128812 0.19272 81 154 51
-0.301054 0.129325 0.192916 86 160 54
-0.299837 0.129837 0.193111 96 169 59
-0.299059 0.130544 0.193036 112 188 71
-0.298281 0.131252 0.19296 101 158 67
-0.297502 0.13196 0.192885 92 148 66
-0.29694 0.13277 0.192674 89 145 65
-0.307508 0.138863 0.18545 88 142 64
-0.306924 0.139725 0.18522 87 136 63
-0.306102 0.140473 0.18514 90 132 66
-0.305516 0.141338 0.184909 56 83 60
-0.304691 0.142088 0.184829 35 55 35
-0.314703 0.121262 0.190677 108 184 65
-0.313678 0.121886 0.190741 92 177 64
-0.312891 0.122602 0.190664 85 167 55
-0.31234 0.123411 0.190447 76 157 51
-0.311787 0.124223 0.19023 67 147 49
-0.312414 0.125517 0.189304 60 137 46
-0.312332 0.126533 0.188797 52 129 42
-0.311772 0.127357 0.188576 41 122 38
-0.310973 0.128083 0.188498 39 115 33
-0.310174 0.12881 0.188421 56 125 34
-0.309375 0.129538 0.188343 87 157 47
-0.306253 0.129257 0.189692 87 169 59
-0.302077 0.128492 0.191703 90 170 57
-0.300855 0.129005 0.191901 92 171 57
-0.299637 0.129517 0.192098 101 178 61
-0.298859 0.130225 0.192023 116 184 66
-0.297864 0.130833 0.192083 102 159 68
-0.297086 0.131541 0.192008 95 153 68
-0.29674 0.13245 0.191659 92 150 67
-0.307297 0.138526 0.184382 91 147 66
-0.306713 0.139387 0.18415 89 143 66
-0.305891 0.140136 0.18407 91 137 67
-0.305304 0.141001 0.183838 57 91 66
-0.30448 0.141751 0.183757 38 57 35
-0.314263 0.120846 0.18979 107 174 61
-0.313477 0.121561 0.189713 92 177 66
-0.31269 0.122277 0.189636 85 166 55
-0.311902 0.122993 0.18956 76 159 51
-0.311584 0.123897 0.1892 69 150 49
-0.31221 0.125189 0.188267 64 141 47
-0.312366 0.126302 0.187612 58 137 44
-0.311567 0.127028 0.187534 50 127 41
-0.310769 0.127755 0.187457 49 120 39
-0.309969 0.128481 0.187379 68 135 42
-0.307535 0.128508 0.18831 101 169 50
-0.30605 0.128931 0.18866 102 180 60
-0.303442 0.128856 0.189713 102 180 57
-0.300876 0.128783 0.190749 102 180 58
-0.299438 0.129198 0.191085 110 183 61
-0.298442 0.129807 0.191147 121 181 65
-0.297665 0.130514 0.191071 104 164 69
-0.296887 0.131221 0.190995 98 157 68
-0.296109 0.131929 0.190919 95 152 69
-0.307086 0.138189 0.183313 93 149 68
-0.306502 0.13905 0.18308 93 146 67
-0.305679 0.139799 0.183 91 138 68
-0.304856 0.140548 0.182919 58 103 73
-0.304268 0.141413 0.182685 37 59 34
-0.313825 0.12043 0.188904 107 165 61
-0.313039 0.121145 0.188827 92 178 66
-0.312253 0.12186 0.18875 83 165 55
-0.311466 0.122575 0.188674 77 160 51
-0.310913 0.123384 0.188454 71 153 49
-0.311297 0.124575 0.187662 66 145 46
-0.311212 0.125585 0.187152 64 143 43
-0.311363 0.126699 0.186493 57 135 42
-0.310564 0.127426 0.186414 53 128 43
-0.309294 0.127953 0.186628 76 145 46
-0.307331 0.128182 0.187275 107 174 53
-0.305847 0.128605 0.187628 105 188 64
-0.304144 0.128928 0.188122 105 188 60
-0.301118 0.128658 0.189454 104 189 63
-0.299457 0.128976 0.189934 112 187 64
-0.29846 0.129586 0.189996 119 182 65
-0.297682 0.130294 0.18992 105 173 73
-0.296688 0.130902 0.189982 99 158 68
-0.296124 0.13171 0.189768 96 154 69
-0.306876 0.137852 0.182244 96 152 69
-0.306291 0.138713 0.182009 96 148 68
-0.305468 0.139462 0.181929 90 140 69
-0.304645 0.14021 0.181848 58 118 79
-0.303821 0.140959 0.181768 39 62 31
-0.313387 0.120016 0.18802 108 156 58
-0.312602 0.12073 0.187943 93 179 66
-0.311582 0.121353 0.188008 82 164 57
-0.310797 0.122066 0.187931 77 160 52
-0.310477 0.122966 0.187569 72 154 48
-0.31039 0.123964 0.187061 68 149 45
-0.310537 0.125065 0.186405 65 147 43
-0.310213 0.12598 0.186037 60 142 43
-0.309417 0.126704 0.185958 56 135 44
-0.308387 0.127329 0.186026 82 150 47
-0.306897 0.127756 0.186384 109 174 54
-0.305873 0.128379 0.186452 108 194 66
-0.304168 0.128702 0.186951 108 192 64
-0.301361 0.128532 0.188155 109 192 66
-0.299696 0.128851 0.18864 115 189 65
-0.298479 0.129364 0.188843 117 184 67
-0.297482 0.129974 0.188906 106 178 76
-0.296704 0.130682 0.18883 101 159 67
-0.295924 0.131391 0.188754 97 158 67
-0.306665 0.137516 0.181175 97 157 68
-0.305843 0.138263 0.181094 97 153 69
-0.305021 0.139011 0.181014 89 144 70
-0.304434 0.139873 0.180777 61 125 75
-0.30361 0.140622 0.180697 44 58 27
-0.31295 0.119602 0.187138 103 150 59
-0.312166 0.120315 0.187061 97 182 66
-0.311147 0.120938 0.187127 83 164 55
-0.310363 0.121651 0.187049 78 159 51
-0.30981 0.122457 0.186829 72 154 48
-0.309954 0.123545 0.186175 68 151 45
-0.309864 0.124547 0.185662 65 149 44
-0.30954 0.12546 0.185292 62 145 43
-0.308979 0.126279 0.185067 59 141 44
-0.307951 0.126904 0.185136 86 152 48
-0.306693 0.12743 0.18535 107 174 57
-0.30567 0.128053 0.185418 108 197 69
-0.304193 0.128476 0.185776 110 194 68
-0.301605 0.128406 0.186849 111 192 67
-0.299935 0.128726 0.187341 118 188 65
-0.298715 0.12924 0.187547 119 184 67
-0.2975 0.129753 0.187752 110 180 74
-0.29672 0.130462 0.187675 103 160 65
-0.29594 0.131171 0.187599 98 160 66
-0.306217 0.137067 0.180261 97 157 69
-0.305632 0.137926 0.180025 97 154 70
-0.30481 0.138674 0.179944 89 149 70
-0.303987 0.139422 0.179863 68 131 70
-0.303164 0.14017 0.179782 52 48 28
-0.31228 0.1191 0.186401 102 149 58
-0.311497 0.119812 0.186323 101 178 62
-0.310713 0.120524 0.186246 86 166 56
-0.30993 0.121236 0.186169 78 159 49
-0.309377 0.122041 0.185948 73 155 45
-0.309286 0.123033 0.185436 70 151 45
-0.309195 0.124032 0.184921 68 149 45
-0.309102 0.125037 0.184403 65 148 46
-0.308542 0.125855 0.184178 62 144 45
-0.307515 0.126479 0.184247 86 152 48
-0.30649 0.127103 0.184316 104 174 58
-0.305467 0.127726 0.184384 109 197 70
-0.304217 0.12825 0.1846 112 193 67
-0.302298 0.128475 0.18525 111 196 68
-0.300176 0.1286 0.186037 115 191 65
-0.298734 0.129018 0.186388 115 187 67
-0.297734 0.12963 0.186453 110 180 71
-0.296953 0.13034 0.186376 104 162 67
-0.296171 0.13105 0.186299 100 164 66
-0.305769 0.13662 0.17935 99 159 67
-0.305185 0.137477 0.179112 99 157 67
-0.304128 0.138111 0.179188 93 155 69
-0.303541 0.138971 0.17895 79 133 67
-0.302952 0.139833 0.178712 60 39 31
-0.312079 0.118777 0.185378 100 146 56
-0.311063 0.119399 0.185445 101 173 62
-0.310048 0.120021 0.185512 86 167 59
-0.309266 0.120732 0.185435 77 158 48
-0.308484 0.121443 0.185357 72 156 46
-0.308853 0.122615 0.184554 68 153 46
-0.308992 0.123706 0.18389 66 152 45
-0.308666 0.124615 0.183516 65 150 44
-0.308105 0.125431 0.18329 63 147 43
-0.307312 0.126153 0.183211 85 151 46
-0.306287 0.126777 0.183281 101 174 58
-0.305263 0.1274 0.183351 110 198 69
-0.304242 0.128023 0.18342 112 195 66
-0.30232 0.128249 0.184077 112 198 69
-0.300196 0.128376 0.184871 113 192 66
-0.298971 0.128893 0.185082 113 189 67
-0.297751 0.129407 0.185293 111 182 69
-0.296969 0.130118 0.185215 104 163 69
-0.296186 0.130829 0.185138 100 162 70
-0.305087 0.136063 0.178598 98 162 67
-0.304738 0.137029 0.178201 99 160 65
-0.303449 0.137552 0.178436 99 159 68
-0.302862 0.138409 0.178197 90 133 66
-0.302274 0.139268 0.177958 63 46 39
-0.311645 0.118365 0.1845 101 140 52
-0.31063 0.118988 0.184568 101 168 61
-0.309848 0.119698 0.184491 87 169 60
-0.308835 0.120319 0.184558 77 156 50
-0.308283 0.12112 0.184335 71 154 49
-0.30842 0.122199 0.183674 67 153 49
-0.30879 0.12338 0.182858 66 151 47
-0.308231 0.124193 0.182631 65 149 44
-0.30767 0.125009 0.182404 64 147 42
-0.306877 0.125729 0.182325 81 148 48
-0.305853 0.126353 0.182395 99 175 60
-0.30506 0.127074 0.182317 112 199 67
-0.304039 0.127697 0.182387 115 197 67
-0.302342 0.128023 0.182901 114 197 70
-0.300216 0.128151 0.183704 110 193 68
-0.29921 0.128767 0.183771 114 191 68
-0.297768 0.129185 0.18413 114 181 68
-0.296985 0.129896 0.184052 104 165 69
-0.304522 0.134442 0.1784 100 165 69
-0.303707 0.135182 0.178319 101 163 67
-0.304058 0.136471 0.177451 102 162 66
-0.302773 0.136994 0.177686 103 161 71
-0.302187 0.137849 0.177447 93 133 71
-0.301599 0.138706 0.177207 58 59 54
-0.311212 0.117955 0.183625 108 130 47
-0.310198 0.118577 0.183693 102 163 60
-0.309417 0.119287 0.183615 88 170 61
-0.308635 0.119997 0.183537 78 155 50
-0.307853 0.120707 0.18346 71 154 48
-0.307988 0.121783 0.182795 69 152 49
-0.308355 0.122961 0.181975 69 151 46
-0.308028 0.123867 0.181598 68 151 43
-0.307467 0.124682 0.181369 66 150 44
-0.306673 0.125403 0.18129 76 148 51
-0.30565 0.126027 0.181362 100 177 59
-0.304857 0.126748 0.181283 118 197 65
-0.303836 0.127371 0.181354 122 199 69
-0.302365 0.127796 0.181723 117 198 72
-0.300236 0.127926 0.182533 108 194 70
-0.299229 0.128543 0.182602 117 191 67
-0.297786 0.128961 0.182964 115 179 67
-0.297002 0.129674 0.182886 104 166 69
-0.303152 0.133575 0.178124 100 163 68
-0.302342 0.134311 0.178044 102 162 67
-0.302684 0.135589 0.177178 102 161 67
-0.301869 0.136329 0.177097 105 162 70
-0.301514 0.137291 0.1767 90 134 70
-0.300927 0.138146 0.17646 55 71 58
-0.310779 0.117545 0.18275 108 110 41
-0.309767 0.118167 0.182819 102 161 60
-0.308986 0.118876 0.182741 90 171 60
-0.308205 0.119585 0.182664 79 156 51
-0.307653 0.120385 0.182439 72 156 47
-0.307557 0.121368 0.181918 71 152 47
-0.30769 0.12245 0.181244 69 152 46
-0.307593 0.123447 0.180715 66 152 45
-0.307032 0.124261 0.180486 66 151 45
-0.30624 0.124981 0.180407 70 149 51
-0.305447 0.125701 0.180328 103 180 59
-0.304653 0.126421 0.180249 120 196 66
-0.303632 0.127045 0.18032 121 200 71
-0.302162 0.127471 0.180693 117 201 73
-0.300034 0.127603 0.181509 108 194 69
-0.299027 0.12822 0.181579 120 189 66
-0.297585 0.128639 0.181943 117 178 68
-0.296801 0.129352 0.181865 105 166 70
-0.302484 0.133031 0.177384 100 161 69
-0.301675 0.133766 0.177303 101 161 69
-0.301782 0.13493 0.176593 102 160 67
-0.300741 0.13556 0.17667 105 162 69
-0.300385 0.136516 0.176273 87 137 72
-0.299799 0.137366 0.176033 50 87 63
-0.310347 0.117136 0.181878 98 86 34
-0.309336 0.117758 0.181947 102 166 62
-0.308557 0.118466 0.181869 92 173 62
-0.307776 0.119175 0.181791 78 158 52
-0.307224 0.119973 0.181565 73 156 47
-0.307127 0.120954 0.181042 71 153 47
-0.307258 0.122033 0.180365 68 151 47
-0.30739 0.123121 0.179683 66 151 46
-0.306829 0.123934 0.179452 65 150 46
-0.306037 0.124654 0.179373 67 147 49
-0.305243 0.125375 0.179294 106 177 55
-0.304222 0.125999 0.179366 119 192 64
-0.303429 0.126719 0.179287 118 196 70
-0.301959 0.127146 0.179662 116 193 70
-0.299612 0.127183 0.180633 110 189 66
-0.298606 0.1278 0.180704 123 187 66
-0.297166 0.12822 0.181071 117 177 70
-0.296383 0.128932 0.180992 105 168 71
-0.302277 0.1327 0.176332 100 162 69
-0.301926 0.133646 0.175935 101 162 69
-0.301116 0.134383 0.175854 102 160 68
-0.300304 0.135119 0.175773 105 160 68
-0.29972 0.135965 0.175533 84 140 75
-0.299135 0.136812 0.175293 51 97 65
-0.309916 0.116728 0.181007 78 77 30
-0.309137 0.117436 0.180929 101 164 60
-0.308128 0.118057 0.180999 90 171 61
-0.307348 0.118765 0.180921 77 162 54
-0.306796 0.119562 0.180694 73 156 47
-0.306469 0.12045 0.180318 69 153 47
-0.307056 0.121708 0.179337 69 151 48
-0.306957 0.122702 0.178803 67 150 46
-0.306396 0.123514 0.178571 66 150 45
-0.305833 0.124328 0.178339 66 151 47
-0.30504 0.125048 0.178259 103 174 54
-0.304019 0.125672 0.178333 114 185 64
-0.303226 0.126393 0.178253 112 190 68
-0.301757 0.126821 0.178631 107 191 65
-0.29919 0.126764 0.17976 108 188 62
-0.298185 0.12738 0.179831 120 186 64
-0.296748 0.127802 0.180199 114 180 70
-0.295965 0.128512 0.180121 106 171 71
-0.302069 0.132368 0.175279 101 162 68
-0.301718 0.133314 0.17488 102 163 67
-0.300908 0.13405 0.174799 102 161 67
-0.300096 0.134787 0.174717 103 160 68
-0.299285 0.135524 0.174636 82 145 77
-0.298699 0.13637 0.174395 53 101 63
-0.308707 0.117028 0.180059 106 159 54
-0.307928 0.117735 0.179981 91 167 60
-0.306921 0.118356 0.180052 79 161 56
-0.306368 0.119151 0.179824 74 154 48
-0.306269 0.120128 0.179296 70 155 46
-0.306625 0.121292 0.178461 69 153 48
-0.306525 0.122284 0.177924 69 151 46
-0.306193 0.123188 0.177538 67 151 45
-0.305401 0.123907 0.177459 70 154 47
-0.304608 0.124627 0.177379 104 171 53
-0.303816 0.125346 0.177299 112 183 63
-0.303022 0.126066 0.177219 111 189 64
-0.301554 0.126496 0.177601 109 191 63
-0.298769 0.126346 0.178888 112 192 65
-0.297766 0.126962 0.178959 120 188 63
-0.296331 0.127384 0.17933 114 184 70
-0.295549 0.128094 0.179251 108 171 71
-0.300471 0.133612 0.173904 101 163 67
-0.299661 0.134347 0.173823 102 161 68
-0.299077 0.135191 0.17358 82 150 77
-0.298491 0.136037 0.173338 59 102 60
-0.308508 0.116706 0.179041 118 147 49
-0.3075 0.117327 0.179113 95 166 61
-0.306721 0.118034 0.179034 83 163 57
-0.305942 0.118742 0.178956 76 155 48
-0.305614 0.119627 0.178576 73 156 44
-0.306195 0.120877 0.177587 71 153 46
-0.306093 0.121866 0.177048 69 152 46
-0.30599 0.122862 0.176505 67 152 46
-0.305198 0.123581 0.176425 73 155 48
-0.304405 0.1243 0.176345 104 166 52
-0.303612 0.12502 0.176265 110 186 62
-0.302593 0.125644 0.17634 112 193 64
-0.301127 0.126075 0.176724 112 194 65
-0.298349 0.125928 0.178017 113 194 66
-0.29713 0.126449 0.17824 117 187 64
-0.296131 0.127063 0.178312 114 187 71
-0.295134 0.127676 0.178383 108 172 70
-0.300264 0.133279 0.17285 101 164 68
-0.299453 0.134015 0.172768 101 162 70
-0.298642 0.134751 0.172686 86 156 75
-0.298056 0.135596 0.172443 68 100 58
-0.30808 0.116299 0.178174 113 131 45
-0.307301 0.117006 0.178096 96 169 64
-0.306522 0.117713 0.178017 82 167 60
-0.305742 0.11842 0.177938 74 157 53
-0.305414 0.119305 0.177556 72 153 51
-0.305311 0.120283 0.17702 71 152 46
-0.305434 0.121358 0.176327 68 153 45
-0.305329 0.12235 0.175783 65 154 45
-0.304995 0.123255 0.175392 72 156 46
-0.304202 0.123974 0.175312 100 163 51
-0.303182 0.124599 0.175387 110 191 64
-0.301939 0.125127 0.175618 113 196 66
-0.300701 0.125654 0.175848 113 197 69
-0.297929 0.125512 0.177148 112 196 70
-0.296712 0.126032 0.177372 113 190 66
-0.295715 0.126646 0.177445 116 188 70
-0.293442 0.126687 0.178417 109 171 69
-0.292666 0.127392 0.178338 103 163 68
-0.300866 0.132212 0.171877 101 163 68
-0.300056 0.132947 0.171795 101 163 69
-0.299245 0.133683 0.171714 103 160 69
-0.298434 0.134419 0.171632 95 162 74
-0.297848 0.135263 0.171387 76 97 59
