ply
format ascii 1.0
element vertex 1258
property float x
property float y
property float z
property uchar diffuse_red
property uchar diffuse_green
property uchar diffuse_blue
end_header
-0.368832 0.155109 0.237518 17 117 17
-0.367251 0.155786 0.237638 18 115 18
-0.365679 0.15646 0.237757 20 118 24
-0.364832 0.157477 0.237635 22 121 28
-0.363985 0.158495 0.237514 29 124 27
-0.361358 0.15864 0.237991 34 128 33
-0.358763 0.158783 0.238462 37 130 44
-0.356888 0.15927 0.238694 45 131 35
-0.356053 0.160274 0.238574 44 125 27
-0.355216 0.161278 0.238454 37 132 40
-0.35438 0.162283 0.238334 44 130 41
-0.353543 0.163289 0.238213 41 129 34
-0.352705 0.164295 0.238093 31 124 26
-0.351529 0.165122 0.23809 25 120 20
-0.349686 0.165587 0.238322 23 121 21
-0.348187 0.166229 0.238435 23 125 26
-0.346696 0.166868 0.238548 25 126 27
-0.344885 0.167325 0.238776 26 126 24
-0.343409 0.167959 0.238887 35 127 21
-0.34194 0.16859 0.238998 37 129 34
-0.340796 0.169401 0.238994 47 129 42
-0.33997 0.170393 0.238875 46 126 34
-0.339144 0.171386 0.238756 37 114 23
-0.338317 0.172379 0.238637 38 126 33
-0.337176 0.173187 0.238633 47 130 36
-0.336037 0.173993 0.238629 38 128 34
-0.334591 0.17461 0.238739 29 124 28
-0.331933 0.174479 0.239301 34 122 24
-0.33051 0.17509 0.239408 39 124 25
-0.329393 0.175886 0.239403 42 127 29
-0.328277 0.17668 0.239398 43 127 29
-0.326869 0.177285 0.239504 39 127 29
-0.325759 0.178076 0.239498 34 128 30
-0.324652 0.178866 0.239492 37 127 32
-0.323838 0.179844 0.239375 49 126 35
-0.323022 0.180823 0.239258 46 125 36
-0.314231 0.185526 0.239658 58 136 31
-0.313148 0.186302 0.239652 61 142 35
-0.312067 0.187076 0.239645 60 143 37
-0.310988 0.18785 0.239638 54 139 37
-0.310181 0.188819 0.239522 50 136 35
-0.308837 0.189393 0.239625 45 132 29
-0.307498 0.189964 0.239727 39 131 31
-0.306429 0.190732 0.23972 44 128 39
-0.3051 0.191299 0.239821 50 130 40
-0.303517 0.191665 0.24003 38 122 27
-0.302202 0.192228 0.240129 34 125 25
-0.301402 0.193189 0.240014 41 127 33
-0.300348 0.193949 0.240007 54 136 42
-0.278055 0.189691 0.245615 51 141 42
-0.277097 0.190405 0.245602 50 135 42
-0.276351 0.191302 0.245494 58 135 47
-0.275604 0.192199 0.245387 117 185 74
-0.274856 0.193097 0.24528 114 176 76
-0.274108 0.193996 0.245172 110 171 80
-0.283833 0.204374 0.240306 114 171 78
-0.283043 0.205323 0.240193 116 171 77
-0.282253 0.206272 0.240079 119 170 82
-0.380685 0.143342 0.237074 53 115 36
-0.378689 0.143889 0.237318 41 124 34
-0.377463 0.144747 0.237317 32 126 29
-0.376996 0.145923 0.237074 31 125 29
-0.376905 0.147264 0.236707 32 123 25
-0.377958 0.149107 0.235966 28 124 25
-0.377484 0.150302 0.235717 24 123 23
-0.376245 0.151164 0.235719 22 119 20
-0.375008 0.152025 0.23572 21 113 21
-0.374151 0.153054 0.235596 24 116 19
-0.372168 0.153571 0.235846 49 122 26
-0.36983 0.153914 0.236217 43 122 23
-0.368612 0.154765 0.236217 47 122 24
-0.367032 0.155443 0.23634 51 126 29
-0.365822 0.15629 0.23634 51 130 34
-0.364613 0.157135 0.23634 50 130 35
-0.363766 0.158153 0.236217 47 128 31
-0.36114 0.158299 0.236703 38 128 27
-0.358547 0.158445 0.237182 34 127 28
-0.357362 0.159278 0.23718 42 128 29
-0.355837 0.159937 0.237297 31 128 31
-0.355 0.160941 0.237177 30 122 22
-0.354164 0.161946 0.237056 37 123 26
-0.353326 0.162951 0.236936 45 131 36
-0.352489 0.163958 0.236815 52 131 34
-0.351313 0.164785 0.236813 56 133 30
-0.349471 0.165251 0.237049 58 140 34
-0.347972 0.165894 0.237166 57 142 40
-0.346809 0.166715 0.237163 55 140 41
-0.344671 0.166992 0.237513 51 137 39
-0.343518 0.167807 0.23751 47 130 35
-0.342047 0.16844 0.237624 44 125 29
-0.340901 0.169252 0.237621 47 123 32
-0.339757 0.170062 0.237618 51 125 36
-0.33893 0.171055 0.237499 43 115 26
-0.338103 0.172048 0.23738 38 119 26
-0.337276 0.173042 0.23726 54 125 30
-0.335824 0.173663 0.237374 57 132 39
-0.334379 0.174281 0.237486 61 139 39
-0.331722 0.174152 0.238057 67 144 39
-0.330299 0.174764 0.238167 66 148 43
-0.329481 0.175746 0.238049 64 149 47
-0.328067 0.176355 0.238158 64 147 47
-0.326658 0.17696 0.238267 61 142 44
-0.325549 0.177752 0.238263 55 136 41
-0.324442 0.178542 0.238258 52 131 38
-0.323627 0.17952 0.238141 55 127 37
-0.313747 0.185012 0.238547 79 156 46
-0.312666 0.185787 0.238542 78 156 47
-0.311859 0.186757 0.238425 80 156 48
-0.31078 0.187531 0.23842 74 154 47
-0.309973 0.1885 0.238303 66 145 46
-0.308629 0.189074 0.238408 62 139 41
-0.307556 0.189844 0.238403 60 136 40
-0.30675 0.190812 0.238286 55 132 42
-0.30568 0.191581 0.238281 53 127 40
-0.30409 0.191947 0.238495 53 126 31
-0.30251 0.192312 0.238707 52 129 41
-0.276905 0.190114 0.244481 63 147 49
-0.276158 0.19101 0.244373 65 146 53
-0.275411 0.191907 0.244266 107 176 75
-0.274663 0.192805 0.244158 110 168 72
-0.282611 0.204806 0.239115 114 173 76
-0.281821 0.205754 0.239001 117 174 79
-0.380851 0.143153 0.235645 62 121 40
-0.378851 0.143701 0.235894 49 124 34
-0.378004 0.144719 0.235772 40 124 32
-0.377535 0.145898 0.235525 41 125 33
-0.377445 0.147242 0.235153 36 127 32
-0.378505 0.149089 0.234399 30 127 28
-0.377646 0.15012 0.234275 27 124 23
-0.376405 0.150984 0.234278 25 121 19
-0.375166 0.151846 0.23428 19 116 19
-0.37393 0.152706 0.234283 23 115 14
-0.371948 0.153224 0.234537 52 115 27
-0.36998 0.153739 0.23479 61 135 39
-0.368393 0.154421 0.234916 67 146 43
-0.366813 0.1551 0.235041 69 152 46
-0.365241 0.155775 0.235166 70 153 47
-0.364394 0.156793 0.235044 70 151 45
-0.363547 0.15781 0.234921 66 147 43
-0.360923 0.157959 0.235414 57 138 39
-0.358331 0.158107 0.235901 52 132 39
-0.357146 0.158941 0.2359 52 124 35
-0.355621 0.1596 0.236021 40 125 38
-0.354784 0.160604 0.2359 43 122 29
-0.353948 0.161609 0.235779 50 125 31
-0.35311 0.162614 0.235657 58 138 40
-0.352272 0.163621 0.235536 69 148 44
-0.351097 0.164448 0.235536 76 153 45
-0.349255 0.164916 0.235776 77 156 47
-0.347757 0.165559 0.235895 74 157 49
-0.346594 0.16638 0.235894 72 157 50
-0.344457 0.166659 0.23625 69 152 48
-0.343304 0.167475 0.236248 60 141 42
-0.341834 0.168109 0.236365 57 134 42
-0.340687 0.168921 0.236363 53 130 41
-0.339543 0.169732 0.236361 56 124 35
-0.338717 0.170724 0.236242 52 123 35
-0.33789 0.171717 0.236122 50 124 38
-0.336749 0.172526 0.23612 66 132 39
-0.335611 0.173332 0.236118 76 146 47
-0.334166 0.173951 0.236234 79 155 49
-0.33151 0.173825 0.236813 81 160 51
-0.330088 0.174438 0.236925 82 162 52
-0.328971 0.175234 0.236922 87 161 52
-0.327559 0.175843 0.237034 87 159 57
-0.326448 0.176636 0.23703 78 152 56
-0.325339 0.177427 0.237027 68 144 47
-0.324232 0.178218 0.237023 65 139 42
-0.323417 0.179196 0.236906 63 136 38
-0.322602 0.180175 0.236788 58 130 38
-0.314071 0.183531 0.237555 86 168 55
-0.313265 0.184499 0.237439 87 170 55
-0.312458 0.185468 0.237322 89 166 54
-0.311379 0.186243 0.237318 91 169 57
-0.310842 0.187408 0.237089 84 165 58
-0.308956 0.189151 0.236967 74 148 46
-0.307348 0.189526 0.237187 71 146 45
-0.306542 0.190494 0.23707 67 143 42
-0.276712 0.189821 0.24336 76 157 50
-0.275756 0.190536 0.243348 93 153 50
-0.27501 0.191432 0.24324 111 176 72
-0.274471 0.192513 0.243036 104 156 70
-0.282179 0.20429 0.238039 110 166 70
-0.281391 0.205237 0.237925 114 171 75
-0.38296 0.143754 0.233576 72 126 42
-0.37978 0.143828 0.234215 51 129 41
-0.378929 0.14485 0.234092 39 127 35
-0.378077 0.145872 0.233968 40 126 32
-0.379141 0.14771 0.233207 38 127 31
-0.379054 0.149072 0.232824 34 127 30
-0.377808 0.149939 0.232829 31 125 26
-0.376565 0.150803 0.232833 28 122 23
-0.374944 0.151498 0.232965 24 119 22
-0.373709 0.152359 0.232969 26 117 20
-0.371727 0.152878 0.233228 54 117 34
-0.36976 0.153394 0.233485 75 151 47
-0.36854 0.154247 0.233488 83 164 51
-0.366594 0.154756 0.233743 83 166 52
-0.365023 0.155433 0.233871 84 166 53
-0.364176 0.15645 0.233748 83 163 53
-0.361548 0.156607 0.234248 78 157 50
-0.360705 0.157619 0.234125 69 147 46
-0.358114 0.157768 0.23462 64 142 45
-0.35693 0.158603 0.234621 58 137 42
-0.355405 0.159263 0.234743 51 128 40
-0.354568 0.160267 0.234622 54 125 34
-0.353731 0.161272 0.234501 66 135 36
-0.352894 0.162277 0.234379 76 152 45
-0.352056 0.163283 0.234258 83 162 51
-0.350544 0.163933 0.234381 87 166 52
-0.348707 0.164402 0.234625 89 166 51
-0.347212 0.165046 0.234746 89 166 53
-0.346379 0.166046 0.234625 86 167 55
-0.344243 0.166326 0.234987 80 158 52
-0.342768 0.166963 0.235106 75 146 48
-0.341301 0.167597 0.235225 72 143 46
-0.340156 0.168409 0.235224 66 137 43
-0.33933 0.169401 0.235104 58 135 42
-0.338503 0.170393 0.234984 54 130 41
-0.337676 0.171386 0.234864 61 133 38
-0.336536 0.172195 0.234863 80 150 46
-0.335397 0.173002 0.234863 87 163 55
-0.333953 0.173622 0.234981 89 172 57
-0.331299 0.173498 0.235569 90 174 55
-0.329577 0.173927 0.2358 91 171 56
-0.328462 0.174723 0.235798 98 173 60
-0.327349 0.175518 0.235796 100 172 64
-0.326238 0.176311 0.235793 90 161 59
-0.325129 0.177103 0.235791 80 151 50
-0.324022 0.177894 0.235789 76 149 46
-0.323207 0.178872 0.23567 72 145 44
-0.322103 0.179661 0.235668 65 139 43
-0.321001 0.180449 0.235665 59 133 41
-0.320186 0.181427 0.235547 62 136 41
-0.313863 0.183212 0.236337 94 175 58
-0.312783 0.183987 0.236333 93 175 58
-0.311977 0.184955 0.236216 94 174 59
-0.311171 0.185924 0.236099 100 177 62
-0.255941 0.159812 0.255251 98 178 57
-0.255299 0.160583 0.255158 96 180 62
-0.27652 0.189529 0.24224 84 164 52
-0.275564 0.190244 0.242228 110 175 58
-0.274817 0.19114 0.24212 100 159 68
-0.274278 0.192221 0.241914 93 146 68
-0.284012 0.202502 0.23687 94 151 68
-0.283222 0.20345 0.236755 96 154 71
-0.281976 0.203983 0.236857 103 159 70
-0.281187 0.20493 0.236743 111 164 73
-0.381881 0.144434 0.232134 85 153 53
-0.380635 0.145302 0.232139 62 142 42
-0.379778 0.146332 0.232015 49 130 39
-0.379306 0.147525 0.23176 40 127 36
-0.378832 0.148722 0.231504 33 127 33
-0.377971 0.149756 0.231378 31 126 28
-0.376725 0.150622 0.231384 31 124 23
-0.374723 0.15115 0.23165 30 122 22
-0.373487 0.152011 0.231655 33 119 22
-0.37188 0.152701 0.23179 56 124 37
-0.37028 0.153388 0.231924 82 165 54
-0.368688 0.154072 0.232057 89 172 56
-0.366739 0.154583 0.232317 89 172 55
-0.364804 0.15509 0.232575 91 173 56
-0.363957 0.156107 0.232451 90 170 57
-0.361684 0.156437 0.232834 82 159 53
-0.36084 0.15745 0.232711 76 152 49
-0.358245 0.157601 0.233214 74 148 47
-0.357059 0.158437 0.233216 67 144 45
-0.355532 0.159098 0.233343 59 136 42
-0.354352 0.15993 0.233345 63 134 38
-0.353515 0.160934 0.233223 78 153 45
-0.352678 0.16194 0.233101 85 165 50
-0.351839 0.162946 0.232979 88 168 52
-0.350328 0.163597 0.233105 91 171 53
-0.348492 0.164067 0.233353 93 172 54
-0.346997 0.164712 0.233477 94 172 57
-0.345837 0.165532 0.233478 93 171 61
-0.344029 0.165994 0.233723 86 163 55
-0.342555 0.166631 0.233845 82 153 48
-0.341087 0.167266 0.233967 80 151 49
-0.339943 0.168078 0.233967 77 146 46
-0.339117 0.16907 0.233847 69 140 45
-0.33829 0.170062 0.233726 61 136 43
-0.337149 0.170872 0.233727 75 147 42
-0.33601 0.17168 0.233727 85 164 52
-0.334874 0.172487 0.233727 89 168 56
-0.33374 0.173293 0.233727 91 172 57
-0.331087 0.173171 0.234324 93 173 58
-0.329366 0.173601 0.23456 96 172 59
-0.328251 0.174397 0.234559 100 174 63
-0.326843 0.175007 0.234675 94 171 63
-0.326027 0.175986 0.234556 86 163 56
-0.324918 0.176778 0.234555 85 156 51
-0.323812 0.17757 0.234554 84 154 50
-0.322707 0.178359 0.234552 80 152 48
-0.321605 0.179148 0.234551 73 147 45
-0.32079 0.180125 0.234432 69 141 43
-0.319691 0.180912 0.234431 76 147 47
-0.31831 0.181506 0.234546 90 166 56
-0.315567 0.182688 0.234774 93 176 61
-0.313655 0.182892 0.235117 94 174 61
-0.312848 0.18386 0.235 93 175 62
-0.257223 0.158147 0.254399 91 175 59
-0.256581 0.158917 0.254305 93 178 59
-0.255938 0.159689 0.254212 96 179 59
-0.255295 0.16046 0.254118 96 177 59
-0.277074 0.188341 0.241227 80 173 57
-0.275908 0.188876 0.241315 104 175 64
-0.275163 0.18977 0.241206 109 169 68
-0.274625 0.190848 0.241 91 143 67
-0.274085 0.191929 0.240792 85 139 70
-0.283808 0.202194 0.235686 89 143 66
-0.282561 0.202729 0.23579 91 146 68
-0.281546 0.203469 0.235785 96 146 69
-0.280758 0.204415 0.23567 110 154 72
-0.382441 0.144404 0.230553 118 188 71
-0.380802 0.145114 0.230692 91 176 62
-0.379943 0.146145 0.230566 72 154 52
-0.379084 0.147176 0.230441 57 141 43
-0.37861 0.148373 0.230183 47 133 38
-0.377364 0.14924 0.23019 39 128 33
-0.376121 0.150105 0.230196 35 125 27
-0.374501 0.150802 0.230335 34 123 24
-0.372889 0.151495 0.230473 38 121 28
-0.371659 0.152354 0.230479 55 133 38
-0.370059 0.153042 0.230616 80 166 53
-0.368468 0.153727 0.230752 89 173 58
-0.366519 0.154239 0.231016 89 173 58
-0.364946 0.154918 0.23115 88 171 57
-0.363738 0.155765 0.231155 85 165 54
-0.361466 0.156096 0.231543 79 157 50
-0.358868 0.156255 0.232054 77 155 49
-0.358028 0.157263 0.231931 77 152 49
-0.356842 0.158098 0.231935 75 150 47
-0.355316 0.15876 0.232064 70 144 41
-0.354136 0.159592 0.232067 77 146 40
-0.353299 0.160597 0.231944 85 159 51
-0.352461 0.161603 0.231822 87 165 53
-0.350949 0.162256 0.231951 88 167 54
-0.349444 0.162906 0.232078 88 169 55
-0.348276 0.163731 0.232081 87 169 56
-0.346782 0.164377 0.232208 86 167 58
-0.344644 0.164665 0.232581 85 163 58
-0.343491 0.165483 0.232582 80 157 51
-0.3417 0.165943 0.232829 76 155 49
-0.340556 0.166756 0.23283 76 153 50
-0.33973 0.167747 0.23271 74 148 51
-0.338588 0.168558 0.232711 68 144 47
-0.337762 0.169549 0.23259 70 146 46
-0.336623 0.170359 0.232592 79 157 52
-0.335487 0.171166 0.232593 82 166 58
-0.334352 0.171973 0.232594 84 166 58
-0.332303 0.172226 0.232959 85 165 57
-0.330574 0.17266 0.233199 85 161 57
-0.328857 0.173092 0.233438 86 162 56
-0.327744 0.173888 0.233438 85 163 57
-0.326632 0.174682 0.233438 82 160 53
-0.325523 0.175476 0.233438 79 156 50
-0.324416 0.176268 0.233438 78 154 50
-0.323311 0.177058 0.233437 77 153 50
-0.322208 0.177848 0.233437 73 150 49
-0.321395 0.178825 0.233318 70 148 48
-0.32058 0.179802 0.233199 74 147 46
-0.318913 0.180209 0.233435 81 155 49
-0.316977 0.180424 0.233786 83 161 54
-0.316168 0.181395 0.233668 83 163 56
-0.315081 0.182176 0.233667 83 164 55
-0.31264 0.183541 0.23378 82 162 56
-0.304586 0.190111 0.233535 65 150 47
-0.258341 0.156354 0.253619 68 150 45
-0.257699 0.157124 0.253525 77 159 46
-0.257057 0.157894 0.253432 78 161 50
-0.256415 0.158665 0.253338 77 163 53
-0.255772 0.159436 0.253244 76 163 55
-0.277206 0.186797 0.240414 71 163 48
-0.276042 0.187333 0.240502 112 170 54
-0.275299 0.188225 0.240394 118 178 73
-0.27497 0.189479 0.240087 98 148 67
-0.274432 0.190556 0.239879 88 139 62
-0.282131 0.202216 0.234719 87 136 66
-0.281343 0.203161 0.234604 87 138 67
-0.280555 0.204107 0.234489 102 143 72
-0.38261 0.144214 0.229098 120 186 69
-0.381358 0.145087 0.229106 109 197 75
-0.379721 0.145795 0.229248 91 179 63
-0.378476 0.146664 0.229256 77 164 55
-0.377618 0.147694 0.22913 67 152 48
-0.376758 0.148725 0.229004 59 143 42
-0.374759 0.149258 0.229278 51 135 37
-0.372774 0.149788 0.229551 46 129 36
-0.371919 0.150813 0.229425 53 130 37
-0.370693 0.151671 0.229433 66 148 43
-0.3691 0.152359 0.229571 75 161 49
-0.368247 0.153382 0.229446 75 161 52
-0.3663 0.153895 0.229715 73 159 52
-0.364727 0.154575 0.229852 70 156 48
-0.363161 0.155252 0.229988 65 152 45
-0.360895 0.155585 0.230382 61 148 44
-0.358303 0.155747 0.230898 60 146 45
-0.357465 0.156753 0.230775 61 146 45
-0.355937 0.157418 0.230907 63 145 43
-0.354757 0.158251 0.230911 63 146 42
-0.35358 0.159083 0.230915 69 151 44
-0.352405 0.159913 0.23092 71 154 50
-0.351569 0.160916 0.230797 73 155 50
-0.350063 0.161569 0.230927 72 156 48
-0.348895 0.162395 0.230931 71 156 47
-0.347071 0.162868 0.231186 70 154 48
-0.345259 0.163337 0.231439 70 151 49
-0.344106 0.164156 0.231441 68 147 48
-0.342313 0.16462 0.231692 64 146 45
-0.341168 0.165434 0.231694 64 146 44
-0.33971 0.166069 0.23182 64 146 44
-0.338885 0.167058 0.231699 63 147 44
-0.337747 0.167868 0.231701 61 148 45
-0.336612 0.168677 0.231703 66 150 45
-0.335478 0.169484 0.231705 70 153 47
-0.334347 0.17029 0.231707 71 154 51
-0.332912 0.170913 0.231831 71 153 48
-0.331181 0.171351 0.232076 70 152 46
-0.329463 0.171787 0.232319 67 151 48
-0.328349 0.172583 0.23232 68 149 47
-0.327237 0.173379 0.23232 68 146 45
-0.326128 0.174173 0.232321 67 142 43
-0.324728 0.174782 0.232442 64 141 43
-0.323335 0.175388 0.232561 63 144 44
-0.322524 0.176363 0.232442 66 147 43
-0.321711 0.177338 0.232323 66 148 43
-0.317577 0.179133 0.23268 68 154 49
-0.315934 0.179539 0.232915 68 156 50
-0.315681 0.180885 0.232562 67 155 49
-0.314321 0.181475 0.232679 68 152 46
-0.258817 0.155332 0.252746 60 150 44
-0.258011 0.155975 0.252727 61 154 46
-0.257206 0.156618 0.252707 62 163 45
-0.256728 0.157514 0.252539 62 158 46
-0.256249 0.158412 0.25237 63 156 45
-0.27829 0.184544 0.239613 56 155 54
-0.277336 0.185259 0.239604 89 159 53
-0.276385 0.185973 0.239594 126 200 63
-0.275434 0.186686 0.239585 115 189 84
-0.274899 0.187755 0.239377 102 156 68
-0.274363 0.188827 0.239168 92 138 70
-0.281928 0.201909 0.233539 84 133 67
-0.28114 0.202854 0.233424 89 134 70
-0.381526 0.144897 0.227648 111 191 68
-0.379113 0.145285 0.228064 109 187 66
-0.377487 0.145991 0.228208 102 183 63
-0.376631 0.147019 0.228082 87 172 58
-0.374637 0.147557 0.228359 73 159 52
-0.372658 0.148091 0.228634 66 150 47
-0.371063 0.148786 0.228774 65 149 45
-0.370214 0.149805 0.228649 77 152 46
-0.369732 0.150992 0.228391 85 167 52
-0.36888 0.152014 0.228266 78 167 52
-0.367661 0.152868 0.228274 64 158 49
-0.36608 0.153551 0.228414 57 149 46
-0.364148 0.154063 0.228686 54 145 42
-0.362585 0.15474 0.228824 52 142 40
-0.359974 0.154907 0.229353 49 138 39
-0.35774 0.15524 0.229746 45 138 39
-0.356214 0.155907 0.229879 48 139 42
-0.355378 0.15691 0.229756 51 142 41
-0.3542 0.157743 0.229762 53 144 39
-0.353025 0.158574 0.229767 56 150 42
-0.351852 0.159404 0.229772 56 150 45
-0.350682 0.160232 0.229777 57 149 46
-0.349181 0.160886 0.229909 56 148 45
-0.347358 0.161363 0.230167 56 146 43
-0.345874 0.16201 0.230297 56 143 43
-0.34472 0.16283 0.230301 56 140 43
-0.342926 0.163298 0.230555 54 136 44
-0.341781 0.164113 0.230559 53 135 43
-0.340321 0.164751 0.230687 53 136 41
-0.338867 0.165386 0.230814 55 140 41
-0.337421 0.166019 0.23094 58 141 42
-0.3366 0.167004 0.23082 55 144 44
-0.335469 0.167811 0.230822 57 148 49
-0.334035 0.168437 0.230948 59 149 46
-0.332606 0.169061 0.231073 59 149 46
-0.331184 0.169683 0.231198 59 147 46
-0.330068 0.170482 0.2312 60 142 43
-0.328954 0.17128 0.231201 58 141 43
-0.327842 0.172076 0.231203 57 138 43
-0.326732 0.172872 0.231205 57 136 41
-0.325332 0.173483 0.231328 57 134 40
-0.323938 0.174092 0.23145 55 134 40
-0.323126 0.175065 0.231331 53 138 40
-0.321453 0.175486 0.231572 54 140 40
-0.321215 0.176828 0.231213 55 143 40
-0.31681 0.178439 0.231695 58 148 48
-0.315449 0.179033 0.231814 61 148 47
-0.314919 0.180187 0.231577 61 147 45
-0.313563 0.180778 0.231696 62 146 45
-0.259126 0.154186 0.251949 55 140 44
-0.257992 0.154581 0.252079 56 142 45
-0.257353 0.155348 0.251985 58 146 50
-0.256551 0.155989 0.251966 62 153 46
-0.256237 0.157008 0.251723 67 153 47
-0.278841 0.183362 0.238606 131 185 58
-0.277887 0.184078 0.238597 123 201 79
-0.277145 0.184968 0.238488 106 198 85
-0.276193 0.185683 0.23848 112 172 72
-0.275243 0.186396 0.238471 101 153 75
-0.274915 0.187643 0.238161 90 143 72
-0.275002 0.189257 0.237645 85 143 73
-0.282512 0.200657 0.232474 86 132 68
-0.281725 0.201602 0.232359 87 131 70
-0.378122 0.144616 0.22702 103 164 59
-0.375367 0.144843 0.22757 109 184 67
-0.373018 0.145227 0.22798 102 183 69
-0.3718 0.146084 0.227989 93 177 64
-0.370216 0.146779 0.22813 83 169 57
-0.36864 0.147471 0.22827 78 161 54
-0.367796 0.148483 0.228145 87 166 53
-0.369512 0.150646 0.227086 92 175 57
-0.368292 0.151502 0.227095 83 176 56
-0.366711 0.152188 0.227239 72 167 53
-0.365137 0.152871 0.227381 66 157 49
-0.36357 0.153552 0.227523 62 150 45
-0.362011 0.154229 0.227663 58 144 42
-0.359406 0.154399 0.228198 54 138 40
-0.357524 0.154902 0.228466 51 136 38
-0.355998 0.15557 0.228602 54 137 39
-0.355162 0.156573 0.228479 56 139 38
-0.353984 0.157406 0.228485 58 145 41
-0.352471 0.158067 0.228621 67 150 44
-0.3513 0.158896 0.228627 73 154 46
-0.349799 0.159552 0.228762 73 156 47
-0.347974 0.160034 0.229023 73 154 46
-0.346488 0.160684 0.229156 73 152 46
-0.345335 0.161504 0.229161 72 150 46
-0.34386 0.16215 0.229293 68 144 46
-0.342392 0.162793 0.229424 61 138 44
-0.340931 0.163433 0.229554 57 135 44
-0.339477 0.164071 0.229684 58 136 42
-0.338029 0.164707 0.229813 62 139 41
-0.336898 0.165515 0.229816 67 140 40
-0.336078 0.166498 0.229696 66 145 41
-0.334336 0.166951 0.229948 77 152 45
-0.333213 0.167754 0.229951 83 162 52
-0.33179 0.168378 0.230078 82 163 54
-0.330673 0.169178 0.230081 81 159 52
-0.329558 0.169977 0.230084 81 157 48
-0.328446 0.170775 0.230087 80 155 46
-0.327632 0.171752 0.229967 77 152 47
-0.326228 0.172366 0.230092 69 147 47
-0.325122 0.173159 0.230095 64 141 43
-0.323728 0.173769 0.23022 64 137 40
-0.322054 0.174194 0.230465 67 141 41
-0.320391 0.174616 0.230708 69 145 42
-0.319584 0.175584 0.23059 69 148 43
-0.316046 0.177748 0.230714 92 170 53
-0.314965 0.178528 0.230716 93 175 57
-0.314161 0.179493 0.230597 90 172 56
-0.31281 0.180084 0.230718 85 166 54
-0.258466 0.153563 0.25121 76 151 47
-0.2575 0.154082 0.251267 77 159 47
-0.256862 0.154847 0.251173 87 173 53
-0.256386 0.155737 0.251003 98 188 62
-0.280032 0.182701 0.237293 108 199 86
-0.279074 0.18342 0.237285 106 171 71
-0.277907 0.183962 0.23738 105 150 63
-0.277164 0.184853 0.23727 93 150 65
-0.27642 0.185745 0.237161 92 147 75
-0.275885 0.186815 0.236949 97 150 81
-0.275557 0.188068 0.236633 103 145 72
-0.282868 0.199204 0.231524 86 137 72
-0.282082 0.200147 0.231408 88 135 72
-0.370108 0.145107 0.227226 108 174 68
-0.36745 0.14533 0.227765 109 187 70
-0.366253 0.146177 0.227773 95 180 68
-0.367578 0.148141 0.226852 86 169 56
-0.36746 0.149479 0.226459 84 172 59
-0.367341 0.150825 0.226063 85 179 58
-0.365766 0.151511 0.226208 84 176 58
-0.364557 0.152361 0.226218 82 170 56
-0.363352 0.153209 0.226227 73 159 51
-0.361793 0.153888 0.226371 65 150 45
-0.359189 0.15406 0.226913 65 146 43
-0.357308 0.154564 0.227186 69 150 44
-0.355782 0.155233 0.227325 72 152 44
-0.354946 0.156236 0.227201 76 154 45
-0.354109 0.157239 0.227077 80 162 52
-0.352256 0.157731 0.227347 93 177 57
-0.35075 0.15839 0.227485 97 184 61
-0.349584 0.159217 0.227492 93 180 59
-0.34776 0.1597 0.227758 88 172 57
-0.346275 0.160351 0.227893 88 170 55
-0.345121 0.161172 0.2279 85 166 54
-0.343647 0.161818 0.228034 74 156 51
-0.34218 0.162462 0.228168 66 147 48
-0.340719 0.163103 0.228301 70 149 50
-0.339265 0.163742 0.228433 74 156 52
-0.337506 0.164204 0.22869 78 161 56
-0.336686 0.165187 0.228569 83 163 55
-0.334942 0.165643 0.228825 89 170 56
-0.333819 0.166448 0.22883 98 187 63
-0.332395 0.167074 0.228959 103 194 67
-0.331278 0.167875 0.228963 101 193 66
-0.330163 0.168675 0.228967 96 183 60
-0.32905 0.169473 0.228971 92 177 60
-0.328236 0.17045 0.22885 93 174 59
-0.327421 0.171427 0.22873 85 168 56
-0.326018 0.172041 0.228858 72 156 53
-0.324912 0.172835 0.228862 68 149 51
-0.32323 0.173264 0.229112 76 153 53
-0.321274 0.173509 0.229483 85 163 55
-0.3199 0.174114 0.229608 88 170 57
-0.319094 0.17508 0.229488 87 174 60
-0.315562 0.177244 0.229617 111 201 68
-0.314209 0.177839 0.22974 108 201 69
-0.313406 0.178802 0.229621 101 192 65
-0.312331 0.179579 0.229623 97 187 61
-0.257973 0.153066 0.2504 97 181 61
-0.25701 0.153585 0.250457 105 190 61
-0.256373 0.154349 0.250363 111 209 65
-0.280799 0.18169 0.236179 112 173 68
-0.280054 0.182583 0.236069 110 162 66
-0.278882 0.183128 0.236167 101 155 72
-0.278138 0.18402 0.236056 90 144 72
-0.277604 0.18509 0.235842 85 140 72
-0.277069 0.186163 0.235628 86 137 71
-0.285805 0.195132 0.23081 88 141 74
-0.285252 0.19627 0.230578 91 145 76
-0.284236 0.197013 0.230578 95 143 78
-0.283223 0.197755 0.230577 99 137 75
-0.282211 0.198496 0.230575 100 135 73
-0.364378 0.143752 0.227538 123 179 71
-0.366036 0.145837 0.22649 115 198 77
-0.365199 0.146841 0.226366 91 177 61
-0.365076 0.148166 0.225974 80 168 58
-0.366394 0.150152 0.225036 80 169 51
-0.365186 0.151003 0.225047 81 169 53
-0.36398 0.151852 0.225058 78 166 55
-0.362776 0.1527 0.225068 70 156 50
-0.361221 0.153379 0.225214 66 149 44
-0.358972 0.153721 0.225628 73 152 44
-0.357091 0.154226 0.225905 83 164 51
-0.355566 0.154895 0.226047 86 169 54
-0.35473 0.155898 0.225923 97 175 55
-0.353893 0.156902 0.225799 110 197 64
-0.35204 0.157395 0.226073 113 203 67
-0.350535 0.158054 0.226214 109 200 67
-0.349369 0.158882 0.226222 101 191 62
-0.347217 0.159195 0.226623 94 182 61
-0.346061 0.160018 0.22663 86 173 57
-0.344907 0.160839 0.226638 83 165 52
-0.343434 0.161486 0.226775 86 165 51
-0.341967 0.162131 0.226911 92 175 57
-0.340506 0.162773 0.227047 99 185 64
-0.338739 0.163239 0.22731 103 192 66
-0.337294 0.163876 0.227443 111 200 69
-0.335548 0.164336 0.227703 121 213 74
-0.334425 0.165142 0.227709 123 217 76
-0.333303 0.165946 0.227714 120 217 76
-0.331882 0.166573 0.227845 114 211 71
-0.330767 0.167373 0.22785 105 199 66
-0.329654 0.168173 0.227855 100 191 62
-0.32884 0.169148 0.227734 94 182 61
-0.328026 0.170125 0.227614 85 170 57
-0.327211 0.171101 0.227493 85 162 51
-0.325808 0.171717 0.227624 90 169 55
-0.324702 0.172511 0.227628 99 186 65
-0.322733 0.17276 0.228007 106 195 68
-0.320781 0.173007 0.228383 109 200 69
-0.319692 0.173793 0.228386 115 209 72
-0.318886 0.17476 0.228267 125 221 77
-0.315079 0.176741 0.228522 122 219 76
-0.313728 0.177336 0.228647 112 206 71
-0.312926 0.178298 0.228528 106 196 65
-0.311853 0.179075 0.228531 102 189 63
-0.257482 0.152571 0.249592 135 235 82
-0.256359 0.152968 0.249727 140 242 86
-0.255724 0.153729 0.249633 137 235 84
-0.280291 0.182639 0.234738 91 153 73
-0.288971 0.191261 0.229981 91 155 78
-0.288188 0.1922 0.229865 96 154 82
-0.287404 0.19314 0.229749 101 148 77
-0.28662 0.19408 0.229632 96 145 73
-0.285835 0.195021 0.229516 89 140 75
-0.284819 0.195765 0.229516 95 141 75
-0.283805 0.196508 0.229516 93 133 75
-0.282793 0.197249 0.229515 78 127 84
-0.362632 0.144103 0.226407 126 198 75
-0.361804 0.145096 0.226284 98 190 72
-0.360975 0.14609 0.22616 83 168 57
-0.364018 0.148833 0.224561 77 161 48
-0.364248 0.150331 0.224026 73 159 47
-0.363403 0.151344 0.2239 68 156 48
-0.362202 0.152192 0.223912 64 149 46
-0.360297 0.152705 0.224196 66 146 43
-0.358407 0.153215 0.224479 77 155 45
-0.356875 0.153888 0.224625 87 170 54
-0.35535 0.154558 0.22477 94 182 59
-0.354173 0.155393 0.224779 118 202 64
-0.352322 0.15589 0.225057 124 221 76
-0.351489 0.156889 0.224933 117 211 72
-0.35032 0.157719 0.224942 109 200 66
-0.349154 0.158547 0.224952 101 190 61
-0.347003 0.158862 0.225358 90 178 60
-0.345521 0.159514 0.225499 80 165 55
-0.34437 0.160335 0.225507 80 161 53
-0.342899 0.160982 0.225647 93 171 56
-0.341754 0.1618 0.225655 107 187 63
-0.340294 0.162442 0.225793 113 200 68
-0.338527 0.16291 0.22606 119 206 69
-0.336154 0.16303 0.226582 130 222 76
-0.33503 0.163836 0.226588 136 234 83
-0.333909 0.164641 0.226594 131 232 85
-0.332789 0.165445 0.226601 125 223 80
-0.331371 0.166072 0.226734 116 211 72
-0.330257 0.166873 0.22674 107 197 66
-0.329444 0.167848 0.226619 101 188 64
-0.32863 0.168823 0.226498 90 172 58
-0.327816 0.1698 0.226377 80 160 53
-0.326706 0.170597 0.226383 85 160 51
-0.325598 0.171393 0.226389 95 176 58
-0.324202 0.172007 0.226521 103 192 66
-0.322237 0.172257 0.226905 110 202 69
-0.32029 0.172506 0.227285 117 212 73
-0.319484 0.173472 0.227165 127 225 80
-0.314872 0.176422 0.227306 124 218 78
-0.313521 0.177018 0.227434 113 206 73
-0.312719 0.17798 0.227315 106 195 67
-0.258118 0.151679 0.24865 132 226 80
-0.256993 0.152078 0.248787 139 238 86
-0.256034 0.152596 0.248847 138 241 88
-0.2554 0.153357 0.248752 137 233 83
-0.288455 0.192281 0.228452 90 143 70
-0.287435 0.193028 0.228453 91 145 73
-0.28665 0.193969 0.228336 97 149 78
-0.285632 0.194714 0.228337 91 140 81
-0.359646 0.142557 0.226195 125 185 70
-0.358825 0.14354 0.226073 107 201 84
-0.358346 0.144676 0.225819 88 174 59
-0.359932 0.146748 0.224767 78 165 53
-0.362604 0.149339 0.223285 72 161 48
-0.362472 0.150674 0.222884 68 157 48
-0.360922 0.151356 0.223034 65 151 47
-0.359379 0.152034 0.223184 69 149 46
-0.357843 0.15271 0.223332 80 158 48
-0.356314 0.153384 0.22348 92 175 55
-0.355134 0.154221 0.223492 106 192 62
-0.353957 0.155056 0.223503 128 220 74
-0.352107 0.155554 0.223784 123 220 79
-0.351273 0.156553 0.22366 116 209 72
-0.350105 0.157383 0.223671 108 196 64
-0.348939 0.158212 0.223681 95 183 60
-0.346789 0.158528 0.224094 83 167 56
-0.345308 0.159181 0.224237 77 156 50
-0.344156 0.160003 0.224247 82 158 51
-0.342686 0.160651 0.224389 95 169 57
-0.341541 0.161469 0.224398 109 184 63
-0.340081 0.162112 0.224539 117 197 67
-0.338003 0.162409 0.224941 124 209 69
-0.335943 0.162703 0.225339 134 224 75
-0.33482 0.163509 0.225346 135 229 80
-0.333698 0.164315 0.225354 129 226 82
-0.332276 0.164945 0.22549 124 216 75
-0.33086 0.165573 0.225626 116 205 68
-0.330047 0.166548 0.225504 105 191 67
-0.329234 0.167523 0.225383 95 176 60
-0.32842 0.168498 0.225261 85 159 52
-0.32731 0.169296 0.225268 81 151 48
-0.326496 0.170272 0.225147 85 159 51
-0.325096 0.170889 0.225282 96 174 57
-0.323992 0.171683 0.225289 104 185 63
-0.321742 0.171756 0.225805 112 198 67
-0.320082 0.172186 0.226063 120 213 73
-0.319276 0.173152 0.225943 129 226 80
-0.31439 0.175921 0.226215 121 210 74
-0.313587 0.176883 0.226095 112 200 69
-0.258919 0.150905 0.247627 123 214 73
-0.257953 0.151427 0.247689 132 228 78
-0.256829 0.151827 0.247829 135 234 81
-0.256032 0.152467 0.247812 133 232 81
-0.255397 0.153229 0.247718 125 225 80
-0.288802 0.190839 0.227507 80 143 70
-0.288018 0.191779 0.22739 84 143 68
-0.287466 0.192915 0.227154 88 143 71
-0.28668 0.193857 0.227037 78 135 66
-0.35875 0.141927 0.225202 128 164 63
-0.357931 0.142907 0.22508 130 216 89
-0.357113 0.143889 0.224957 99 187 66
-0.357312 0.145329 0.224437 83 177 60
-0.359233 0.147564 0.223236 77 170 53
-0.361546 0.150007 0.221872 73 164 52
-0.360353 0.150852 0.221886 70 160 52
-0.359162 0.151695 0.221899 73 158 51
-0.35728 0.152207 0.222189 83 165 52
-0.356098 0.153046 0.222201 96 181 56
-0.355261 0.154049 0.222076 112 200 65
-0.353741 0.154719 0.222226 127 222 76
-0.352229 0.155385 0.222375 123 215 76
-0.350723 0.15605 0.222524 117 207 71
-0.34989 0.157048 0.222399 106 191 63
-0.348724 0.157877 0.222411 90 173 58
-0.346575 0.158195 0.222829 79 156 51
-0.345094 0.158849 0.222975 78 150 47
-0.34362 0.1595 0.22312 86 157 50
-0.342473 0.160319 0.22313 97 169 56
-0.341328 0.161137 0.223141 108 184 63
-0.339869 0.161782 0.223284 120 200 67
-0.337791 0.16208 0.223692 127 214 73
-0.335733 0.162375 0.224096 133 222 75
-0.334609 0.163182 0.224104 131 225 78
-0.333488 0.163988 0.224113 129 219 76
-0.332066 0.164619 0.224252 125 213 70
-0.330651 0.165248 0.22439 115 201 68
-0.329838 0.166222 0.224268 101 184 66
-0.329024 0.167197 0.224146 88 166 58
-0.32821 0.168173 0.224025 80 150 46
-0.3271 0.168971 0.224033 80 147 47
-0.326286 0.169947 0.223911 86 158 51
-0.324886 0.170565 0.224049 96 172 56
-0.323783 0.171359 0.224057 107 183 62
-0.321533 0.171434 0.224579 117 199 67
-0.320441 0.172223 0.224586 125 216 74
-0.314183 0.175602 0.225 120 208 70
-0.31338 0.176565 0.22488 111 196 66
-0.259723 0.15013 0.246602 114 203 67
-0.258755 0.150654 0.246665 124 219 74
-0.257789 0.151176 0.246729 132 230 76
-0.256665 0.151577 0.246871 135 228 77
-0.255868 0.152217 0.246855 133 227 77
-0.255394 0.1531 0.246681 129 219 76
-0.28962 0.189783 0.226325 81 136 63
-0.2886 0.190531 0.226328 77 135 71
-0.28805 0.191665 0.22609 81 136 71
-0.287498 0.192802 0.225852 72 132 67
-0.357858 0.141299 0.224214 128 149 60
-0.356704 0.142129 0.224224 151 230 89
-0.355888 0.143106 0.224102 113 205 77
-0.356082 0.144538 0.22358 95 192 69
-0.357298 0.146446 0.222647 87 182 60
-0.360274 0.149182 0.221006 80 173 56
-0.359785 0.150349 0.22074 76 169 55
-0.358596 0.151192 0.220754 76 167 56
-0.357064 0.151869 0.220908 85 174 57
-0.356226 0.152873 0.220782 100 190 60
-0.355045 0.153711 0.220796 112 208 67
-0.353866 0.154548 0.22081 124 217 71
-0.352013 0.155049 0.221101 123 212 75
-0.350843 0.155881 0.221114 115 206 70
-0.349342 0.156544 0.221265 101 189 64
-0.348509 0.157542 0.22114 87 167 56
-0.346361 0.157861 0.221564 78 152 48
-0.34488 0.158516 0.221713 80 150 46
-0.343407 0.159168 0.22186 88 159 50
-0.34226 0.159988 0.221872 98 174 57
-0.341115 0.160806 0.221883 110 189 63
-0.339341 0.16128 0.222164 123 205 68
-0.337579 0.161751 0.222443 131 219 74
-0.335522 0.162048 0.222853 131 222 76
-0.334398 0.162855 0.222862 130 223 78
-0.333277 0.163661 0.222872 127 219 76
-0.331554 0.164121 0.223145 124 214 72
-0.330441 0.164923 0.223154 113 198 69
-0.329628 0.165897 0.223032 98 180 64
-0.328814 0.166872 0.22291 85 160 55
-0.327703 0.167672 0.222919 78 146 47
-0.32689 0.168647 0.222797 79 149 49
-0.325782 0.169444 0.222806 86 161 51
-0.324385 0.170062 0.222946 96 175 57
-0.323283 0.170856 0.222955 109 192 64
-0.322472 0.171829 0.222833 121 209 71
-0.313976 0.175284 0.223785 121 206 70
-0.313173 0.176246 0.223665 112 195 65
-0.259559 0.149877 0.245638 122 207 69
-0.25859 0.150402 0.245703 129 222 74
-0.257789 0.151045 0.245688 131 230 77
-0.256988 0.151688 0.245673 131 227 76
-0.256189 0.15233 0.245657 137 224 75
-0.255713 0.153216 0.245481 132 220 77
-0.289418 0.189475 0.225145 78 134 60
-0.288633 0.190416 0.225027 75 135 67
-0.288082 0.19155 0.224787 83 131 71
-0.357309 0.140821 0.223097 113 130 62
-0.356157 0.14165 0.223108 158 226 87
-0.355342 0.142627 0.222986 120 217 89
-0.354861 0.143754 0.222729 104 202 72
-0.355725 0.145495 0.221929 95 194 65
-0.359359 0.148523 0.220005 87 185 61
-0.359219 0.149847 0.219597 85 179 61
-0.358032 0.15069 0.219612 85 179 65
-0.356848 0.151531 0.219627 92 184 67
-0.35601 0.152534 0.219501 108 196 67
-0.354828 0.153373 0.219516 119 213 70
-0.353649 0.15421 0.219531 124 213 69
-0.351798 0.154713 0.219826 121 213 75
-0.350627 0.155545 0.219841 112 205 70
-0.349127 0.156209 0.219994 97 186 63
-0.348294 0.157206 0.219869 84 165 55
-0.34582 0.157359 0.220437 78 154 48
-0.344343 0.158014 0.220588 82 153 48
-0.342872 0.158667 0.220738 91 163 52
-0.341727 0.159486 0.22075 101 178 58
-0.340584 0.160304 0.220763 113 194 64
-0.338814 0.160779 0.221047 125 211 71
-0.336746 0.161081 0.221464 132 221 76
-0.335004 0.161551 0.221743 131 221 76
-0.333882 0.162358 0.221754 131 221 76
-0.33246 0.162992 0.221898 127 218 75
-0.331344 0.163796 0.221908 122 212 72
-0.330231 0.164598 0.221918 111 199 69
-0.32912 0.165399 0.221928 96 178 62
-0.328307 0.166372 0.221806 84 158 54
-0.327198 0.167171 0.221816 79 149 48
-0.326385 0.168145 0.221694 81 152 50
-0.324988 0.168766 0.221836 89 164 52
-0.323886 0.169561 0.221846 100 179 58
-0.323074 0.170533 0.221724 113 196 65
-0.313769 0.174965 0.22257 121 207 72
-0.312422 0.175564 0.222707 107 193 66
-0.260365 0.149099 0.244608 110 197 65
-0.259228 0.149506 0.244756 124 216 72
-0.258426 0.15015 0.244741 130 225 76
-0.257788 0.150914 0.244645 128 229 78
-0.256987 0.151558 0.24463 129 229 77
-0.256186 0.1522 0.244616 132 222 76
-0.256034 0.153332 0.244275 129 214 74
-0.290237 0.188417 0.22396 78 135 59
-0.289215 0.189167 0.223965 80 132 60
-0.288666 0.1903 0.223723 83 131 67
-0.35561 0.141173 0.221995 151 209 81
-0.354796 0.142148 0.221872 123 229 99
-0.354315 0.143273 0.221614 109 206 72
-0.354502 0.144705 0.221082 100 199 68
-0.358448 0.147867 0.219009 92 192 64
-0.358306 0.149186 0.218599 93 187 64
-0.357469 0.150189 0.218473 94 192 72
-0.356631 0.151192 0.218346 102 194 77
-0.355793 0.152196 0.218219 118 201 77
-0.354612 0.153035 0.218236 127 220 78
-0.353094 0.153707 0.218394 122 214 71
-0.351582 0.154376 0.218552 119 217 76
-0.350078 0.155043 0.218708 112 204 70
-0.34858 0.155706 0.218864 96 184 62
-0.346108 0.155868 0.219438 84 165 54
-0.345281 0.156859 0.219313 80 158 51
-0.343807 0.157514 0.219466 83 157 52
-0.342339 0.158167 0.219618 94 167 54
-0.341514 0.159155 0.219493 105 183 60
-0.340055 0.159803 0.219645 115 200 68
-0.338289 0.16028 0.219932 125 214 74
-0.335917 0.160415 0.220489 131 221 77
-0.334487 0.161054 0.220636 131 222 76
-0.333064 0.161691 0.220782 132 221 74
-0.331948 0.162496 0.220794 128 218 74
-0.330834 0.163299 0.220805 120 211 72
-0.329723 0.164101 0.220816 110 196 67
-0.32891 0.165074 0.220693 95 175 61
-0.327801 0.165874 0.220704 85 160 53
-0.326695 0.166672 0.220716 82 154 47
-0.32559 0.16747 0.220726 85 154 50
-0.324487 0.168266 0.220737 92 166 54
-0.323387 0.169061 0.220748 104 184 60
-0.322865 0.170209 0.220492 117 202 66
-0.312474 0.173927 0.221874 121 204 71
-0.2602 0.148846 0.243642 114 204 67
-0.259064 0.149254 0.243793 126 220 71
-0.258426 0.150018 0.243697 130 226 76
-0.257623 0.150662 0.243683 131 228 77
-0.256985 0.151427 0.243586 130 226 75
-0.256509 0.152314 0.243407 130 222 79
-0.256194 0.153326 0.243145 126 203 74
-0.289798 0.187919 0.222903 79 134 62
-0.289249 0.18905 0.22266 82 131 64
-0.288463 0.189991 0.222541 84 128 65
-0.354732 0.140551 0.22102 142 186 70
-0.35392 0.141524 0.220897 131 236 97
-0.353439 0.142645 0.220637 111 209 71
-0.353622 0.144071 0.220103 101 202 71
-0.357887 0.147371 0.217876 95 196 65
-0.357744 0.148688 0.217463 95 192 63
-0.357253 0.14985 0.217192 97 195 68
-0.356415 0.150854 0.217065 106 197 74
-0.355577 0.151857 0.216938 121 208 81
-0.354396 0.152697 0.216955 129 227 85
-0.352878 0.15337 0.217116 118 218 75
-0.351367 0.15404 0.217277 117 217 75
-0.349863 0.154707 0.217436 111 203 69
-0.348366 0.155372 0.217595 95 183 62
-0.345569 0.15537 0.218316 85 168 55
-0.344743 0.156359 0.218191 81 163 54
-0.343272 0.157015 0.218346 86 161 54
-0.342126 0.157836 0.218361 98 171 55
-0.340666 0.158487 0.218515 109 189 60
-0.339527 0.159304 0.218529 118 205 69
-0.337764 0.159781 0.21882 125 216 76
-0.335399 0.159919 0.219383 129 220 77
-0.333972 0.160559 0.219532 131 224 76
-0.332551 0.161197 0.21968 130 222 76
-0.331738 0.16217 0.219557 125 219 75
-0.330624 0.162974 0.219569 118 208 74
-0.329513 0.163776 0.219581 109 193 66
-0.328108 0.164405 0.219728 96 175 60
-0.327297 0.165376 0.219605 86 164 55
-0.325899 0.166001 0.219752 85 158 50
-0.324798 0.166797 0.219764 88 158 52
-0.323699 0.167592 0.219775 96 172 56
-0.32289 0.168561 0.219653 109 190 60
-0.31684 0.170662 0.220494 136 223 75
-0.316038 0.171622 0.220372 134 223 77
-0.31496 0.172405 0.220382 132 222 78
-0.313067 0.172653 0.220786 128 215 77
-0.311998 0.173432 0.220795 119 202 72
-0.260842 0.147946 0.24269 108 193 63
-0.260035 0.148593 0.242677 118 208 67
-0.259065 0.149121 0.242747 124 220 70
-0.258261 0.149766 0.242733 129 227 76
-0.257622 0.150531 0.242637 131 227 76
-0.256983 0.151296 0.24254 134 226 74
-0.25667 0.152306 0.242275 133 220 77
-0.290618 0.18686 0.221716 84 133 59
-0.289832 0.1878 0.221597 83 131 60
-0.289046 0.188741 0.221478 84 127 64
-0.353047 0.140902 0.219926 146 233 87
-0.352236 0.141873 0.219803 116 212 73
-0.352414 0.143291 0.219267 102 204 70
-0.357672 0.147034 0.2166 96 198 67
-0.357183 0.148191 0.216329 95 196 64
-0.357037 0.149512 0.215911 97 196 68
-0.356199 0.150515 0.215783 107 198 73
-0.35536 0.151519 0.215656 124 210 78
-0.354179 0.152359 0.215675 134 226 85
-0.352662 0.153032 0.215839 121 223 82
-0.351151 0.153703 0.216002 118 212 73
-0.349648 0.154371 0.216164 110 204 71
-0.348151 0.155037 0.216326 95 185 65
-0.345032 0.154873 0.217197 86 170 57
-0.343562 0.155531 0.217354 82 164 56
-0.342738 0.156517 0.217229 91 166 55
-0.341594 0.157337 0.217245 102 178 57
-0.340137 0.157989 0.217401 112 195 62
-0.338686 0.158638 0.217556 121 207 69
-0.336931 0.159116 0.217849 127 215 75
-0.334882 0.159425 0.218278 128 220 76
-0.333154 0.159898 0.218567 130 223 75
-0.332341 0.160871 0.218443 129 222 76
-0.331227 0.161675 0.218456 124 217 76
-0.330116 0.162479 0.21847 117 203 74
-0.32871 0.16311 0.218619 109 191 65
-0.327604 0.16391 0.218632 96 177 61
-0.3265 0.164708 0.218645 91 166 58
-0.325399 0.165505 0.218658 88 164 54
-0.324299 0.166301 0.21867 89 166 56
-0.322628 0.166749 0.218952 100 179 59
-0.321821 0.167715 0.21883 114 196 63
-0.321299 0.168856 0.218572 124 212 70
-0.317436 0.169382 0.2194 130 223 77
-0.316357 0.170167 0.219411 133 223 76
-0.31528 0.17095 0.219422 133 222 76
-0.313932 0.171556 0.219565 131 221 78
-0.31259 0.172159 0.219708 124 213 78
-0.311792 0.173115 0.219586 117 198 71
-0.259871 0.148341 0.241711 120 211 72
-0.259231 0.149107 0.241614 126 219 74
-0.290415 0.186551 0.220534 81 135 61
-0.28963 0.187492 0.220415 83 130 61
-0.288844 0.188433 0.220295 88 124 64
-0.351196 0.139851 0.219371 160 225 83
-0.35039 0.140816 0.219248 121 217 83
-0.351215 0.142516 0.218437 102 205 70
-0.357457 0.146697 0.215325 97 201 67
-0.356967 0.147853 0.215051 95 197 64
-0.356132 0.148853 0.214924 97 197 65
-0.355982 0.150176 0.214502 108 198 70
-0.355144 0.15118 0.214374 126 209 78
-0.353963 0.152021 0.214394 138 227 88
-0.352785 0.152859 0.214413 131 229 90
-0.351272 0.153531 0.21458 119 209 75
-0.349766 0.154201 0.214746 113 202 70
-0.348267 0.154867 0.21491 98 187 67
-0.344819 0.15454 0.215938 90 173 59
-0.343029 0.155035 0.21624 87 169 57
-0.342205 0.15602 0.216115 92 174 57
-0.340747 0.156675 0.216273 103 187 60
-0.339295 0.157326 0.216431 114 200 65
-0.337849 0.157975 0.216587 123 210 69
-0.336101 0.158455 0.216883 127 216 73
-0.334366 0.158932 0.217177 129 220 75
-0.332944 0.159572 0.21733 130 221 75
-0.33183 0.160378 0.217344 128 220 75
-0.330718 0.161182 0.217359 124 214 75
-0.329608 0.161985 0.217373 116 199 73
-0.328205 0.162616 0.217524 108 189 64
-0.327101 0.163416 0.217538 101 177 59
-0.325999 0.164214 0.217552 94 170 59
-0.324899 0.16501 0.217565 91 168 55
-0.323226 0.165462 0.217851 94 173 57
-0.321848 0.166083 0.218 105 187 59
-0.321043 0.167046 0.217877 118 202 66
-0.319955 0.167836 0.21789 125 209 71
-0.318309 0.168277 0.218173 128 217 73
-0.316951 0.168889 0.218319 131 222 75
-0.315874 0.169673 0.218331 133 223 76
-0.314525 0.170281 0.218476 133 223 77
-0.313183 0.170887 0.218621 130 217 78
-0.311577 0.171315 0.218897 123 208 73
-0.310781 0.172267 0.218776 116 198 66
-0.290998 0.185303 0.219472 80 134 63
-0.290213 0.186243 0.219352 80 133 63
-0.289427 0.187183 0.219233 82 133 64
-0.349533 0.140202 0.218289 121 229 99
-0.348729 0.141165 0.218166 103 200 69
-0.356212 0.145892 0.21449 97 199 67
-0.356751 0.147515 0.213773 95 198 66
-0.355916 0.148515 0.213646 95 196 65
-0.355766 0.149838 0.21322 102 197 69
-0.354927 0.150842 0.213092 121 208 78
-0.353746 0.151682 0.213113 142 227 89
-0.352568 0.152521 0.213134 142 235 93
-0.351056 0.153194 0.213303 116 211 82
-0.349884 0.15403 0.213323 113 201 70
-0.348383 0.154698 0.213491 103 193 71
-0.344606 0.154208 0.214679 95 178 62
-0.342496 0.154541 0.215128 91 177 61
-0.340723 0.155034 0.215431 94 182 59
-0.339903 0.156015 0.215306 105 193 60
-0.338457 0.156666 0.215465 115 204 65
-0.336707 0.15715 0.215765 122 212 70
-0.335276 0.157796 0.215922 126 218 72
-0.333547 0.158275 0.216218 129 220 74
-0.332433 0.159081 0.216233 130 221 76
-0.33132 0.159886 0.216248 127 219 74
-0.33021 0.160689 0.216263 122 211 72
-0.329102 0.161492 0.216278 115 200 69
-0.327701 0.162124 0.216432 108 190 64
-0.326892 0.163092 0.216308 107 183 60
-0.325499 0.16372 0.216461 97 173 58
-0.323824 0.164176 0.216751 96 172 56
-0.322445 0.164799 0.216902 102 178 60
-0.321641 0.165762 0.216779 112 192 61
-0.320552 0.166553 0.216792 122 206 69
-0.319185 0.16717 0.216942 128 211 72
-0.317823 0.167785 0.217092 132 217 73
-0.316468 0.168397 0.21724 133 222 74
-0.315393 0.169181 0.217253 133 222 75
-0.314046 0.169789 0.2174 134 220 77
-0.312977 0.17057 0.217413 129 215 77
-0.311372 0.170999 0.217693 121 207 72
-0.310576 0.171951 0.217571 114 199 67
-0.290795 0.184994 0.218291 78 137 66
-0.29001 0.185934 0.218171 79 135 66
-0.289224 0.186875 0.21805 86 128 65
-0.348681 0.13959 0.217335 121 221 93
-0.348199 0.140695 0.217073 105 193 65
-0.347715 0.141803 0.21681 96 196 63
-0.356192 0.14702 0.212645 91 193 63
-0.3557 0.148178 0.212367 92 192 62
-0.355206 0.149338 0.212089 97 196 63
-0.354368 0.150341 0.21196 115 204 69
-0.35353 0.151344 0.211832 139 221 82
-0.352352 0.152184 0.211854 142 236 96
-0.351176 0.153022 0.211876 114 219 92
-0.350003 0.153858 0.211897 112 200 71
-0.3485 0.154527 0.212069 112 199 74
-0.344716 0.154039 0.213273 102 185 65
-0.341966 0.154048 0.214019 97 182 61
-0.339882 0.15438 0.214469 102 188 60
-0.338128 0.154871 0.214772 110 196 62
-0.337312 0.155846 0.214646 117 206 67
-0.336188 0.156659 0.214664 121 213 70
-0.334759 0.157305 0.214823 126 218 73
-0.333035 0.157784 0.215122 129 221 74
-0.332223 0.158755 0.214997 129 220 75
-0.330811 0.159395 0.215154 127 217 74
-0.329703 0.160198 0.215171 122 210 71
-0.328597 0.161 0.215187 116 202 67
-0.327492 0.1618 0.215202 110 193 65
-0.32639 0.1626 0.215218 111 186 61
-0.32471 0.163059 0.215512 103 178 58
-0.323328 0.163685 0.215666 102 179 58
-0.322238 0.164478 0.215681 109 183 63
-0.321149 0.16527 0.215695 116 196 65
-0.320062 0.166061 0.21571 119 210 72
-0.318698 0.166678 0.215862 124 216 76
-0.317617 0.167466 0.215876 128 218 78
-0.316262 0.168079 0.216027 131 221 77
-0.314912 0.16869 0.216177 132 222 77
-0.313841 0.169472 0.216191 132 220 77
-0.312501 0.170079 0.21634 130 217 76
-0.310899 0.170509 0.216623 124 211 74
-0.309838 0.171285 0.216636 118 202 70
-0.285852 0.170647 0.223396 131 217 75
-0.285107 0.171538 0.223281 118 193 75
-0.291378 0.183747 0.217229 82 136 61
-0.290593 0.184686 0.217109 82 134 64
-0.289808 0.185626 0.216989 83 135 64
-0.348152 0.139123 0.216245 140 217 82
-0.34735 0.140083 0.216122 109 192 69
-0.346867 0.141187 0.215858 97 189 65
-0.354952 0.146214 0.21182 92 189 60
-0.355142 0.147681 0.21124 91 189 59
-0.354648 0.14884 0.21096 94 194 60
-0.354152 0.150002 0.210679 105 202 64
-0.353313 0.151006 0.21055 124 217 79
-0.352136 0.151846 0.210573 133 232 93
-0.35096 0.152684 0.210597 121 224 87
-0.349787 0.153521 0.21062 113 199 71
-0.348616 0.154357 0.210642 121 203 75
-0.344827 0.15387 0.211864 107 194 70
-0.341754 0.153717 0.212767 103 189 62
-0.339044 0.153729 0.213511 107 194 61
-0.337607 0.154382 0.213673 113 200 64
-0.336792 0.155356 0.213547 118 208 68
-0.335363 0.156005 0.213709 123 214 71
-0.334244 0.156815 0.213726 127 218 73
-0.332825 0.157459 0.213887 128 221 74
-0.331713 0.158265 0.213904 127 220 73
-0.330304 0.158905 0.214063 125 215 73
-0.329197 0.159708 0.21408 120 208 71
-0.328092 0.160509 0.214097 116 203 67
-0.32699 0.161309 0.214114 112 195 65
-0.325308 0.161773 0.214411 115 189 64
-0.323925 0.162401 0.214567 107 188 64
-0.322834 0.163195 0.214583 107 188 59
-0.321745 0.163988 0.214599 112 190 64
-0.320942 0.16495 0.214475 117 198 68
-0.319855 0.165741 0.214491 124 214 76
-0.318491 0.166359 0.214646 125 218 78
-0.31741 0.167146 0.214661 127 218 77
-0.31578 0.167588 0.214952 132 221 76
-0.314706 0.168372 0.214967 132 221 76
-0.313635 0.169154 0.214981 130 218 75
-0.312025 0.169588 0.21527 127 213 73
-0.310427 0.17002 0.215556 122 208 72
-0.309103 0.170622 0.215705 117 202 69
-0.30831 0.171571 0.215583 111 197 65
-0.286404 0.169463 0.222387 130 223 77
-0.285218 0.170031 0.22251 127 207 77
-0.284475 0.17092 0.222396 102 171 68
-0.28395 0.171973 0.222163 86 146 59
-0.291176 0.183438 0.216048 79 138 63
-0.290391 0.184377 0.215927 82 137 64
-0.289605 0.185317 0.215806 83 132 66
-0.347625 0.138657 0.215158 142 208 77
-0.347143 0.139758 0.214893 112 212 84
-0.34634 0.140718 0.214769 99 190 63
-0.345855 0.141824 0.214504 92 189 59
-0.354585 0.147187 0.210115 90 187 59
-0.354432 0.148502 0.209681 92 190 59
-0.353595 0.149503 0.209552 98 196 62
-0.352757 0.150505 0.209422 112 207 69
-0.351919 0.151508 0.209293 129 223 79
-0.350744 0.152346 0.209317 128 228 81
-0.349571 0.153184 0.209342 111 203 72
-0.348401 0.15402 0.209366 122 202 71
-0.345263 0.153864 0.2103 113 201 76
-0.34186 0.153549 0.211366 107 196 63
-0.338834 0.153401 0.212267 109 197 63
-0.337088 0.153894 0.212576 114 203 65
-0.33566 0.154545 0.212739 119 210 69
-0.334847 0.155516 0.212614 124 215 72
-0.333427 0.156163 0.212776 127 219 73
-0.332314 0.15697 0.212795 127 220 73
-0.330904 0.157612 0.212956 125 218 73
