ply
format ascii 1.0
element vertex 1256
property float x
property float y
property float z
property uchar diffuse_red
property uchar diffuse_green
property uchar diffuse_blue
end_header
-0.32622 0.100382 0.274758 15 108 15
-0.325611 0.101202 0.274693 14 109 9
-0.325001 0.102023 0.274628 13 111 13
-0.32439 0.102845 0.274563 22 109 15
-0.323779 0.103667 0.274498 36 115 28
-0.322931 0.104402 0.274488 38 117 27
-0.32232 0.105224 0.274422 35 117 19
-0.321709 0.106047 0.274357 35 120 16
-0.320863 0.106781 0.274347 41 120 20
-0.320251 0.107604 0.274282 41 120 27
-0.319407 0.108336 0.274272 45 118 30
-0.319027 0.109251 0.274151 45 119 33
-0.317188 0.111726 0.273955 56 122 38
-0.316574 0.112551 0.273889 57 124 41
-0.31596 0.113378 0.273823 60 126 39
-0.315804 0.114398 0.273645 61 125 36
-0.316339 0.115719 0.273295 61 123 38
-0.317815 0.117457 0.27271 59 122 38
-0.317659 0.118504 0.272527 59 122 40
-0.317032 0.119348 0.27246 58 122 41
-0.317344 0.120612 0.272157 59 122 40
-0.317658 0.121886 0.271852 61 121 39
-0.317736 0.123063 0.271605 61 120 39
-0.317814 0.124248 0.271356 61 120 41
-0.317176 0.125106 0.271287 59 119 43
-0.316064 0.125743 0.27134 62 122 41
-0.315191 0.126488 0.271333 65 123 40
-0.314553 0.127346 0.271264 71 129 41
-0.313916 0.128204 0.271196 79 140 46
-0.313278 0.129063 0.271128 84 152 51
-0.312174 0.129692 0.271181 88 158 53
-0.311537 0.13055 0.271113 88 160 53
-0.310899 0.131408 0.271044 85 160 54
-0.311184 0.13274 0.270733 82 157 53
-0.311005 0.133842 0.270542 78 154 48
-0.310594 0.134829 0.270411 73 150 46
-0.309719 0.135573 0.270404 67 147 47
-0.309536 0.136686 0.270212 64 142 44
-0.309352 0.137803 0.270019 61 138 42
-0.308936 0.1388 0.269887 58 134 41
-0.3142 0.14292 0.268215 55 133 40
-0.313776 0.143951 0.268078 54 132 37
-0.312868 0.144713 0.268072 51 132 40
-0.312201 0.14561 0.268001 53 131 38
-0.311534 0.146508 0.26793 55 132 38
-0.310627 0.147268 0.267925 54 133 40
-0.309485 0.147889 0.267985 52 134 39
-0.307877 0.148232 0.268177 54 137 38
-0.306283 0.148572 0.268366 56 138 40
-0.30539 0.149324 0.268361 60 140 40
-0.3045 0.150074 0.268355 63 143 41
-0.296331 0.147624 0.270163 70 146 44
-0.294418 0.147693 0.270458 73 149 46
-0.292527 0.147762 0.27075 76 150 47
-0.291274 0.148222 0.270861 78 151 50
-0.290436 0.148942 0.270853 81 153 54
-0.289804 0.149793 0.270785 95 164 60
-0.288968 0.150512 0.270777 125 185 69
-0.288538 0.151497 0.27065 139 204 80
-0.288106 0.152484 0.270522 120 204 90
-0.288283 0.153884 0.270215 99 164 78
-0.326614 0.0993067 0.273828 36 115 26
-0.326005 0.100127 0.273763 25 112 21
-0.325395 0.100947 0.273697 27 110 14
-0.324785 0.101768 0.273632 29 112 17
-0.324174 0.10259 0.273566 29 112 18
-0.323563 0.103412 0.273501 41 115 23
-0.322952 0.104234 0.273435 49 115 24
-0.32234 0.105057 0.273369 53 114 20
-0.321728 0.105881 0.273303 57 116 17
-0.320647 0.106526 0.273351 56 117 26
-0.320035 0.107349 0.273285 55 115 37
-0.319191 0.108082 0.273276 53 117 41
-0.318811 0.108996 0.273154 56 120 41
-0.318198 0.109821 0.273088 61 128 38
-0.317124 0.11046 0.273136 65 134 40
-0.316741 0.111377 0.273014 69 136 46
-0.316358 0.112297 0.272891 73 138 47
-0.315743 0.113123 0.272825 74 138 45
-0.315358 0.114047 0.272701 75 135 41
-0.31589 0.115364 0.272347 72 135 42
-0.31736 0.117097 0.271753 71 131 39
-0.317437 0.118245 0.271508 68 126 39
-0.317751 0.119503 0.271202 65 123 40
-0.319743 0.121519 0.270465 62 120 40
-0.319105 0.122377 0.270397 63 119 39
-0.318467 0.123235 0.270328 64 120 37
-0.318788 0.124536 0.270012 62 120 40
-0.317907 0.125288 0.270005 60 121 44
-0.316788 0.125926 0.270061 58 123 42
-0.316148 0.126787 0.269992 62 127 42
-0.315507 0.127649 0.269923 71 132 42
-0.31463 0.128398 0.269916 76 141 45
-0.31352 0.12903 0.269971 76 148 48
-0.31288 0.129891 0.269903 77 150 48
-0.31224 0.130752 0.269834 75 150 47
-0.311599 0.131614 0.269765 72 150 47
-0.311654 0.132833 0.269509 70 149 46
-0.311244 0.133818 0.269378 68 145 43
-0.310831 0.134807 0.269246 63 142 41
-0.309954 0.135553 0.269239 57 140 42
-0.309771 0.136668 0.269044 57 137 40
-0.309124 0.137538 0.268974 55 133 41
-0.308477 0.138409 0.268905 55 131 42
-0.313966 0.142648 0.267141 54 131 40
-0.313784 0.143813 0.266935 55 130 38
-0.312874 0.144576 0.266931 54 129 42
-0.312448 0.14561 0.266792 58 129 39
-0.311779 0.14651 0.26672 60 132 39
-0.31111 0.14741 0.266648 62 135 40
-0.309963 0.148033 0.266711 63 138 40
-0.308584 0.148515 0.266841 64 142 42
-0.306514 0.148578 0.26717 66 145 44
-0.305851 0.14947 0.267099 71 148 46
-0.295466 0.146969 0.269318 90 163 52
-0.294194 0.147435 0.269434 91 168 55
-0.292304 0.147505 0.269732 90 169 57
-0.29167 0.148359 0.269664 90 168 59
-0.290419 0.148817 0.269777 110 171 65
-0.289581 0.149537 0.26977 142 194 77
-0.288948 0.150389 0.269702 130 217 88
-0.288518 0.151374 0.269573 99 170 81
-0.326528 0.0980708 0.273012 44 115 22
-0.32592 0.0988887 0.272947 46 114 27
-0.325789 0.0998718 0.272767 43 114 28
-0.325179 0.100692 0.272701 48 113 22
-0.324569 0.101513 0.272635 49 114 23
-0.324196 0.10242 0.272512 48 113 28
-0.323585 0.103243 0.272446 52 114 27
-0.322973 0.104066 0.27238 56 115 27
-0.322124 0.104802 0.272371 57 114 28
-0.321512 0.105626 0.272305 59 113 28
-0.320899 0.10645 0.272239 63 114 30
-0.319819 0.107095 0.272289 66 118 35
-0.319207 0.107918 0.272223 69 121 38
-0.318363 0.108651 0.272214 75 131 43
-0.317751 0.109474 0.272148 80 140 44
-0.316908 0.110206 0.27214 81 145 45
-0.316755 0.111216 0.271958 82 146 49
-0.316371 0.112137 0.271834 81 145 51
-0.315756 0.112964 0.271768 84 143 48
-0.31514 0.113792 0.271701 83 141 46
-0.315671 0.115108 0.271341 78 140 45
-0.316207 0.116438 0.270978 75 138 43
-0.316982 0.117883 0.270551 73 132 41
-0.322785 0.12387 0.268343 61 121 40
-0.320905 0.124183 0.268596 59 121 38
-0.32026 0.125052 0.268526 58 121 40
-0.319127 0.125695 0.268584 59 121 39
-0.317758 0.126224 0.268706 59 124 35
-0.317115 0.12709 0.268637 60 127 39
-0.316232 0.127841 0.268631 64 132 40
-0.314876 0.128363 0.268753 64 137 42
-0.313763 0.128996 0.26881 62 141 42
-0.313122 0.129859 0.268741 61 142 43
-0.312247 0.130605 0.268735 59 142 43
-0.312071 0.131704 0.268539 58 142 43
-0.311661 0.132688 0.268406 58 141 43
-0.311483 0.133795 0.268208 60 139 42
-0.310604 0.134542 0.268203 60 135 40
-0.31019 0.135533 0.268069 57 135 40
-0.309543 0.136403 0.267999 58 133 42
-0.309127 0.137398 0.267865 60 131 44
-0.308479 0.13827 0.267795 66 129 44
-0.31446 0.142776 0.265862 70 133 41
-0.313792 0.143675 0.26579 70 135 42
-0.313123 0.144574 0.265718 67 133 45
-0.312454 0.145474 0.265646 65 134 43
-0.311785 0.146375 0.265573 64 135 43
-0.311115 0.147276 0.265501 66 138 44
-0.310205 0.148038 0.265498 72 142 46
-0.309059 0.14866 0.265563 77 149 47
-0.306746 0.148585 0.265968 82 155 49
-0.306082 0.149479 0.265896 87 162 52
-0.295242 0.14671 0.268291 94 178 59
-0.293969 0.147176 0.26841 97 178 59
-0.293122 0.147902 0.268403 98 176 58
-0.291447 0.148101 0.268645 111 180 63
-0.290812 0.148955 0.268576 136 197 78
-0.290177 0.14981 0.268508 125 204 88
-0.325705 0.0986343 0.271953 50 113 28
-0.325574 0.0996169 0.271771 52 113 29
-0.324964 0.100437 0.271704 54 112 29
-0.324592 0.101342 0.27158 56 113 30
-0.324219 0.10225 0.271455 57 114 35
-0.323606 0.103073 0.271389 57 115 35
-0.322993 0.103897 0.271322 58 116 36
-0.321908 0.104547 0.271373 60 117 38
-0.321296 0.105371 0.271307 61 117 37
-0.320683 0.106195 0.271241 62 120 39
-0.32007 0.107019 0.271174 70 121 40
-0.319223 0.107754 0.271167 81 131 42
-0.318378 0.108487 0.271159 86 142 47
-0.317534 0.10922 0.271152 91 152 51
-0.316462 0.109859 0.271203 93 157 51
-0.316538 0.110962 0.27096 90 156 52
-0.316154 0.111882 0.270834 87 151 51
-0.315539 0.112709 0.270767 84 148 48
-0.315152 0.113633 0.270641 82 144 46
-0.315914 0.115048 0.270216 74 140 46
-0.315987 0.11618 0.269967 71 138 44
-0.316527 0.117523 0.269594 69 133 41
-0.321908 0.124475 0.267221 56 123 35
-0.321012 0.125235 0.267216 55 124 39
-0.320363 0.126108 0.267146 57 124 34
-0.319469 0.126867 0.267141 56 124 36
-0.318576 0.127625 0.267137 56 126 38
-0.317685 0.128381 0.267132 56 130 39
-0.315361 0.128443 0.267519 57 132 40
-0.314007 0.128963 0.267644 58 133 40
-0.31313 0.129711 0.267638 59 136 40
-0.312487 0.130575 0.267569 62 138 40
-0.311845 0.13144 0.267499 64 139 41
-0.312135 0.132781 0.26717 63 141 43
-0.311489 0.13365 0.2671 65 139 44
-0.310609 0.134399 0.267095 72 138 43
-0.310195 0.13539 0.26696 72 141 45
-0.309547 0.136261 0.266889 75 141 48
-0.30913 0.137257 0.266754 79 143 50
-0.313557 0.143402 0.264712 78 143 46
-0.312888 0.144301 0.264639 71 139 46
-0.312219 0.145201 0.264567 66 137 44
-0.31179 0.146239 0.264424 63 137 43
-0.311119 0.147141 0.264352 68 142 45
-0.310209 0.147904 0.264349 78 149 49
-0.308824 0.148388 0.264486 84 157 51
-0.306746 0.148453 0.26483 87 164 54
-0.30608 0.149348 0.264758 89 170 56
-0.295229 0.146581 0.2672 97 180 58
-0.294166 0.147179 0.267258 100 180 57
-0.293107 0.147775 0.267316 109 182 60
-0.292469 0.148634 0.267247 125 195 72
-0.29183 0.149493 0.267178 120 193 81
-0.32549 0.0983798 0.270959 57 115 37
-0.325358 0.0993619 0.270774 57 116 34
-0.324748 0.100182 0.270708 57 116 33
-0.324376 0.101087 0.270582 58 111 38
-0.324002 0.101994 0.270456 59 112 38
-0.32339 0.102818 0.270389 61 114 35
-0.322777 0.103642 0.270322 62 116 36
-0.321927 0.104379 0.270316 62 117 38
-0.321079 0.105115 0.270309 62 117 35
-0.320466 0.105939 0.270242 64 122 41
-0.319853 0.106764 0.270175 76 132 42
-0.319007 0.107499 0.270168 83 140 45
-0.318162 0.108233 0.270161 87 148 47
-0.317318 0.108965 0.270155 87 151 47
-0.316247 0.109606 0.270207 85 151 47
-0.315551 0.112549 0.269707 74 142 46
-0.316316 0.113957 0.269275 70 140 43
-0.315926 0.114889 0.269146 67 137 42
-0.315305 0.115724 0.269079 63 134 40
-0.31584 0.117062 0.268702 60 132 39
-0.324934 0.125682 0.265285 53 120 34
-0.32177 0.12542 0.265895 54 121 33
-0.321119 0.126296 0.265824 56 123 30
-0.320466 0.127173 0.265753 58 124 35
-0.319814 0.128051 0.265682 59 126 38
-0.318671 0.128695 0.265747 60 129 39
-0.316808 0.128987 0.266012 63 131 42
-0.314253 0.128929 0.266472 68 132 44
-0.313373 0.129679 0.266468 71 136 44
-0.313199 0.130779 0.266266 76 142 45
-0.312553 0.131647 0.266196 82 145 48
-0.312612 0.132875 0.265926 82 151 50
-0.311261 0.133385 0.266055 82 153 52
-0.310614 0.134255 0.265985 87 155 53
-0.310199 0.135247 0.265848 86 157 55
-0.311186 0.136986 0.265307 88 156 56
-0.313321 0.143128 0.263634 71 149 48
-0.312652 0.144028 0.263561 66 145 47
-0.311983 0.144928 0.263488 66 143 45
-0.311313 0.145828 0.263415 65 145 44
-0.310643 0.14673 0.263342 69 151 45
-0.309973 0.147631 0.263269 75 156 48
-0.308589 0.148116 0.26341 81 160 50
-0.306745 0.14832 0.26369 85 165 53
-0.306079 0.149216 0.263617 88 171 54
-0.295216 0.146452 0.266107 97 177 59
-0.294364 0.147182 0.266102 100 180 62
-0.293302 0.14778 0.266162 112 188 67
-0.292662 0.14864 0.266092 120 190 76
-0.330687 0.0829765 0.272244 42 114 16
-0.329146 0.083511 0.272405 44 114 20
-0.328086 0.0841719 0.272453 41 113 24
-0.326562 0.0846997 0.272613 42 115 20
-0.325753 0.098287 0.269845 64 120 41
-0.325143 0.0991069 0.269778 60 119 41
-0.324771 0.10001 0.269651 56 117 38
-0.324637 0.100999 0.269463 60 114 33
-0.324024 0.101823 0.269396 63 113 31
-0.323411 0.102648 0.269329 63 115 32
-0.322797 0.103472 0.269262 63 117 32
-0.322183 0.104298 0.269194 62 117 33
-0.321569 0.105124 0.269127 62 118 35
-0.320719 0.105861 0.269121 61 123 41
-0.320105 0.106687 0.269054 69 133 42
-0.319023 0.107334 0.269109 73 137 44
-0.318177 0.108068 0.269103 73 140 45
-0.317102 0.108711 0.269157 72 141 44
-0.31626 0.109443 0.269151 71 141 43
-0.316105 0.110452 0.268962 69 138 43
-0.315086 0.115467 0.26807 56 129 37
-0.314925 0.116502 0.267876 55 127 36
-0.315459 0.117847 0.267493 55 124 36
-0.324043 0.126295 0.264146 57 121 36
-0.323132 0.127065 0.264144 61 122 36
-0.322474 0.12795 0.264072 65 125 38
-0.32057 0.128248 0.264348 69 129 40
-0.31893 0.12866 0.264553 74 134 42
-0.317789 0.129304 0.26462 78 140 48
-0.314974 0.129126 0.265161 83 146 52
-0.313853 0.129763 0.265225 85 151 54
-0.314154 0.131103 0.264884 88 159 58
-0.313505 0.131975 0.264813 94 165 58
-0.312384 0.132609 0.264878 97 171 58
-0.312441 0.133843 0.264603 95 175 62
-0.313755 0.141957 0.262629 85 161 47
-0.313086 0.142855 0.262556 82 159 48
-0.312417 0.143755 0.262482 77 157 49
-0.311748 0.144655 0.262409 83 153 50
-0.311078 0.145555 0.262336 82 155 51
-0.310407 0.146456 0.262263 79 159 49
-0.309023 0.146944 0.262406 77 162 47
-0.307881 0.147567 0.262477 77 163 49
-0.306745 0.148187 0.262547 83 164 51
-0.295632 0.145331 0.265147 94 174 56
-0.294991 0.146192 0.265077 93 177 60
-0.29435 0.147054 0.265007 98 180 60
-0.293709 0.147916 0.264937 113 184 67
-0.331069 0.0819336 0.271339 41 114 21
-0.329526 0.0824716 0.271504 44 114 22
-0.32823 0.0830699 0.27161 45 113 24
-0.326941 0.0836653 0.271716 45 114 27
-0.326355 0.0844527 0.271651 47 116 26
-0.325305 0.085109 0.2717 49 114 26
-0.326147 0.0972126 0.268915 72 131 41
-0.325537 0.098032 0.268848 68 127 41
-0.325166 0.0989336 0.26872 63 124 42
-0.324794 0.0998374 0.268591 59 120 40
-0.324421 0.100744 0.268463 57 116 37
-0.324046 0.101652 0.268333 57 115 34
-0.323432 0.102477 0.268266 57 116 34
-0.323056 0.103389 0.268136 57 117 32
-0.322678 0.104304 0.268006 59 116 29
-0.322062 0.105132 0.267939 59 118 29
-0.320973 0.105783 0.267996 58 122 35
-0.320357 0.106611 0.267928 59 128 40
-0.319273 0.107258 0.267985 62 129 41
-0.318192 0.107904 0.268042 63 131 41
-0.317347 0.108638 0.268036 61 132 41
-0.316732 0.109464 0.267969 59 132 41
-0.314637 0.115111 0.267123 58 128 40
-0.313786 0.115847 0.267119 61 127 39
-0.313394 0.116782 0.266987 64 126 37
-0.323404 0.127026 0.262934 65 126 42
-0.322492 0.127796 0.262933 68 130 43
-0.321582 0.128565 0.262932 77 136 44
-0.319436 0.128742 0.263285 84 145 49
-0.317559 0.129035 0.263563 87 154 55
-0.315462 0.129209 0.263908 90 163 60
-0.314099 0.12973 0.264043 93 170 63
-0.313925 0.130836 0.263835 95 176 67
-0.3131 0.137708 0.262491 95 182 59
-0.312439 0.138595 0.262419 94 178 60
-0.313218 0.140261 0.261915 94 172 57
-0.313035 0.141419 0.261696 91 172 56
-0.312368 0.142316 0.261623 86 167 55
-0.3117 0.143213 0.26155 81 160 54
-0.311032 0.144112 0.261476 82 159 58
-0.310363 0.14501 0.261403 80 157 58
-0.309456 0.145773 0.261403 78 157 52
-0.308314 0.146398 0.261475 76 161 49
-0.306943 0.146883 0.26162 73 164 48
-0.305811 0.147503 0.261691 77 164 49
-0.29562 0.1452 0.264051 94 175 55
-0.294766 0.145932 0.264047 93 175 57
-0.294125 0.146794 0.263977 100 175 58
-0.293694 0.147788 0.263839 111 177 67
-0.332656 0.0812046 0.270141 47 113 21
-0.331339 0.0818109 0.270252 49 112 23
-0.329555 0.0822868 0.270479 51 113 22
-0.328022 0.0828223 0.270646 51 113 24
-0.326967 0.0834826 0.270697 52 112 27
-0.32638 0.0842708 0.270632 56 112 26
-0.325822 0.0959028 0.268172 71 137 47
-0.325214 0.0967193 0.268105 66 133 45
-0.324606 0.0975362 0.268038 63 128 42
-0.324711 0.0985968 0.267785 59 125 41
-0.324339 0.0994994 0.267655 58 121 40
-0.324204 0.100488 0.267462 58 118 35
-0.323829 0.101396 0.267332 57 117 34
-0.323453 0.102306 0.267201 55 117 33
-0.323076 0.103219 0.26707 55 118 31
-0.32246 0.104047 0.267002 56 118 30
-0.322081 0.104963 0.26687 55 117 31
-0.321227 0.105704 0.266866 54 121 34
-0.32061 0.106533 0.266798 52 124 39
-0.319523 0.107182 0.266857 55 124 38
-0.318207 0.107739 0.266979 57 125 38
-0.317361 0.108474 0.266974 58 128 38
-0.314188 0.114757 0.266179 76 138 48
-0.313339 0.115492 0.266175 76 139 47
-0.312719 0.116326 0.266106 76 139 46
-0.313238 0.117663 0.265715 72 139 45
-0.323424 0.12687 0.261792 64 129 42
-0.32226 0.127524 0.261864 68 135 40
-0.3211 0.128176 0.261936 78 144 46
-0.319205 0.128473 0.262223 85 155 57
-0.317329 0.128767 0.262507 94 163 65
-0.315233 0.128942 0.262858 115 169 68
-0.313871 0.129464 0.262996 128 179 68
-0.312752 0.1301 0.263064 125 193 75
-0.312628 0.137311 0.261498 109 186 61
-0.311968 0.138198 0.261425 99 181 63
-0.311784 0.139342 0.261207 94 174 60
-0.312318 0.140884 0.260768 91 169 58
-0.311652 0.141779 0.260695 86 164 56
-0.310986 0.142674 0.260621 83 158 54
-0.31008 0.143437 0.260621 82 154 53
-0.309414 0.144333 0.260548 81 153 52
-0.308511 0.145093 0.260548 80 156 51
-0.307374 0.145718 0.260622 78 159 50
-0.306242 0.14634 0.260695 73 162 49
-0.305115 0.14696 0.260768 74 161 47
-0.304451 0.147852 0.260695 83 162 48
-0.294753 0.145802 0.262949 87 172 58
-0.294111 0.146665 0.262879 100 175 60
-0.29368 0.14766 0.262739 108 171 71
-0.501767 0.101787 0.232438 28 113 17
-0.503469 0.103622 0.231705 35 115 16
-0.503846 0.105196 0.231282 41 115 21
-0.50288 0.106493 0.231175 47 116 28
-0.508705 0.109273 0.229451 53 117 31
-0.51542 0.120234 0.225729 52 116 29
-0.513686 0.121423 0.225792 52 116 26
-0.332446 0.0809541 0.269167 48 114 26
-0.33137 0.0816243 0.269221 54 112 26
-0.330299 0.0822924 0.269275 58 111 22
-0.328521 0.0827659 0.269506 59 112 24
-0.327227 0.0833639 0.269617 58 113 30
-0.327342 0.0843495 0.269375 56 114 30
-0.325607 0.0956485 0.267179 64 130 43
-0.325 0.0964649 0.267112 61 126 41
-0.324391 0.0972819 0.267044 57 124 40
-0.32402 0.0981799 0.266914 53 125 40
-0.323885 0.0991621 0.26672 53 122 35
-0.323749 0.100149 0.266526 55 119 32
-0.323612 0.10114 0.26633 50 119 29
-0.323236 0.10205 0.266198 48 119 29
-0.322859 0.102962 0.266065 49 118 30
-0.322719 0.103964 0.265868 52 118 29
-0.322339 0.104883 0.265735 58 116 30
-0.32172 0.105714 0.265666 58 119 37
-0.320392 0.106277 0.265792 58 123 38
-0.319774 0.107106 0.265724 60 126 38
-0.318689 0.107755 0.265785 62 129 41
-0.313285 0.114208 0.265366 84 153 57
-0.312666 0.11504 0.265298 81 152 55
-0.312046 0.115872 0.265229 80 150 51
-0.311879 0.116904 0.26503 76 148 48
-0.322027 0.127252 0.260796 72 143 43
-0.320868 0.127904 0.260869 94 155 53
-0.318974 0.128203 0.261162 96 171 75
-0.317099 0.128498 0.261451 103 177 89
-0.315004 0.128676 0.261808 133 173 88
-0.313171 0.128966 0.26209 165 178 76
-0.312524 0.129835 0.262019 159 195 76
-0.312112 0.130822 0.261876 129 206 93
-0.312405 0.132168 0.26152 106 200 106
-0.311754 0.133043 0.261448 112 196 102
-0.312282 0.134528 0.261016 123 186 78
-0.311627 0.135408 0.260943 119 182 64
-0.311208 0.136414 0.260798 107 182 59
-0.310551 0.137296 0.260725 100 176 60
-0.310129 0.138306 0.26058 94 173 58
-0.310651 0.139832 0.26014 91 166 59
-0.309989 0.140721 0.260066 88 162 54
-0.309091 0.14148 0.260067 85 158 51
-0.308429 0.14237 0.259993 82 154 54
-0.308001 0.143393 0.259846 80 153 53
-0.307337 0.144284 0.259773 79 155 53
-0.306673 0.145177 0.259699 79 159 52
-0.305545 0.145798 0.259774 71 159 49
-0.304191 0.146283 0.259922 71 155 45
-0.30353 0.147172 0.259849 82 159 47
-0.29474 0.145672 0.261849 83 165 59
-0.294097 0.146535 0.261778 101 175 62
-0.293454 0.147399 0.261707 106 163 67
-0.497444 0.0976614 0.232473 33 109 20
-0.497149 0.0990536 0.232215 37 111 22
-0.499454 0.10098 0.231334 41 113 20
-0.500473 0.102664 0.230756 48 116 22
-0.502834 0.104645 0.229852 55 119 28
-0.502538 0.106082 0.229583 63 123 35
-0.50224 0.107526 0.229314 68 128 40
-0.509448 0.110634 0.227219 68 131 41
-0.520579 0.114684 0.224154 68 131 40
-0.519562 0.11605 0.224041 67 131 41
-0.51709 0.117078 0.224285 64 131 44
-0.516076 0.118441 0.224172 61 128 42
-0.513622 0.11946 0.224414 59 124 39
-0.51261 0.12082 0.224302 59 121 37
-0.511597 0.12218 0.224189 61 116 32
-0.332478 0.0807661 0.268132 56 114 28
-0.331642 0.0815005 0.268127 56 114 30
-0.330568 0.0821701 0.268182 57 113 28
-0.329498 0.0828376 0.268238 57 113 26
-0.328195 0.0834382 0.268353 58 113 28
-0.327604 0.0842317 0.268287 60 116 31
-0.324785 0.0962106 0.266118 54 123 36
-0.323939 0.096948 0.266114 53 122 35
-0.323568 0.0978449 0.265983 50 120 34
-0.323669 0.0989069 0.265723 54 118 32
-0.323533 0.099893 0.265526 59 117 29
-0.323634 0.100967 0.265263 56 118 30
-0.323257 0.101878 0.26513 55 118 32
-0.323118 0.102878 0.26493 57 119 35
-0.322978 0.103882 0.26473 61 120 36
-0.322597 0.104802 0.264595 69 119 37
-0.321977 0.105635 0.264526 72 122 41
-0.321357 0.106468 0.264457 78 128 41
-0.320736 0.107302 0.264388 80 137 44
-0.313066 0.113952 0.264362 85 165 61
-0.312447 0.114784 0.264293 82 162 60
-0.312281 0.115813 0.264092 83 159 56
-0.320885 0.12775 0.259728 109 158 57
-0.318989 0.12805 0.260026 110 178 79
-0.317355 0.128463 0.260248 97 182 94
-0.315015 0.128525 0.260685 99 175 92
-0.313889 0.129165 0.260757 113 169 78
-0.312296 0.129569 0.260973 117 167 64
-0.311884 0.130556 0.260829 108 171 61
-0.31194 0.131782 0.260541 103 175 60
-0.311996 0.133017 0.26025 104 178 63
-0.311343 0.133894 0.260178 107 182 64
-0.311396 0.13514 0.259885 109 184 61
-0.310977 0.136145 0.259738 112 179 60
-0.31032 0.137027 0.259665 106 176 60
-0.309663 0.13791 0.259592 99 170 58
-0.309239 0.138921 0.259445 94 167 58
-0.308815 0.139934 0.259297 89 163 56
-0.308155 0.14082 0.259224 86 157 53
-0.307262 0.141577 0.259225 83 155 53
-0.306602 0.142463 0.259152 81 155 52
-0.306405 0.143615 0.258929 80 157 51
-0.305743 0.144504 0.258855 78 158 52
-0.30485 0.145259 0.258856 67 154 48
-0.303959 0.146014 0.258858 67 151 43
-0.303297 0.146903 0.258784 80 156 46
-0.294514 0.145411 0.260817 91 160 53
-0.293871 0.146274 0.260745 107 175 61
-0.293228 0.147138 0.260674 104 149 66
-0.498051 0.095998 0.231025 32 112 17
-0.494547 0.0967598 0.231539 38 111 22
-0.49617 0.098524 0.230815 46 112 26
-0.495872 0.0999182 0.230554 53 115 27
-0.49882 0.101987 0.2295 63 121 33
-0.503161 0.104375 0.228099 69 129 38
-0.502865 0.105815 0.227826 74 138 43
-0.503915 0.107551 0.227221 78 142 45
-0.509098 0.110214 0.225592 76 142 44
-0.513723 0.112798 0.22409 75 141 43
-0.517745 0.115287 0.222728 74 140 43
-0.516731 0.116648 0.222615 71 138 45
-0.515716 0.118011 0.222502 67 136 44
-0.513264 0.119031 0.222749 64 133 43
-0.510827 0.120046 0.222995 61 130 41
-0.509111 0.121228 0.223061 62 124 40
-0.332267 0.0805153 0.267156 61 115 23
-0.331432 0.0812499 0.267152 58 113 29
-0.330598 0.0819836 0.267147 57 114 29
-0.329526 0.0826521 0.267204 57 114 28
-0.328934 0.0834482 0.267138 58 114 27
-0.327867 0.0841135 0.267195 58 117 30
-0.327747 0.0850419 0.267006 59 118 31
-0.323725 0.0966939 0.265122 58 121 32
-0.323117 0.0975105 0.265054 56 121 36
-0.324374 0.101048 0.263995 66 124 38
-0.32304 0.101622 0.264125 63 122 39
-0.323378 0.102793 0.26379 65 121 39
-0.322998 0.103711 0.263654 70 125 40
-0.323338 0.104898 0.263315 70 127 44
-0.322955 0.105824 0.263177 74 136 49
-0.313303 0.113889 0.263223 110 182 69
-0.312683 0.114723 0.263153 97 179 73
-0.312289 0.115655 0.263017 91 170 67
-0.320902 0.127595 0.258584 92 149 51
-0.318757 0.127779 0.258963 95 151 51
-0.317124 0.128194 0.259189 92 155 53
-0.315025 0.128373 0.25956 92 159 54
-0.31366 0.128898 0.259708 93 164 56
-0.312303 0.12942 0.259854 97 169 58
-0.312361 0.130643 0.259563 101 171 59
-0.311946 0.131635 0.259416 106 175 60
-0.311766 0.132749 0.259196 105 177 64
-0.311113 0.133626 0.259123 107 184 64
-0.31093 0.134749 0.258901 106 182 62
-0.31051 0.135752 0.258753 104 180 64
-0.309854 0.136634 0.25868 100 177 63
-0.309197 0.137515 0.258607 95 172 59
-0.30854 0.138398 0.258533 93 167 58
-0.308116 0.139408 0.258385 91 163 57
-0.307457 0.140293 0.258311 86 160 55
-0.306798 0.141178 0.258238 83 158 54
-0.306139 0.142063 0.258164 83 157 50
-0.30571 0.143081 0.258015 81 158 51
-0.305049 0.143968 0.257941 73 158 52
-0.304388 0.144856 0.257867 62 153 48
-0.303497 0.14561 0.257869 66 150 43
-0.294288 0.14515 0.259784 96 162 51
-0.293645 0.146014 0.259712 112 176 62
-0.293002 0.146878 0.25964 99 137 63
-0.499306 0.0944569 0.22942 33 113 12
-0.49515 0.0951067 0.230101 38 114 15
-0.494215 0.0963615 0.229996 49 112 23
-0.49328 0.0976169 0.229891 59 113 31
-0.495537 0.0995167 0.228998 65 121 37
-0.497178 0.101314 0.228251 76 132 40
-0.502819 0.103964 0.226506 81 141 43
-0.503193 0.105546 0.226064 82 148 45
-0.504925 0.10743 0.225279 83 151 47
-0.509443 0.109947 0.22379 82 148 46
-0.519858 0.113821 0.220805 80 143 45
-0.518841 0.115187 0.220691 75 138 44
-0.517824 0.116553 0.220577 72 139 44
-0.515357 0.117581 0.220831 69 137 43
-0.514341 0.118944 0.220717 65 135 43
-0.512608 0.120135 0.220787 61 132 44
-0.332057 0.0802644 0.266181 56 117 29
-0.331222 0.0809993 0.266177 50 117 31
-0.330628 0.0817967 0.26611 49 117 29
-0.329794 0.0825304 0.266106 50 117 28
-0.328724 0.0831983 0.266165 51 117 29
-0.32813 0.0839948 0.266099 50 117 32
-0.327537 0.0847919 0.266032 48 119 34
-0.323274 0.0963609 0.264194 69 133 38
-0.322666 0.0971767 0.264126 70 135 43
-0.322724 0.100288 0.263391 64 131 44
-0.32211 0.101112 0.263322 61 127 43
-0.32316 0.102535 0.262781 61 124 41
-0.323499 0.103715 0.262439 66 128 39
-0.323358 0.104727 0.262231 67 135 42
-0.322976 0.105654 0.262092 71 146 47
-0.322351 0.106492 0.262022 78 153 53
-0.313705 0.1128 0.262285 142 183 74
-0.313084 0.113633 0.262215 127 187 73
-0.312919 0.114661 0.262009 107 183 75
-0.312982 0.115793 0.261734 93 171 69
-0.312357 0.116632 0.261663 92 166 57
-0.319676 0.126858 0.257821 87 150 51
-0.317792 0.127162 0.258127 88 152 52
-0.315446 0.127232 0.25858 88 156 54
-0.314557 0.12799 0.258582 90 159 55
-0.313669 0.128747 0.258583 92 162 55
-0.313018 0.12962 0.25851 96 168 58
-0.312368 0.130494 0.258437 103 171 59
-0.311717 0.131368 0.258364 112 176 60
-0.311301 0.132362 0.258216 107 178 61
-0.310883 0.133359 0.258068 106 182 61
-0.31023 0.134236 0.257995 105 181 62
-0.310044 0.13536 0.25777 103 178 63
-0.309388 0.136241 0.257697 99 175 61
-0.308732 0.137122 0.257623 95 172 59
-0.308076 0.138003 0.257549 92 167 59
-0.307651 0.139012 0.2574 91 165 56
-0.306993 0.139896 0.257326 89 162 52
-0.306335 0.140779 0.257252 87 158 51
-0.305907 0.141794 0.257102 84 157 50
-0.305247 0.14268 0.257028 79 159 54
-0.304587 0.143567 0.256954 72 157 51
-0.303926 0.144454 0.256879 60 153 45
-0.303265 0.145341 0.256805 62 154 45
-0.29385 0.14476 0.258824 99 171 53
-0.293208 0.145622 0.258752 113 177 68
-0.292776 0.146617 0.258607 83 125 66
-0.497678 0.0938138 0.228186 33 111 12
-0.495457 0.0948297 0.228399 48 113 15
-0.493884 0.095963 0.228452 58 115 25
-0.492949 0.0972185 0.228347 66 120 35
-0.492013 0.0984747 0.228242 71 132 42
-0.495546 0.100645 0.227011 80 142 47
-0.502477 0.103554 0.224914 84 149 49
-0.50285 0.105134 0.224466 82 151 50
-0.504579 0.107016 0.22367 78 149 47
-0.514015 0.110604 0.220903 75 144 48
-0.331012 0.0807486 0.265202 44 120 31
-0.330418 0.081546 0.265135 44 119 30
-0.329584 0.0822799 0.265132 45 118 30
-0.32899 0.0830775 0.265065 44 117 31
-0.328395 0.0838756 0.264998 46 118 31
-0.3278 0.0846742 0.264931 52 119 29
-0.32296 0.0950595 0.263469 80 143 49
-0.321421 0.0955616 0.263664 80 144 47
-0.320817 0.0963717 0.263596 80 144 48
-0.320677 0.0973406 0.263396 77 143 46
-0.320768 0.0983942 0.263129 73 141 45
-0.320161 0.0992099 0.263061 68 138 44
-0.320017 0.100191 0.262859 64 135 43
-0.321279 0.10168 0.262251 63 134 42
-0.32304 0.103369 0.261495 65 136 42
-0.323138 0.104468 0.261216 71 142 41
-0.322755 0.105394 0.261075 79 150 45
-0.322131 0.106233 0.261005 89 158 56
-0.321267 0.10698 0.261005 92 170 76
-0.320642 0.107819 0.260934 104 178 90
-0.319779 0.108565 0.260934 127 176 89
-0.318682 0.109218 0.261004 144 173 76
-0.31689 0.109588 0.261281 142 189 73
-0.315575 0.110142 0.261419 118 197 87
-0.314955 0.110974 0.261349 108 196 97
-0.314335 0.111806 0.261279 109 184 91
-0.313486 0.112543 0.261278 112 175 73
-0.313094 0.113473 0.261139 110 172 61
-0.3127 0.114404 0.261 102 169 57
-0.312078 0.115239 0.26093 95 166 57
-0.311909 0.116274 0.26072 92 163 55
-0.311285 0.117112 0.26065 92 158 51
-0.312486 0.118768 0.260015 91 154 48
-0.311856 0.119614 0.259944 88 152 47
-0.312144 0.12088 0.259587 85 151 52
-0.312666 0.122265 0.259154 86 152 52
-0.313662 0.123884 0.25857 90 154 52
-0.314435 0.125415 0.258052 90 155 51
-0.313789 0.126282 0.257979 88 156 52
-0.314328 0.127723 0.25753 89 157 54
-0.31344 0.12848 0.257532 92 160 55
-0.312789 0.129353 0.257459 95 167 55
-0.312139 0.130227 0.257386 98 171 57
-0.311488 0.131101 0.257312 103 174 59
-0.310836 0.131975 0.257239 103 177 61
-0.310184 0.13285 0.257165 105 181 60
-0.309532 0.133726 0.257092 104 181 61
-0.30888 0.134602 0.257018 102 177 60
-0.308459 0.135602 0.256868 99 176 61
-0.307804 0.13648 0.256795 96 172 60
-0.307381 0.137484 0.256644 92 169 59
-0.307188 0.138617 0.256417 91 165 55
-0.306531 0.139499 0.256342 89 161 53
-0.306103 0.140511 0.256191 85 159 54
-0.305444 0.141395 0.256117 84 160 55
-0.305015 0.142411 0.255965 79 160 59
-0.304354 0.143298 0.25589 70 158 53
-0.303465 0.144052 0.255894 61 151 43
-0.302805 0.144939 0.255819 66 154 46
-0.293625 0.144499 0.257792 100 177 56
-0.292982 0.145362 0.25772 111 176 70
-0.292549 0.146356 0.257574 71 110 61
-0.498283 0.0921545 0.226742 21 111 10
-0.497345 0.0934135 0.226636 31 112 10
-0.495125 0.0944306 0.226854 50 114 16
-0.493552 0.0955645 0.226909 59 120 28
-0.492617 0.09682 0.226803 65 127 38
-0.491681 0.0980761 0.226697 70 133 40
-0.492646 0.0997202 0.226104 70 137 42
-0.502134 0.103143 0.223321 69 140 43
-0.503853 0.105005 0.222521 67 142 44
-0.330802 0.0804979 0.264226 52 118 26
-0.330207 0.0812953 0.264159 52 117 29
-0.329613 0.0820932 0.264092 51 116 32
-0.329018 0.0828916 0.264025 50 115 34
-0.328423 0.0836904 0.263957 50 117 34
-0.328065 0.084556 0.263825 54 118 33
-0.321811 0.0944997 0.262747 85 158 58
-0.320975 0.0952322 0.262745 85 156 57
-0.320604 0.0961194 0.26261 85 153 58
-0.32 0.09693 0.262542 85 151 57
-0.319857 0.0979005 0.26234 82 151 51
-0.319251 0.0987137 0.262271 79 148 47
-0.318876 0.0996089 0.262135 77 146 45
-0.321062 0.101424 0.261249 74 146 45
-0.32282 0.10311 0.260482 72 145 46
-0.322918 0.104208 0.2602 78 145 45
-0.322535 0.105134 0.260058 83 149 48
-0.32191 0.105973 0.259988 96 155 58
-0.321046 0.106721 0.259988 96 168 75
-0.319946 0.107376 0.260059 96 179 89
-0.319322 0.108214 0.259989 101 177 89
-0.317525 0.108589 0.260271 106 165 73
-0.316207 0.109146 0.260412 111 164 62
-0.315356 0.109885 0.260412 106 169 62
-0.314736 0.110717 0.260341 106 175 62
-0.314116 0.111549 0.260271 106 177 64
-0.313495 0.112382 0.260201 105 176 63
-0.313103 0.113312 0.26006 103 173 60
-0.312937 0.114342 0.259849 101 169 57
-0.312542 0.115278 0.259707 97 165 57
-0.311917 0.116116 0.259637 94 161 56
-0.311292 0.116955 0.259566 94 158 53
-0.311805 0.118303 0.259138 92 155 51
-0.311634 0.119354 0.258923 88 155 48
-0.311003 0.1202 0.258851 87 154 52
-0.311058 0.121364 0.258562 86 155 51
-0.311573 0.12275 0.258124 90 157 50
-0.312327 0.124261 0.257607 92 157 50
-0.313561 0.126016 0.256933 91 158 52
-0.312209 0.126545 0.257087 93 159 55
-0.311098 0.127183 0.257164 95 162 57
-0.310453 0.128048 0.257092 97 168 55
-0.310505 0.12926 0.256792 101 171 56
-0.309858 0.130129 0.256718 103 176 61
-0.30921 0.130998 0.256645 101 176 63
-0.308562 0.131867 0.256572 102 181 61
-0.307914 0.132737 0.256498 103 179 62
-0.307265 0.133608 0.256425 103 175 58
-0.306845 0.134601 0.256275 100 174 60
-0.306653 0.135719 0.256048 98 171 59
-0.30692 0.137091 0.255665 95 166 58
-0.306495 0.138096 0.255513 93 164 57
-0.306299 0.139231 0.255283 90 162 55
-0.305641 0.140114 0.255208 86 161 52
-0.305213 0.141127 0.255055 85 161 53
-0.304553 0.142012 0.254981 79 161 58
-0.303893 0.142897 0.254906 68 157 52
-0.303233 0.143783 0.254831 66 150 43
-0.302573 0.14467 0.254757 75 154 48
-0.294041 0.143377 0.256833 87 164 54
-0.293188 0.14411 0.256835 108 181 62
-0.292756 0.145101 0.256687 108 167 73
-0.292323 0.146095 0.25654 59 86 56
-0.499245 0.0919892 0.224863 23 109 12
-0.498304 0.0932522 0.224756 26 110 12
-0.494156 0.0939113 0.225471 40 114 14
-0.492587 0.0950442 0.225528 51 119 22
-0.491022 0.0961744 0.225584 57 122 31
-0.489461 0.0973018 0.225641 57 122 35
-0.490412 0.0989345 0.225046 56 124 33
-0.502461 0.10287 0.221554 54 126 31
-0.330591 0.0802471 0.263251 58 119 31
-0.329997 0.0810445 0.263183 57 118 32
-0.329402 0.0818424 0.263116 55 116 32
-0.328807 0.0826408 0.263048 55 116 34
-0.32845 0.0835048 0.262915 55 117 34
-0.327854 0.084305 0.262847 57 122 37
-0.322336 0.0924809 0.262033 108 173 65
-0.321735 0.093288 0.261965 119 172 64
-0.321365 0.0941714 0.261829 122 174 65
-0.320762 0.0949802 0.26176 112 177 69
-0.320159 0.0957895 0.261692 97 179 81
-0.319786 0.0966777 0.261556 90 173 85
-0.319182 0.0974888 0.261487 85 160 68
-0.318807 0.0983805 0.26135 84 154 55
-0.318431 0.0992745 0.261213 82 151 49
-0.319674 0.10075 0.260595 79 148 48
-0.321647 0.102506 0.259754 78 146 47
-0.322218 0.103773 0.259327 80 142 47
-0.322074 0.104785 0.259113 82 144 46
-0.32145 0.105623 0.259042 87 145 49
-0.320826 0.106461 0.258971 89 150 51
-0.319726 0.107117 0.259044 92 154 51
-0.319102 0.107955 0.258973 96 157 52
-0.317539 0.108423 0.259189 97 161 57
-0.31622 0.108981 0.259333 100 164 59
-0.315368 0.109721 0.259333 101 169 60
-0.314747 0.110554 0.259263 105 174 60
-0.314126 0.111387 0.259192 109 179 64
-0.313734 0.112316 0.25905 105 179 66
-0.31357 0.113344 0.258836 101 174 64
-0.313404 0.114377 0.258621 99 169 59
-0.312779 0.115217 0.25855 96 164 56
-0.311924 0.115957 0.258551 94 160 55
-0.311299 0.116797 0.25848 92 156 55
-0.311583 0.118044 0.258118 89 156 53
-0.311183 0.118991 0.257974 87 156 53
-0.310781 0.11994 0.257829 88 155 52
-0.310377 0.120892 0.257684 88 155 53
-0.310201 0.121953 0.257465 91 156 52
-0.312101 0.123997 0.25657 91 159 55
-0.311925 0.12508 0.256345 91 160 55
-0.311282 0.125942 0.256272 92 160 54
-0.310176 0.126581 0.256351 94 163 55
-0.309995 0.12767 0.256126 97 167 57
-0.309582 0.128649 0.255976 101 169 58
-0.309167 0.129631 0.255826 102 175 61
-0.308521 0.130498 0.255753 102 176 62
-0.308104 0.131484 0.255602 100 180 62
-0.307456 0.132353 0.255529 101 178 61
-0.307037 0.133343 0.255378 103 175 58
-0.306387 0.134214 0.255304 103 175 56
-0.305966 0.135208 0.255152 102 170 56
-0.305771 0.136327 0.254923 99 164 58
-0.306264 0.137828 0.254456 97 162 56
-0.305838 0.138835 0.254302 94 162 54
-0.30541 0.139845 0.254148 89 163 54
-0.304751 0.140729 0.254073 87 166 57
-0.304321 0.141743 0.253919 81 165 56
-0.303661 0.142629 0.253844 68 158 47
-0.302774 0.143383 0.253848 68 151 43
-0.293604 0.142989 0.255877 95 169 53
-0.292963 0.14385 0.255804 118 183 63
-0.292321 0.144711 0.255731 106 151 70
-0.292097 0.145834 0.255506 61 63 46
-0.492889 0.0947673 0.223821 36 116 18
-0.490691 0.095777 0.224045 39 120 22
-0.489131 0.0969049 0.224103 35 123 26
-0.489451 0.0984088 0.223666 39 123 27
-0.331457 0.0793218 0.26221 65 130 38
-0.330621 0.0800582 0.262209 63 127 39
-0.329787 0.0807937 0.262208 58 123 38
-0.329431 0.081655 0.262073 54 120 36
-0.328835 0.0824541 0.262005 55 118 33
-0.328239 0.0832537 0.261937 58 120 34
-0.327881 0.0841197 0.261802 61 129 39
-0.323692 0.0897395 0.261323 112 180 66
-0.322859 0.090472 0.261323 107 187 75
-0.322259 0.0912765 0.261254 104 185 87
-0.321891 0.0921552 0.261118 116 180 84
-0.32129 0.0929615 0.261049 135 176 77
-0.32092 0.0938437 0.260913 142 176 72
-0.320318 0.0946517 0.260844 128 180 71
-0.319946 0.0955374 0.260707 104 185 82
-0.319342 0.0963472 0.260638 89 179 88
-0.318968 0.0972364 0.2605 83 161 70
-0.318363 0.0980479 0.260431 81 152 56
-0.317758 0.09886 0.260362 81 148 49
-0.31761 0.0998357 0.260155 82 145 47
-0.319778 0.101653 0.259245 82 144 48
-0.320809 0.103079 0.258675 83 142 47
-0.321376 0.104349 0.258242 85 145 49
-0.32123 0.105363 0.258025 87 146 51
-0.32013 0.106021 0.2581 88 150 53
-0.319506 0.106858 0.258029 92 155 54
-0.318882 0.107695 0.257958 97 158 54
-0.317319 0.108165 0.258177 98 163 58
-0.316232 0.108815 0.258251 97 166 60
-0.31538 0.109556 0.258253 99 167 59
-0.314758 0.11039 0.258182 103 173 60
-0.314137 0.111224 0.258111 106 175 62
-0.313744 0.112154 0.257967 106 175 62
-0.31335 0.113086 0.257823 103 171 59
-0.313184 0.114119 0.257606 100 166 56
-0.312558 0.114958 0.257535 97 164 55
-0.311704 0.115699 0.257536 93 162 54
-0.311078 0.116539 0.257465 90 160 55
-0.311134 0.117683 0.257173 87 160 53
-0.310733 0.118628 0.257027 87 157 53
-0.31033 0.119576 0.256881 88 153 53
-0.309927 0.120527 0.256735 90 154 53
-0.30975 0.121586 0.256514 92 159 55
-0.310488 0.123081 0.255989 91 162 58
-0.311002 0.124484 0.255536 91 163 58
-0.31013 0.125233 0.255539 93 162 55
-0.309489 0.126093 0.255466 94 164 55
-0.309077 0.127066 0.255316 95 169 56
-0.309124 0.12827 0.255011 98 172 57
-0.308479 0.129135 0.254937 102 175 59
-0.307834 0.13 0.254864 105 180 63
-0.307417 0.130983 0.254712 104 179 63
-0.306999 0.131969 0.254561 104 176 55
-0.30658 0.132957 0.254409 103 174 58
-0.306159 0.133948 0.254256 105 170 57
-0.305509 0.13482 0.254182 108 167 55
-0.305314 0.135938 0.25395 106 162 54
-0.305803 0.137435 0.253478 101 161 54
-0.305606 0.138567 0.253243 100 160 53
-0.304949 0.139449 0.253168 93 161 55
-0.30452 0.14046 0.253013 83 168 61
-0.303861 0.141345 0.252937 74 166 55
-0.302974 0.142099 0.252943 65 158 45
-0.302315 0.142983 0.252868 71 155 44
-0.29402 0.141868 0.254919 87 172 54
-0.293379 0.142728 0.254846 102 176 54
-0.292737 0.143589 0.254772 119 190 68
-0.292095 0.144451 0.254699 94 139 66
-0.291871 0.145573 0.254472 59 50 34
-0.495109 0.0948545 0.2216 36 114 20
-0.492255 0.0957469 0.222 39 117 24
-0.491317 0.0970049 0.221893 38 120 26
-0.331247 0.0790705 0.261233 68 137 43
-0.330411 0.0798072 0.261232 66 136 44
-0.329816 0.0806053 0.261164 60 132 44
-0.32922 0.0814039 0.261096 56 128 41
-0.328625 0.082203 0.261027 57 127 37
-0.328267 0.0830675 0.260891 61 130 39
-0.328146 0.084 0.260686 67 137 42
-0.328265 0.0850038 0.260411 73 145 45
-0.324914 0.0879496 0.260411 116 165 67
-0.324314 0.0887542 0.260342 122 169 66
-0.323246 0.0894168 0.260411 121 176 66
-0.322647 0.0902207 0.260342 112 184 75
-0.322047 0.0910252 0.260273 103 185 88
-0.321447 0.0918301 0.260204 101 182 87
-0.321078 0.0927099 0.260067 104 174 79
-0.320477 0.0935166 0.259998 106 167 70
-0.320105 0.0943998 0.25986 101 161 60
-0.319733 0.0952852 0.259721 92 159 55
-0.319129 0.096095 0.259652 87 155 55
-0.318525 0.0969053 0.259583 84 153 53
-0.317921 0.097716 0.259514 82 150 50
-0.317316 0.0985273 0.259444 82 147 48
-0.317167 0.0995013 0.259235 84 146 48
-0.318167 0.100894 0.258672 84 145 49
-0.318946 0.102221 0.258173 86 146 50
-0.319971 0.103652 0.257595 90 148 53
-0.320533 0.104926 0.257156 92 149 53
-0.31991 0.105762 0.257085 92 152 55
-0.318344 0.106238 0.257308 91 155 58
-0.317255 0.106891 0.257383 92 158 58
-0.316634 0.107724 0.257312 94 161 57
-0.315782 0.108466 0.257314 95 164 55
-0.315161 0.109299 0.257243 99 168 55
-0.314539 0.110132 0.257172 102 170 58
-0.313917 0.110966 0.2571 105 172 61
-0.313295 0.111801 0.257029 105 172 61
-0.31313 0.112828 0.25681 102 170 58
-0.312505 0.113666 0.256739 98 168 57
-0.311881 0.114503 0.256667 97 166 56
-0.311483 0.115441 0.256521 95 162 55
-0.310857 0.11628 0.25645 90 161 55
-0.310912 0.117423 0.256154 92 159 51
-0.310511 0.118369 0.256007 91 156 52
-0.310108 0.119317 0.25586 91 154 52
-0.309705 0.120267 0.255712 91 157 52
-0.309527 0.121325 0.255489 90 161 56
-0.309576 0.122496 0.255188 91 162 59
-0.309625 0.123674 0.254885 95 165 58
-0.309216 0.124639 0.254735 98 168 56
-0.309034 0.125718 0.254507 97 169 56
-0.308622 0.12669 0.254355 96 171 58
-0.308667 0.127891 0.254048 95 174 61
-0.308252 0.12887 0.253895 99 174 61
-0.307607 0.129736 0.253821 99 178 61
-0.306961 0.130602 0.253747 102 179 62
-0.306543 0.131586 0.253594 100 177 58
-0.306123 0.132573 0.253441 106 171 56
-0.305703 0.133562 0.253288 108 170 55
-0.305053 0.134433 0.253213 107 167 56
-0.305084 0.135671 0.252899 106 162 57
-0.305344 0.137043 0.252503 101 159 55
-0.304917 0.138047 0.252347 100 159 54
-0.304718 0.139181 0.252109 94 164 55
-0.30406 0.140064 0.252033 82 169 63
-0.303401 0.140947 0.251958 74 167 56
-0.302516 0.141701 0.251964 67 160 45
-0.301857 0.142584 0.251889 73 160 45
-0.293795 0.141607 0.253888 88 175 56
-0.293153 0.142468 0.253815 109 185 60
-0.292302 0.143201 0.253818 117 187 75
-0.29166 0.144062 0.253745 78 121 67
-0.331519 0.078941 0.260118 70 140 43
-0.330681 0.0796792 0.260118 79 141 44
-0.329605 0.0803542 0.260187 79 143 47
-0.32901 0.0811528 0.260118 72 141 47
-0.328652 0.0820157 0.259981 67 137 42
-0.328533 0.0829457 0.259774 67 139 43
-0.328173 0.0838139 0.259635 72 141 44
-0.328052 0.0847511 0.259427 77 145 46
-0.32817 0.0857606 0.259147 80 150 49
-0.327328 0.0865004 0.259148 83 156 55
-0.325774 0.0870315 0.259359 90 162 64
-0.324702 0.0876978 0.259429 91 161 67
-0.323868 0.0884321 0.25943 94 159 64
-0.323268 0.0892364 0.259361 98 160 57
-0.322435 0.0899694 0.259361 100 164 54
-0.321835 0.0907738 0.259292 98 167 56
-0.321235 0.0915788 0.259223 96 169 58
-0.320635 0.0923842 0.259154 95 168 58
-0.320264 0.0932649 0.259015 93 165 57
-0.319892 0.0941479 0.258876 90 161 55
-0.31952 0.095033 0.258736 89 158 52
-0.318916 0.0958428 0.258666 87 154 53
-0.318312 0.096653 0.258597 87 153 52
-0.317936 0.097543 0.258457 86 151 50
-0.31733 0.098355 0.258387 85 148 49
-0.316953 0.0992486 0.258246 86 148 49
-0.31726 0.100391 0.257891 86 149 49
-0.318264 0.101796 0.257316 86 148 49
-0.318114 0.102791 0.2571 89 148 47
-0.319132 0.104226 0.256514 90 149 48
-0.318511 0.105058 0.256442 90 150 49
-0.317191 0.105623 0.256593 89 153 52
-0.316109 0.106275 0.256669 90 157 56
-0.31549 0.107105 0.256598 94 160 57
-0.314872 0.107935 0.256526 96 163 55
-0.314481 0.108857 0.256381 100 169 54
-0.313861 0.109689 0.25631 101 170 57
-0.313469 0.110615 0.256164 102 171 60
-0.312847 0.111449 0.256093 104 172 59
-0.312453 0.112379 0.255947 102 171 58
-0.31183 0.113214 0.255875 99 168 56
-0.311206 0.11405 0.255803 99 166 56
-0.311263 0.115182 0.255506 97 163 56
-0.310637 0.116022 0.255434 92 160 57
-0.310691 0.117164 0.255136 95 158 52
-0.310062 0.118007 0.255063 92 155 52
-0.309659 0.118954 0.254915 91 158 54
-0.309482 0.120007 0.254689 94 162 54
-0.309077 0.120959 0.25454 96 164 57
-0.309125 0.122127 0.254236 95 165 59
-0.308717 0.123087 0.254086 97 166 59
-0.308307 0.124049 0.253935 101 167 59
-0.307897 0.125013 0.253784 100 168 57
-0.308168 0.126315 0.253397 97 170 57
-0.30844 0.127627 0.253007 98 173 60
-0.308025 0.128606 0.252853 101 174 59
-0.30738 0.129471 0.252779 102 177 58
-0.306734 0.130337 0.252705 100 178 56
-0.306315 0.131321 0.25255 101 178 59
-0.305895 0.132308 0.252396 105 171 58
-0.305474 0.133297 0.252241 105 168 55
-0.305279 0.13441 0.252004 101 169 55
-0.304628 0.135283 0.251929 97 165 58
-0.304885 0.136651 0.251529 95 161 57
-0.304458 0.137654 0.251372 92 161 56
-0.30403 0.13866 0.251214 88 164 57
-0.3036 0.139668 0.251056 80 166 60
-0.302943 0.14055 0.25098 69 165 54
-0.301608 0.141045 0.251152 67 160 47
-0.300728 0.141797 0.251158 77 160 47
-0.298303 0.141644 0.251734 91 173 53
-0.294211 0.140487 0.252931 91 175 59
-0.293569 0.141347 0.252857 92 174 59
-0.292718 0.142081 0.252862 116 190 66
-0.291867 0.142814 0.252866 115 175 76
-0.291435 0.143801 0.252714 67 95 59
-0.331308 0.0786891 0.259138 76 148 43
-0.33047 0.0794276 0.259139 93 144 43
-0.329874 0.0802272 0.25907 97 149 49
-0.329277 0.0810274 0.259001 90 149 51
-0.329399 0.0820199 0.258721 77 139 45
-0.3288 0.0828234 0.258652 71 141 44
-0.328201 0.0836274 0.258583 73 141 44
-0.32784 0.0844984 0.258442 76 142 45
-0.327717 0.0854393 0.258231 79 146 47
-0.327114 0.0862471 0.258161 81 149 50
-0.325562 0.0867792 0.258376 81 151 49
-0.32449 0.087446 0.258448 84 154 49
-0.323656 0.0881805 0.258449 87 155 50
-0.323056 0.0889848 0.258379 90 158 52
-0.322223 0.089718 0.258381 96 164 50
-0.321623 0.0905224 0.258311 96 167 53
-0.321023 0.0913273 0.258242 96 168 55
-0.320422 0.0921327 0.258172 94 166 56
-0.320051 0.0930132 0.258032 92 162 56
-0.319679 0.0938959 0.257891 91 160 56
-0.319306 0.0947808 0.25775 92 159 52
-0.318702 0.0955905 0.257681 90 156 52
-0.318327 0.096479 0.257539 88 153 50
-0.317722 0.0972905 0.257469 86 152 50
-0.317345 0.0981824 0.257327 86 149 49
-0.316738 0.0989957 0.257257 87 148 49
-0.317045 0.100137 0.256898 87 149 48
-0.317584 0.101372 0.256463 87 152 49
-0.317433 0.102364 0.256245 88 154 48
-0.31728 0.10336 0.256026 90 154 48
-0.316895 0.104274 0.25588 91 153 49
-0.316278 0.105101 0.255809 90 154 52
-0.31566 0.10593 0.255737 90 156 56
-0.315272 0.106848 0.255591 96 158 56
-0.314653 0.107678 0.25552 97 163 56
-0.314034 0.108509 0.255448 99 170 56
-0.313642 0.109432 0.255302 101 171 58
-0.313022 0.110264 0.25523 103 170 58
-0.3124 0.111097 0.255158 104 169 57
-0.312233 0.112121 0.254935 105 167 56
-0.31161 0.112956 0.254863 105 165 54
-0.310987 0.113793 0.254791 104 163 53
-0.311042 0.114924 0.254491 102 160 54
-0.310416 0.115763 0.254419 99 159 56
-0.310469 0.116905 0.254117 98 154 51
-0.310067 0.11785 0.253967 94 156 49
-0.309437 0.118694 0.253894 91 157 54
-0.30926 0.119747 0.253667 94 164 57
-0.308854 0.120699 0.253516 95 167 57
-0.308901 0.121866 0.253209 94 169 57
-0.308493 0.122825 0.253057 96 171 58
-0.307856 0.123679 0.252983 99 170 59
-0.30722 0.124532 0.25291 99 169 58
-0.307034 0.125607 0.252678 99 172 57
-0.307985 0.12725 0.252046 99 171 59
-0.307569 0.128227 0.251892 104 175 58
-0.307152 0.129207 0.251736 106 177 58
-0.306507 0.130073 0.251662 105 175 57
-0.30586 0.130939 0.251587 104 178 54
-0.30544 0.131924 0.251431 99 175 61
-0.305019 0.132912 0.251275 98 170 59
-0.30505 0.134144 0.250955 94 170 56
-0.304626 0.135139 0.250797 91 169 55
-0.303973 0.136014 0.250722 89 163 56
-0.304 0.137262 0.250399 87 165 55
-0.303572 0.138266 0.25024 86 169 56
-0.302916 0.139146 0.250164 81 169 53
-0.302034 0.139898 0.250171 68 166 48
-0.300261 0.14014 0.250509 69 160 45
-0.298725 0.140506 0.250762 83 166 49
-0.295264 0.139739 0.251736 93 177 57
-0.293985 0.140226 0.251901 95 174 58
-0.293344 0.141086 0.251826 106 179 60
-0.292074 0.141569 0.25199 125 196 70
-0.291434 0.142427 0.251916 107 158 74
-0.291001 0.143413 0.251763 65 68 52
-0.328668 0.0686804 0.261225 83 152 47
-0.328095 0.0694491 0.261159 84 154 47
-0.331339 0.0784978 0.258087 76 153 46
-0.3305 0.0792372 0.258089 81 149 47
-0.329903 0.0800376 0.25802 81 144 48
-0.329787 0.0809645 0.257808 79 140 48
-0.329428 0.0818314 0.257667 76 141 46
-0.328828 0.0826357 0.257597 70 141 46
-0.328228 0.0834404 0.257528 70 139 44
-0.327627 0.0842456 0.257458 73 139 44
-0.327265 0.0851186 0.257316 77 140 46
-0.326187 0.0857896 0.25739 79 145 50
-0.325349 0.0865269 0.257392 78 147 51
-0.324278 0.0871942 0.257466 81 152 51
-0.323444 0.0879289 0.257467 85 154 51
-0.322844 0.0887331 0.257398 89 156 51
-0.322011 0.0894666 0.257399 92 161 51
-0.321411 0.090271 0.25733 97 168 55
-0.320811 0.0910759 0.25726 97 171 58
-0.32021 0.0918813 0.25719 95 167 58
-0.319839 0.0927615 0.257049 92 164 56
-0.319466 0.0936439 0.256907 89 161 55
-0.319093 0.0945285 0.256765 89 158 52
-0.318489 0.0953383 0.256695 90 155 51
-0.318114 0.0962264 0.256552 88 154 51
-0.317737 0.0971168 0.256409 86 152 49
-0.317131 0.0979296 0.256339 86 150 49
-0.316752 0.0988235 0.256195 86 149 50
-0.31683 0.0998834 0.255905 89 151 49
-0.317138 0.101034 0.255538 90 154 51
-0.317216 0.102108 0.255244 88 156 52
-0.316601 0.102933 0.255172 88 156 52
-0.315986 0.103757 0.255101 91 155 53
-0.3156 0.10467 0.254954 94 153 54
-0.315213 0.105585 0.254808 96 154 55
-0.314824 0.106502 0.254661 102 159 55
-0.314206 0.107331 0.254589 101 160 58
-0.313815 0.108252 0.254441 100 170 58
-0.313195 0.109083 0.254369 102 169 60
-0.312803 0.110007 0.254221 103 167 58
-0.312409 0.110934 0.254073 104 166 57
-0.312469 0.112054 0.253771 107 163 56
-0.311845 0.112891 0.253698 108 162 56
-0.31122 0.113729 0.253626 107 164 57
-0.310821 0.114665 0.253476 104 163 58
-0.310422 0.115604 0.253326 103 158 53
-0.310475 0.116746 0.25302 100 155 51
-0.310072 0.117692 0.252868 93 159 51
-0.309442 0.118537 0.252795 93 160 54
-0.309037 0.119487 0.252643 95 165 59
-0.308858 0.120543 0.252413 96 166 58
-0.308905 0.121711 0.252101 96 170 58
-0.308269 0.122564 0.252027 97 173 58
-0.307632 0.123417 0.251954 98 172 58
-0.306995 0.124271 0.25188 97 173 58
-0.306358 0.125125 0.251806 97 174 58
-0.307302 0.126761 0.251169 100 173 60
-0.307114 0.127849 0.250932 102 175 62
-0.306697 0.128827 0.250775 99 180 62
-0.306279 0.129808 0.250619 99 180 60
-0.305633 0.130675 0.250544 102 177 59
-0.304986 0.131542 0.250468 95 174 60
-0.304565 0.132528 0.250311 95 171 57
-0.304142 0.133517 0.250153 93 168 55
-0.30417 0.134751 0.249829 90 167 55
