ply
format ascii 1.0
element vertex 1186
property float x
property float y
property float z
property uchar diffuse_red
property uchar diffuse_green
property uchar diffuse_blue
end_header
0.0682235 -0.238342 -0.0402188 49 118 123
0.0679023 -0.238883 -0.0415916 58 133 135
0.0678481 -0.239434 -0.0432726 71 143 139
0.0677935 -0.239988 -0.044962 81 127 129
0.0837171 -0.22751 -0.0266422 28 57 59
0.0828234 -0.228058 -0.027446 26 57 58
0.0819318 -0.228604 -0.0282479 27 56 57
0.0810424 -0.229149 -0.0290479 26 57 60
0.080443 -0.229691 -0.0301391 26 58 63
0.0801313 -0.230231 -0.0315258 27 56 59
0.079531 -0.230773 -0.0326186 20 54 56
0.0786444 -0.231315 -0.0334135 17 47 48
0.07776 -0.231857 -0.0342064 13 36 39
0.0768779 -0.232396 -0.0349974 9 33 38
0.0759977 -0.232935 -0.0357865 9 45 50
0.0751199 -0.233472 -0.0365737 13 55 63
0.0736881 -0.234003 -0.0367591 22 61 67
0.072267 -0.234529 -0.0369432 18 59 70
0.0708562 -0.235051 -0.037126 14 63 68
0.0697252 -0.235574 -0.0376045 16 67 71
0.0691363 -0.236106 -0.0386767 19 75 78
0.0685473 -0.236638 -0.0397489 26 83 85
0.0682262 -0.237177 -0.0411228 33 92 96
0.0679041 -0.237718 -0.0425003 40 106 111
0.0678498 -0.238267 -0.0441877 50 121 125
0.0683349 -0.238838 -0.0465047 60 135 141
0.0680102 -0.239385 -0.047901 79 144 144
0.0831733 -0.226303 -0.026949 53 59 61
0.0825716 -0.226846 -0.0280442 33 54 60
0.0816792 -0.227395 -0.0288465 28 53 60
0.080789 -0.227942 -0.0296467 31 54 60
0.0801887 -0.228484 -0.0307395 30 54 62
0.0795884 -0.229027 -0.0318323 29 53 56
0.078988 -0.229569 -0.0329252 20 49 51
0.0783877 -0.230111 -0.0340182 14 46 46
0.0775024 -0.230654 -0.0348115 11 36 41
0.0766194 -0.231197 -0.0356028 11 39 45
0.0760203 -0.231738 -0.0366933 11 54 58
0.0748597 -0.232277 -0.0371799 17 63 67
0.073983 -0.232815 -0.0379656 25 69 69
0.0728317 -0.23335 -0.0384473 25 65 68
0.0711384 -0.233876 -0.0383251 19 61 66
0.0705458 -0.234411 -0.0394039 17 63 66
0.0699531 -0.234947 -0.0404827 18 67 66
0.0693605 -0.235482 -0.0415617 20 71 69
0.0687678 -0.236017 -0.0426407 23 76 76
0.068175 -0.236553 -0.0437198 28 84 86
0.0683914 -0.237109 -0.0457266 34 92 98
0.0683376 -0.237661 -0.0474347 39 106 113
0.068012 -0.238208 -0.0488357 51 130 133
0.0676855 -0.238757 -0.0502403 103 144 138
0.0796458 -0.22728 -0.031046 50 56 58
0.0790455 -0.227822 -0.0321389 32 54 55
0.078445 -0.228365 -0.0332319 21 50 48
0.0778446 -0.228907 -0.034325 12 40 41
0.0769599 -0.229452 -0.035118 11 36 42
0.0760775 -0.229995 -0.0359091 13 46 53
0.0754784 -0.230536 -0.0369997 17 63 65
0.0748793 -0.231078 -0.0380903 22 73 70
0.0737213 -0.231618 -0.0385736 25 72 69
0.072846 -0.232158 -0.0393577 25 70 67
0.0719728 -0.232695 -0.04014 22 69 67
0.0716519 -0.233236 -0.0415315 24 69 65
0.0710548 -0.233775 -0.0426185 26 62 57
0.0701837 -0.234311 -0.043397 26 60 58
0.0695872 -0.23485 -0.0444828 24 63 63
0.0689907 -0.235388 -0.0455687 23 68 69
0.0686659 -0.235933 -0.0469673 23 74 77
0.0683402 -0.236478 -0.0483695 24 85 86
0.0680137 -0.237025 -0.0497753 30 101 109
0.0676863 -0.237573 -0.0511846 90 139 137
0.0785024 -0.226618 -0.0324455 36 57 55
0.077902 -0.22716 -0.0335386 19 49 45
0.0773014 -0.227702 -0.0346318 10 39 37
0.0764174 -0.228249 -0.0354245 9 45 45
0.0755355 -0.228794 -0.0362154 15 61 63
0.0749364 -0.229335 -0.037306 25 75 75
0.0743372 -0.229876 -0.0383968 32 80 78
0.0734589 -0.230419 -0.0391832 29 75 73
0.0725827 -0.23096 -0.0399677 25 72 68
0.0719849 -0.2315 -0.0410559 25 70 68
0.0716631 -0.23204 -0.0424521 38 68 65
0.0710644 -0.232581 -0.043542 44 60 55
0.0704657 -0.233121 -0.0446319 45 55 51
0.069867 -0.233662 -0.0457219 39 54 54
0.0692682 -0.234203 -0.0468119 30 57 60
0.0686693 -0.234744 -0.047902 23 64 66
0.0683428 -0.235289 -0.049309 21 74 72
0.0677431 -0.235831 -0.0504006 26 83 90
0.0674149 -0.236378 -0.0518126 68 116 113
0.0779593 -0.225413 -0.0327522 31 57 58
0.0773588 -0.225956 -0.0338454 13 44 46
0.0764746 -0.226504 -0.0346391 11 40 40
0.0755927 -0.227051 -0.0354309 11 58 57
0.0749935 -0.227592 -0.0365217 23 79 79
0.0743943 -0.228134 -0.0376125 37 89 91
0.073795 -0.228675 -0.0387034 40 89 91
0.0731956 -0.229216 -0.0397943 36 82 83
0.0723186 -0.229759 -0.0405791 32 76 74
0.0719969 -0.230298 -0.0419765 37 73 69
0.0716743 -0.230838 -0.0433775 59 66 63
0.071074 -0.23138 -0.0444701 66 63 57
0.0704737 -0.231922 -0.0455628 67 61 53
0.0698734 -0.232464 -0.0466556 61 60 55
0.069273 -0.233006 -0.0477485 51 60 60
0.0686726 -0.233548 -0.0488415 45 63 64
0.0680721 -0.234091 -0.0499345 44 68 64
0.0674717 -0.234633 -0.0510276 48 70 70
0.0671427 -0.23518 -0.0524423 63 80 79
0.0665413 -0.235722 -0.0535369 68 72 65
0.0780167 -0.223666 -0.0319656 52 64 62
0.0774161 -0.224209 -0.0330589 25 58 62
0.0768154 -0.224751 -0.0341522 9 39 49
0.0759319 -0.225301 -0.0349456 11 49 55
0.0750506 -0.22585 -0.0357372 21 74 75
0.0744514 -0.226391 -0.036828 33 91 92
0.0738521 -0.226932 -0.0379189 41 97 100
0.0732527 -0.227473 -0.03901 43 95 99
0.0726533 -0.228014 -0.040101 43 91 95
0.0720539 -0.228555 -0.0411922 43 87 87
0.0720089 -0.22909 -0.0429017 55 77 73
0.0714079 -0.229633 -0.0439957 67 70 60
0.0774734 -0.222461 -0.0322723 31 66 63
0.0768728 -0.223004 -0.0333657 13 50 60
0.0759892 -0.223556 -0.0341601 7 40 51
0.0751077 -0.224107 -0.0349526 13 67 70
0.0745084 -0.224648 -0.0360435 29 87 89
0.0739091 -0.225189 -0.0371345 36 95 98
0.0733097 -0.22573 -0.0382255 40 97 100
0.0727103 -0.226271 -0.0393166 44 98 100
0.0723885 -0.226806 -0.0407142 45 99 99
0.0720659 -0.227343 -0.0421154 49 96 93
0.0717426 -0.22788 -0.0435201 61 74 74
0.0711407 -0.228424 -0.0446157 73 68 60
0.0775308 -0.220714 -0.0314856 51 67 60
0.0769301 -0.221256 -0.032579 23 59 61
0.0760464 -0.221811 -0.0333745 9 39 50
0.0754464 -0.222352 -0.0344666 11 51 59
0.0745655 -0.222904 -0.0352589 21 80 82
0.0739661 -0.223445 -0.0363499 33 95 96
0.0733668 -0.223986 -0.0374409 39 98 99
0.0730458 -0.224519 -0.0388361 42 98 99
0.0724456 -0.22506 -0.0399287 43 97 100
0.0721231 -0.225595 -0.0413289 47 97 99
0.0717997 -0.226131 -0.0427328 57 91 88
0.0714754 -0.226668 -0.0441402 71 71 60
0.0775881 -0.218966 -0.0306989 64 65 56
0.0769874 -0.219508 -0.0317923 34 65 61
0.0763867 -0.220051 -0.0328858 17 55 60
0.0755036 -0.220607 -0.0336809 3 41 52
0.0746226 -0.221161 -0.0344742 15 74 73
0.0740232 -0.221702 -0.0355652 28 91 92
0.0734238 -0.222243 -0.0366563 38 97 101
0.0731029 -0.222773 -0.0380506 41 98 102
0.0725027 -0.223315 -0.0391432 42 98 101
0.0721802 -0.223847 -0.0405424 44 99 100
0.0718568 -0.22438 -0.0419453 51 94 95
0.0715326 -0.224915 -0.0433518 64 81 81
0.0712075 -0.225452 -0.0447618 78 71 57
0.0770448 -0.217761 -0.0310055 56 65 60
0.076444 -0.218303 -0.032099 26 65 65
0.0758432 -0.218845 -0.0331926 10 54 61
0.0749606 -0.219402 -0.0339875 7 50 65
0.0740803 -0.219958 -0.0347805 19 84 87
0.0734808 -0.220499 -0.0358716 31 96 99
0.07316 -0.221027 -0.0372649 40 97 103
0.0725597 -0.221569 -0.0383575 43 98 104
0.0722373 -0.222099 -0.0397558 43 99 103
0.0716361 -0.222641 -0.04085 46 99 99
0.0715898 -0.223163 -0.0425633 59 90 86
0.0709871 -0.223707 -0.0436603 75 70 65
0.0771021 -0.216013 -0.0302186 58 67 60
0.0765013 -0.216555 -0.0313121 39 69 66
0.075618 -0.217115 -0.0321093 17 67 70
0.0750178 -0.217656 -0.0332017 7 55 66
0.0744177 -0.218198 -0.0342941 17 71 72
0.0738174 -0.21874 -0.0353866 29 91 93
0.0734966 -0.219266 -0.0367811 40 98 102
0.0728955 -0.219808 -0.0378751 43 97 102
0.0722944 -0.220351 -0.0389692 44 97 101
0.0719711 -0.22088 -0.0403702 44 98 100
0.071647 -0.22141 -0.0417747 50 96 95
0.071322 -0.221942 -0.0431828 64 82 76
0.0707185 -0.222486 -0.0442813 76 66 52
0.0765586 -0.214807 -0.0305252 57 69 67
0.0759577 -0.215349 -0.0316189 31 73 75
0.075075 -0.21591 -0.0324158 13 72 75
0.0744748 -0.216452 -0.0335082 10 64 71
0.0738745 -0.216993 -0.0346007 23 84 84
0.0732743 -0.217535 -0.0356934 34 93 98
0.0729526 -0.21806 -0.0370883 41 98 101
0.0723515 -0.218602 -0.0381825 42 98 101
0.0717503 -0.219145 -0.0392767 43 98 101
0.0714263 -0.219672 -0.0406781 45 100 99
0.0711014 -0.220201 -0.0420831 53 88 87
0.0704986 -0.220745 -0.0431803 66 70 66
0.0771848 -0.213012 -0.0303267 65 66 64
0.0762984 -0.213578 -0.0311271 48 73 74
0.0754141 -0.214142 -0.0319257 29 77 79
0.0748131 -0.214685 -0.0330195 14 75 75
0.0739317 -0.215247 -0.0338148 15 74 74
0.0733313 -0.215789 -0.0349075 24 91 92
0.0730098 -0.216311 -0.0363015 34 98 100
0.0724086 -0.216854 -0.0373956 40 99 100
0.0718074 -0.217396 -0.0384899 42 98 99
0.0712062 -0.217938 -0.0395842 44 97 100
0.0708814 -0.218464 -0.0409861 49 97 97
0.0705557 -0.218992 -0.0423917 60 80 77
0.0699529 -0.219536 -0.0434889 72 69 61
0.0766398 -0.211802 -0.030634 56 70 67
0.075754 -0.21237 -0.0314342 36 77 78
0.0748703 -0.212936 -0.0322325 21 79 81
0.0742692 -0.213478 -0.0333264 14 76 77
0.0736681 -0.21402 -0.0344204 20 82 81
0.0730669 -0.214562 -0.0355145 30 95 95
0.0724658 -0.215105 -0.0366087 37 101 100
0.0718645 -0.215647 -0.037703 38 100 101
0.0712632 -0.216189 -0.0387973 41 98 102
0.0706619 -0.216732 -0.0398917 45 99 101
0.0703364 -0.217256 -0.0412942 53 88 91
0.0697342 -0.217799 -0.0423901 64 73 71
0.077554 -0.209968 -0.0307313 66 66 60
0.0766637 -0.21054 -0.0315344 48 74 72
0.0754921 -0.211136 -0.0320381 28 81 82
0.0743264 -0.211729 -0.0325393 16 78 80
0.0737253 -0.212271 -0.0336334 16 77 79
0.0731241 -0.212814 -0.0347275 25 87 90
0.0725228 -0.213356 -0.0358218 37 98 99
0.0719216 -0.213898 -0.036916 38 100 100
0.0713203 -0.21444 -0.0380104 39 100 101
0.0707189 -0.214983 -0.0391048 41 99 103
0.0701175 -0.215525 -0.0401993 48 99 100
0.0697913 -0.216048 -0.0416023 61 79 79
0.069189 -0.216591 -0.0426983 72 68 64
0.0772932 -0.208725 -0.0313371 55 70 66
0.0761171 -0.209327 -0.0318426 38 78 79
0.0749469 -0.209926 -0.0323457 23 79 82
0.074063 -0.210496 -0.033144 15 77 78
0.0731813 -0.211064 -0.0339404 19 81 83
0.07258 -0.211607 -0.0350347 30 93 97
0.0719787 -0.212149 -0.036129 37 99 101
0.0713774 -0.212691 -0.0372234 39 98 101
0.070776 -0.213233 -0.0383179 38 99 102
0.0701745 -0.213776 -0.0394124 41 98 103
0.0698484 -0.214297 -0.0408144 52 92 96
0.0692461 -0.21484 -0.0419104 63 74 70
0.0770316 -0.207478 -0.0319446 48 74 72
0.0755705 -0.208114 -0.0321509 29 79 82
0.0746836 -0.208687 -0.0329516 17 77 81
0.0735183 -0.209287 -0.0334514 15 77 80
0.0726372 -0.209857 -0.0342475 23 88 90
0.0720358 -0.210399 -0.0353419 35 97 101
0.0714345 -0.210942 -0.0364363 37 98 102
0.0708331 -0.211484 -0.0375308 41 98 102
0.0702316 -0.212026 -0.0386254 39 98 102
0.0696301 -0.212569 -0.03972 46 98 98
0.0690285 -0.213111 -0.0408148 56 81 83
0.0687008 -0.213631 -0.0422187 64 70 65
0.0785325 -0.205549 -0.032649 60 69 63
0.0767693 -0.206228 -0.0325536 41 79 77
0.0750238 -0.2069 -0.0324593 21 79 82
0.0741374 -0.207475 -0.0332596 14 76 79
0.0729735 -0.208078 -0.0337588 19 81 83
0.072093 -0.20865 -0.0345547 29 92 95
0.0714916 -0.209192 -0.0356491 39 97 101
0.0708902 -0.209734 -0.0367436 41 98 101
0.0702887 -0.210277 -0.0378383 42 99 101
0.0696871 -0.210819 -0.0389329 42 98 101
0.0690855 -0.211361 -0.0400277 55 96 94
0.0684839 -0.211904 -0.0411225 63 72 69
0.0678822 -0.212446 -0.0422175 67 66 61
0.0779803 -0.204323 -0.0329603 52 74 71
0.0762198 -0.205008 -0.0328635 32 83 80
0.074477 -0.205687 -0.0327677 16 79 80
0.0735913 -0.206263 -0.0335678 15 77 80
0.0724286 -0.206869 -0.0340663 25 85 88
0.0718264 -0.207412 -0.0351621 36 95 98
0.0709472 -0.207985 -0.0359564 41 97 100
0.0703457 -0.208527 -0.0370511 43 99 101
0.0697441 -0.209069 -0.0381458 44 99 102
0.0691425 -0.209611 -0.0392406 48 100 99
0.0685408 -0.210154 -0.0403354 59 86 87
0.0679392 -0.210696 -0.0414304 68 70 65
0.0771393 -0.203133 -0.0329697 44 80 79
0.0753852 -0.203823 -0.032873 23 82 82
0.07393 -0.204473 -0.0330762 14 77 78
0.073045 -0.205051 -0.033876 19 80 84
0.0721621 -0.205628 -0.0346739 30 91 95
0.0712813 -0.206203 -0.0354698 38 97 101
0.0704027 -0.206777 -0.0362638 42 100 102
0.0698011 -0.207319 -0.0373585 46 102 103
0.0691995 -0.207861 -0.0384533 47 100 103
0.0685978 -0.208404 -0.0395482 53 98 97
0.0679961 -0.208946 -0.0406432 63 74 72
0.0673943 -0.209488 -0.0417383 68 65 59
0.0774861 -0.20132 -0.0324722 53 76 72
0.0765876 -0.201908 -0.0332807 36 83 84
0.0745526 -0.202641 -0.0328826 19 79 82
0.073383 -0.203259 -0.0333847 16 79 81
0.0724986 -0.203838 -0.0341842 25 88 90
0.0716163 -0.204417 -0.0349818 36 95 99
0.0707361 -0.204993 -0.0357775 42 98 101
0.0698582 -0.205569 -0.0365712 44 100 102
0.0692565 -0.206111 -0.037666 49 103 102
0.0686548 -0.206653 -0.038761 50 101 103
0.068053 -0.207196 -0.039856 57 87 93
0.0674512 -0.207738 -0.0409511 66 66 62
0.0778338 -0.199503 -0.0319734 61 65 64
0.0769336 -0.200094 -0.0327836 42 83 81
0.0757492 -0.200722 -0.0332897 25 85 85
0.0740042 -0.201424 -0.0331919 16 79 81
0.0728359 -0.202044 -0.0336933 17 84 86
0.071952 -0.202626 -0.0344925 28 94 96
0.0710704 -0.203205 -0.0352898 39 98 101
0.0701909 -0.203784 -0.0360852 45 98 101
0.0693135 -0.204361 -0.0368787 49 98 100
0.0687118 -0.204903 -0.0379736 50 99 99
0.06811 -0.205445 -0.0390687 53 99 97
0.0675082 -0.205988 -0.0401638 61 71 77
0.0669063 -0.20653 -0.0412589 67 62 60
0.0772806 -0.198275 -0.0322851 55 72 68
0.0760937 -0.198909 -0.0327932 35 86 85
0.075198 -0.199499 -0.0336005 19 82 83
0.0734557 -0.200206 -0.0335012 18 80 81
0.0722888 -0.20083 -0.034002 26 89 90
0.0714054 -0.201413 -0.0348009 33 97 99
0.0705244 -0.201994 -0.0355979 39 99 102
0.0696455 -0.202574 -0.036393 47 100 102
0.0687687 -0.203152 -0.0371862 52 99 102
0.068167 -0.203695 -0.0382813 50 99 100
0.0675651 -0.204237 -0.0393764 54 91 89
0.0669632 -0.204779 -0.0404716 64 65 61
0.0776284 -0.196451 -0.0317853 63 64 62
0.0764391 -0.19709 -0.0322953 45 83 80
0.0752559 -0.197726 -0.0328029 26 88 87
0.0743622 -0.198317 -0.0336093 15 80 82
0.0729071 -0.198989 -0.0338105 20 85 85
0.0717415 -0.199615 -0.0343107 30 95 95
0.0708588 -0.200199 -0.0351093 37 99 99
0.0697026 -0.200821 -0.0356045 39 99 101
0.0691001 -0.201364 -0.0367009 40 100 103
0.0682239 -0.201944 -0.0374938 43 100 103
0.067622 -0.202486 -0.0385889 48 95 97
0.0670201 -0.203028 -0.0396842 57 79 78
0.0664181 -0.203571 -0.0407795 63 65 59
0.0767854 -0.195266 -0.0317961 59 70 66
0.0755998 -0.195908 -0.0323056 41 88 90
0.07442 -0.196546 -0.0328125 19 84 85
0.0735285 -0.197138 -0.033618 17 80 82
0.0720782 -0.197813 -0.0338191 27 91 93
0.0709161 -0.198442 -0.0343187 33 98 101
0.0700355 -0.199027 -0.0351165 38 98 102
0.0691572 -0.199611 -0.0359123 40 98 102
0.0685545 -0.200153 -0.0370088 39 98 103
0.0679519 -0.200696 -0.0381053 41 97 101
0.0673492 -0.201239 -0.039202 52 90 88
0.066475 -0.201819 -0.039992 62 66 61
0.0771326 -0.193438 -0.0312955 63 66 59
0.0759445 -0.194085 -0.0318069 49 83 78
0.0747624 -0.194729 -0.0323158 32 89 90
0.0735862 -0.195369 -0.0328223 14 80 83
0.0724159 -0.196006 -0.0333262 23 86 86
0.0712514 -0.19664 -0.0338277 33 96 98
0.0703692 -0.197228 -0.0346271 38 98 102
0.0694893 -0.197815 -0.0354246 40 98 103
0.0686116 -0.1984 -0.0362201 41 98 102
0.0680088 -0.198943 -0.0373167 42 98 102
0.0674061 -0.199486 -0.0384134 46 95 98
0.0668034 -0.200029 -0.0395102 55 82 80
0.0662006 -0.200572 -0.040607 62 63 53
0.0765785 -0.192207 -0.0316077 58 71 66
0.0751057 -0.192906 -0.0318178 40 91 90
0.073927 -0.193552 -0.0323262 22 86 88
0.0727544 -0.194195 -0.032832 13 80 84
0.0715876 -0.194834 -0.0333354 25 93 95
0.0704265 -0.19547 -0.0338363 35 100 102
0.0695465 -0.196059 -0.0346349 40 100 103
0.0686686 -0.196646 -0.0354314 39 98 104
0.0680659 -0.197189 -0.036528 39 98 103
0.0674631 -0.197732 -0.0376248 44 100 101
0.0668603 -0.198275 -0.0387215 52 89 90
0.0662574 -0.198818 -0.0398184 60 66 71
0.0656546 -0.199361 -0.0409153 65 61 59
0.0769259 -0.190372 -0.0311061 65 64 62
0.0757367 -0.191028 -0.0316187 51 81 78
0.0745535 -0.19168 -0.0321289 32 92 97
0.0733762 -0.192329 -0.0326366 18 81 87
0.0719246 -0.193023 -0.0328418 20 83 87
0.0707612 -0.193665 -0.0333446 31 97 100
0.0696037 -0.194303 -0.033845 39 100 103
0.0687257 -0.194893 -0.0346426 40 100 104
0.0681229 -0.195435 -0.0357393 40 100 103
0.0675201 -0.195978 -0.036836 39 100 103
0.0669173 -0.196521 -0.0379328 46 98 99
0.0663144 -0.197064 -0.0390297 59 83 80
0.0657115 -0.197607 -0.0401266 65 59 56
0.0760825 -0.189193 -0.0311178 57 73 70
0.0751831 -0.189798 -0.0319306 42 92 91
0.0737172 -0.190505 -0.0321394 20 86 91
0.0722624 -0.191208 -0.0323468 14 79 84
0.0710967 -0.191854 -0.0328516 25 92 95
0.0702136 -0.192449 -0.0336534 34 100 101
0.0690573 -0.193091 -0.0341531 39 100 102
0.0681799 -0.193681 -0.0349504 40 99 103
0.0675771 -0.194224 -0.0360472 39 99 103
0.0669743 -0.194767 -0.037144 42 100 102
0.0666429 -0.195265 -0.0385458 52 89 91
0.0660392 -0.195808 -0.0396441 63 68 66
0.0764292 -0.187354 -0.0306154 61 66 64
0.0755282 -0.187962 -0.0314299 49 80 78
0.0743439 -0.188623 -0.0319413 36 95 94
0.072883 -0.189334 -0.03215 16 81 84
0.0717128 -0.189987 -0.0326566 20 82 86
0.0705484 -0.190637 -0.0331606 27 96 101
0.0693898 -0.191284 -0.0336623 38 100 102
0.068237 -0.191927 -0.0341615 40 100 103
0.0676341 -0.19247 -0.0352583 41 101 102
0.0670312 -0.193013 -0.0363551 40 100 103
0.0664283 -0.193556 -0.0374521 46 98 101
0.0660962 -0.194052 -0.0388544 57 84 81
0.0654924 -0.194595 -0.0399528 64 64 57
0.0758741 -0.186121 -0.0309279 55 70 69
0.0746875 -0.186787 -0.0314413 44 91 92
0.0735067 -0.18745 -0.0319522 28 89 93
0.0723319 -0.18811 -0.0324605 12 78 86
0.0708841 -0.18882 -0.0326667 26 94 96
0.0697232 -0.189472 -0.0331702 34 99 104
0.068568 -0.190121 -0.0336713 41 99 104
0.0676911 -0.190716 -0.0344693 41 98 104
0.0670882 -0.191258 -0.0355662 41 101 103
0.0664853 -0.191801 -0.0366632 41 100 102
0.0658823 -0.192344 -0.0377602 48 93 96
0.0655494 -0.192839 -0.039163 59 76 76
0.0649455 -0.193382 -0.0402615 65 59 55
0.076221 -0.184275 -0.0304245 65 67 62
0.0750319 -0.184947 -0.0309399 54 78 76
0.0741336 -0.185557 -0.0317532 41 94 96
0.0726716 -0.18628 -0.031963 21 83 87
0.0717807 -0.186886 -0.0327711 21 78 84
0.0703349 -0.187601 -0.0329761 31 97 98
0.0691753 -0.188256 -0.033479 34 101 101
0.0680214 -0.188908 -0.0339794 39 99 103
0.0671452 -0.189504 -0.0347772 42 100 104
0.0665422 -0.190047 -0.0358741 40 100 102
0.0659392 -0.190589 -0.0369712 45 98 99
0.0653361 -0.191132 -0.0380684 54 83 80
0.0650025 -0.191625 -0.0394716 63 66 57
0.0643986 -0.192169 -0.0405703 67 61 48
0.0753773 -0.183102 -0.0304371 62 71 68
0.0744773 -0.183715 -0.0312521 45 88 88
0.0730121 -0.184446 -0.0314641 26 88 94
0.0718385 -0.185113 -0.0319739 14 81 82
0.0706707 -0.185777 -0.0324811 32 92 91
0.0695088 -0.186438 -0.0329859 34 100 102
0.0683526 -0.187095 -0.0334881 40 101 103
0.0672022 -0.187749 -0.033988 41 99 102
0.0665992 -0.188292 -0.0350851 41 99 102
0.0659961 -0.188835 -0.0361822 42 98 102
0.065393 -0.189377 -0.0372793 51 94 97
0.0647899 -0.18992 -0.0383766 60 75 72
0.0644555 -0.190412 -0.0397803 64 60 52
0.0754355 -0.181316 -0.0296336 65 65 67
0.0748219 -0.181868 -0.0307497 54 75 80
0.0736377 -0.182545 -0.0312638 40 93 98
0.0721775 -0.18328 -0.0314756 17 85 88
0.0710073 -0.183949 -0.0319847 11 82 85
0.0698431 -0.184615 -0.0324914 31 99 102
0.0686846 -0.185278 -0.0329956 35 100 107
0.0675319 -0.185937 -0.0334974 40 100 107
0.0666562 -0.186537 -0.0342959 43 99 104
0.0660531 -0.18708 -0.035393 42 99 103
0.0654499 -0.187622 -0.0364902 45 99 101
0.0648468 -0.188165 -0.0375875 52 83 88
0.0642435 -0.188708 -0.0386849 61 62 63
0.0748802 -0.180082 -0.0299462 60 69 68
0.0739808 -0.180699 -0.030762 48 88 87
0.0725174 -0.181441 -0.0309759 29 91 95
0.0713449 -0.182116 -0.0314871 15 83 84
0.0701782 -0.182787 -0.0319956 29 88 92
0.0690174 -0.183456 -0.0325018 32 101 107
0.0678624 -0.18412 -0.0330054 40 101 106
0.0667131 -0.184782 -0.0335067 43 98 104
0.06611 -0.185324 -0.0346038 45 100 102
0.0655069 -0.185867 -0.035701 43 100 103
0.0649036 -0.18641 -0.0367984 50 98 98
0.0643004 -0.186953 -0.0378957 60 77 74
0.0636971 -0.187496 -0.0389932 65 60 58
0.0743248 -0.178847 -0.0302588 58 75 72
0.0731417 -0.179532 -0.0307742 40 93 94
0.0716832 -0.180278 -0.030988 22 87 89
0.0705142 -0.180955 -0.0314985 17 81 85
0.0693511 -0.181629 -0.0320066 36 98 98
0.0681938 -0.182299 -0.0325122 35 101 107
0.0670422 -0.182966 -0.0330153 40 101 105
0.0661669 -0.183569 -0.0338145 40 100 106
0.0655638 -0.184112 -0.0349118 41 101 106
0.0649605 -0.184654 -0.0360091 44 100 102
0.0643573 -0.185197 -0.0371065 50 86 91
0.0637539 -0.18574 -0.038204 59 68 69
0.0631506 -0.186283 -0.0393016 64 63 56
0.0743829 -0.177061 -0.0294551 64 70 60
0.0734841 -0.177681 -0.0302717 50 84 80
0.0723046 -0.178368 -0.0307865 32 93 96
0.0708511 -0.179118 -0.0310001 16 83 87
0.0694085 -0.179862 -0.0312122 25 85 89
0.068526 -0.180472 -0.0320176 37 101 105
0.0673721 -0.181145 -0.0325226 39 100 104
0.0664953 -0.181751 -0.0333234 41 102 104
0.0656207 -0.182356 -0.0341224 41 101 103
0.0650175 -0.182899 -0.0352198 41 100 105
0.0644141 -0.183442 -0.0363172 48 102 102
0.0638108 -0.183984 -0.0374148 56 79 75
0.0632074 -0.184527 -0.0385124 64 62 55
0.0735422 -0.175897 -0.029469 55 73 73
0.0726456 -0.176518 -0.0302845 41 93 92
0.0714696 -0.177207 -0.0307989 24 89 93
0.070021 -0.17796 -0.0310122 14 83 91
0.068859 -0.178641 -0.0315216 35 97 101
0.0679771 -0.179253 -0.0323267 38 100 108
0.0668245 -0.179928 -0.0328311 41 102 106
0.0659483 -0.180537 -0.0336317 41 101 103
0.0653443 -0.18108 -0.0347305 43 99 102
0.064471 -0.181686 -0.0355278 44 101 103
0.0638677 -0.182229 -0.0366254 51 90 97
0.0632642 -0.182771 -0.037723 63 69 72
0.0738856 -0.174039 -0.0289639 64 66 62
0.0729873 -0.174664 -0.0297812 51 81 81
0.071809 -0.175358 -0.0302975 37 92 97
0.0706366 -0.176049 -0.0308112 17 85 89
0.0694701 -0.176736 -0.0313224 23 86 93
0.0680344 -0.177488 -0.0315332 38 101 106
0.0671545 -0.178101 -0.0323374 38 100 104
0.0660053 -0.178778 -0.0328412 41 101 105
0.0654013 -0.179322 -0.03394 42 101 104
0.0647972 -0.179865 -0.0350389 41 101 103
0.064193 -0.180408 -0.0361378 47 100 99
0.0635888 -0.180952 -0.0372368 55 77 77
0.0629845 -0.181495 -0.038336 64 66 63
0.0730454 -0.172879 -0.0289784 59 76 76
0.0721492 -0.173504 -0.0297947 43 91 94
0.0709745 -0.1742 -0.0303104 25 89 96
0.0698056 -0.174893 -0.0308236 17 84 89
0.0686426 -0.175583 -0.0313342 34 96 98
0.0674854 -0.176269 -0.0318424 37 103 107
0.0663339 -0.176952 -0.032348 41 101 105
0.0654583 -0.177563 -0.0331494 43 103 104
0.0648541 -0.178107 -0.0342483 41 100 104
0.0642499 -0.17865 -0.0353473 43 99 102
0.0636457 -0.179193 -0.0364464 52 96 96
0.0630414 -0.179737 -0.0375455 60 75 67
0.0624371 -0.18028 -0.0386448 65 66 55
0.0733881 -0.171016 -0.0284726 61 69 65
0.0724903 -0.171645 -0.0292906 54 82 81
0.0715949 -0.172272 -0.0301067 37 93 98
0.070142 -0.173045 -0.0303234 18 85 90
0.0692539 -0.173667 -0.0311342 20 88 90
0.0678171 -0.174432 -0.031346 34 103 103
0.0666633 -0.17512 -0.0318537 36 104 104
0.0655153 -0.175805 -0.0323588 41 100 105
0.0646417 -0.176417 -0.0331592 44 100 103
0.0643069 -0.176891 -0.0345567 43 99 102
0.0637026 -0.177435 -0.0356558 47 100 99
0.0630983 -0.177978 -0.036755 57 76 81
0.0624939 -0.178522 -0.0378542 64 63 59
0.0728324 -0.169781 -0.0287852 59 75 74
0.0719353 -0.170411 -0.0296029 45 92 92
0.0707594 -0.171116 -0.0301199 27 92 95
0.0695895 -0.171817 -0.0306343 18 85 89
0.0684254 -0.172516 -0.0311462 33 95 94
0.0669935 -0.173284 -0.0313579 39 102 104
0.0658432 -0.173974 -0.0318649 41 101 105
0.0646986 -0.174661 -0.0323695 43 100 102
0.0640951 -0.175203 -0.0334672 46 99 102
0.0634916 -0.175746 -0.0345649 44 99 101
0.0631552 -0.176219 -0.0359644 52 97 98
0.0625508 -0.176763 -0.0370637 64 69 68
0.0731752 -0.167912 -0.0282783 61 69 62
0.0722765 -0.168545 -0.0290978 53 80 83
0.07138 -0.169176 -0.0299153 37 94 98
0.069926 -0.169963 -0.0301331 18 87 91
0.0687596 -0.170667 -0.030647 22 86 90
0.0673246 -0.171443 -0.0308608 39 99 102
0.0664443 -0.172063 -0.0316672 39 102 105
0.0650251 -0.17283 -0.0318762 40 101 106
0.064152 -0.173446 -0.0326774 41 102 105
0.0635484 -0.173989 -0.0337752 43 99 104
0.0629448 -0.174532 -0.0348731 45 101 101
0.0626076 -0.175004 -0.036273 53 83 87
0.0620032 -0.175547 -0.0373724 64 70 64
0.0726186 -0.166674 -0.0285913 58 77 72
0.0717206 -0.167309 -0.0294105 46 91 90
0.0705437 -0.168023 -0.0299287 29 93 95
0.0690946 -0.168813 -0.0301464 19 85 88
0.0676564 -0.169597 -0.0303624 33 91 94
0.0667746 -0.170221 -0.0311704 41 100 105
0.0656233 -0.170919 -0.0316787 41 101 104
0.0644777 -0.171614 -0.0321845 42 102 105
0.0636053 -0.172232 -0.0329854 43 101 105
0.0630017 -0.172775 -0.0340833 42 100 106
0.062398 -0.173317 -0.0351812 50 98 97
0.0620601 -0.173788 -0.0365817 62 73 67
0.0614555 -0.174331 -0.0376812 65 64 59
0.0726768 -0.164884 -0.0277861 62 64 62
0.072062 -0.165436 -0.0289043 55 80 80
0.0711645 -0.166073 -0.0297232 39 93 96
0.0697094 -0.166872 -0.0299422 20 87 92
0.0682652 -0.167665 -0.0301596 22 87 90
0.066832 -0.168452 -0.0303754 39 100 101
0.0659522 -0.169077 -0.0311825 40 101 108
0.0648043 -0.169778 -0.0316902 41 101 105
0.0636622 -0.170475 -0.0321955 41 101 105
0.0630585 -0.171017 -0.0332934 42 102 104
0.0624548 -0.17156 -0.0343914 44 103 104
0.061851 -0.172103 -0.0354895 52 83 89
0.0612472 -0.172645 -0.0365876 62 66 61
0.0721201 -0.163646 -0.028099 59 75 70
0.0712226 -0.164284 -0.028919 48 87 88
0.0703273 -0.164921 -0.029737 32 91 96
0.0688771 -0.165724 -0.0299557 20 86 90
0.0677131 -0.166438 -0.0304703 29 91 96
0.0662819 -0.16723 -0.030685 40 102 107
0.0651317 -0.167936 -0.0311947 39 102 107
0.0639873 -0.168639 -0.0317018 41 101 106
0.0633828 -0.169182 -0.0328012 42 102 105
0.0625116 -0.169803 -0.0336015 40 100 106
0.0619078 -0.170345 -0.0346996 50 102 100
0.0613039 -0.170888 -0.0357978 61 73 70
0.0607001 -0.171431 -0.036896 62 61 59
0.0715633 -0.162407 -0.0284121 56 81 79
0.0706664 -0.163047 -0.0292318 40 93 95
0.069492 -0.163772 -0.0297507 23 87 93
0.0680468 -0.164578 -0.0299692 20 87 92
0.0668864 -0.165294 -0.0304832 35 99 101
0.06546 -0.16609 -0.0306978 38 101 107
0.0643132 -0.166798 -0.0312068 41 101 106
0.0634397 -0.167422 -0.0320101 42 100 105
0.0628352 -0.167965 -0.0331095 41 101 105
0.0622306 -0.168509 -0.0342091 42 102 106
0.061626 -0.169052 -0.0353086 54 90 94
0.0607568 -0.169673 -0.0361061 66 66 58
0.0716215 -0.160616 -0.0276067 62 68 64
0.0707245 -0.161259 -0.0284274 51 86 84
0.0698297 -0.161899 -0.0292461 34 93 96
0.0686588 -0.162626 -0.0297644 20 86 89
0.0672185 -0.163435 -0.0299828 26 90 93
0.0660615 -0.164154 -0.0304961 38 103 105
0.0649104 -0.164868 -0.0310071 37 101 106
0.0637649 -0.16558 -0.0315155 41 101 106
0.0628921 -0.166206 -0.0323185 42 100 105
0.0622875 -0.166749 -0.033418 41 100 105
0.0616828 -0.167292 -0.0345176 48 102 101
0.0610782 -0.167835 -0.0356173 57 75 76
0.0604734 -0.168379 -0.036717 66 63 55
0.0710645 -0.159378 -0.0279197 56 77 76
0.0701682 -0.160021 -0.0287402 41 94 94
0.068995 -0.160754 -0.0292605 24 89 94
0.0678277 -0.161482 -0.0297782 20 86 91
0.0666662 -0.162208 -0.0302935 35 96 101
0.0655106 -0.162929 -0.0308062 38 102 108
0.0643608 -0.163647 -0.0313164 41 102 105
0.0632166 -0.164361 -0.0318241 41 101 106
0.0626112 -0.164905 -0.0329251 43 100 106
0.0617397 -0.165532 -0.0337265 42 101 106
0.061135 -0.166075 -0.0348262 52 96 97
0.0605302 -0.166618 -0.035926 60 66 64
0.0599254 -0.167162 -0.0370259 66 65 56
0.0711227 -0.157586 -0.0271141 57 68 63
0.0705075 -0.158139 -0.0282328 49 85 84
0.0696118 -0.158784 -0.029053 33 95 96
0.0681623 -0.159611 -0.0292748 18 87 90
0.0669985 -0.160342 -0.0297921 25 91 94
0.0661139 -0.16098 -0.0306042 38 102 106
0.0646884 -0.161792 -0.0308189 37 101 109
0.0635419 -0.162512 -0.0313285 41 102 106
0.0629358 -0.163056 -0.0324308 41 100 107
0.0620627 -0.163686 -0.0332339 42 100 106
0.0614572 -0.16423 -0.034335 47 101 101
0.0608516 -0.164774 -0.0354362 59 79 80
0.0602461 -0.165318 -0.0365375 65 62 58
0.0705656 -0.156347 -0.0274272 53 76 74
0.0699504 -0.156899 -0.028546 42 93 93
0.0687762 -0.157641 -0.0290676 27 91 95
0.0676078 -0.158378 -0.0295866 21 88 91
0.0664454 -0.159112 -0.0301032 34 99 99
0.0652888 -0.159842 -0.0306171 39 104 108
0.0641379 -0.160569 -0.0311286 39 102 108
0.0629928 -0.161291 -0.0316376 41 101 106
0.0623866 -0.161836 -0.03274 42 101 106
0.0617802 -0.162381 -0.0338426 42 100 105
0.0611739 -0.162925 -0.0349452 56 98 97
0.0605675 -0.16347 -0.0360478 67 67 65
0.0596972 -0.164099 -0.0368467 66 60 58
0.0706238 -0.154555 -0.0266215 60 64 62
0.0700085 -0.155108 -0.0277403 50 82 84
0.0693932 -0.15566 -0.0288592 35 94 98
0.0682203 -0.156404 -0.0293801 21 86 93
0.0667778 -0.157239 -0.0296007 25 89 97
0.0656188 -0.157975 -0.0301166 36 101 106
0.0647368 -0.158615 -0.0309276 38 102 108
0.0635874 -0.159345 -0.0314384 40 101 108
0.0627112 -0.159981 -0.0322448 42 101 106
0.0621041 -0.160526 -0.0333487 42 100 105
0.0612309 -0.16116 -0.0341519 48 100 99
0.0606245 -0.161705 -0.0352546 59 78 84
0.060018 -0.162249 -0.0363574 71 64 59
0.0700666 -0.153315 -0.0269345 57 72 72
0.0694512 -0.153868 -0.0280534 44 92 92
0.0685567 -0.154519 -0.0288741 27 92 96
0.0673873 -0.155265 -0.0293944 22 87 92
0.0662239 -0.156008 -0.0299122 33 96 99
0.0650662 -0.156747 -0.0304274 36 103 108
0.0639144 -0.157482 -0.0309402 40 102 108
0.0630367 -0.158121 -0.0317483 42 101 107
0.0621612 -0.158758 -0.0325544 42 100 105
0.061554 -0.159304 -0.0336584 43 100 105
0.0609468 -0.159849 -0.0347626 52 99 96
0.0600749 -0.160484 -0.0355641 61 66 67
0.0594684 -0.161028 -0.036667 71 63 57
0.0701247 -0.151523 -0.0261287 62 63 61
0.0695093 -0.152076 -0.0272476 51 81 83
0.068894 -0.152628 -0.0283666 35 96 98
0.068 -0.153281 -0.029187 20 88 93
0.066832 -0.15403 -0.0297066 25 89 94
0.0656698 -0.154776 -0.0302237 38 101 103
0.0645135 -0.155518 -0.0307383 38 102 106
0.063363 -0.156256 -0.0312504 41 102 107
0.062486 -0.156897 -0.0320582 43 101 106
0.061611 -0.157536 -0.032864 42 100 106
0.0610039 -0.158081 -0.0339682 46 100 104
0.0603966 -0.158626 -0.0350724 57 83 85
0.0595253 -0.159263 -0.0358737 63 64 60
0.0695674 -0.150283 -0.0264418 58 73 70
0.068952 -0.150836 -0.0275608 45 93 91
0.0677801 -0.151592 -0.0280852 28 94 96
0.0666141 -0.152345 -0.028607 20 89 92
0.0654539 -0.153094 -0.0291263 32 95 98
0.0645709 -0.153741 -0.0299397 39 102 106
0.063151 -0.154581 -0.0301572 39 101 106
0.0622753 -0.155223 -0.0309654 41 103 107
0.0616681 -0.155768 -0.0320695 42 102 107
0.0610608 -0.156313 -0.0331737 43 101 106
0.0604535 -0.156858 -0.034278 52 99 99
0.0598462 -0.157404 -0.0353823 63 70 66
0.0592388 -0.157949 -0.0364867 64 61 54
0.0696255 -0.14849 -0.0256358 60 61 57
0.06901 -0.149043 -0.0267548 52 79 82
0.0681159 -0.1497 -0.0275773 39 95 97
0.0669475 -0.150458 -0.0281011 24 88 94
0.0657851 -0.151213 -0.0286223 25 90 95
0.0646284 -0.151964 -0.029141 37 100 104
0.0634775 -0.152711 -0.0296571 38 101 107
0.0623324 -0.153454 -0.0301708 40 101 107
0.0614587 -0.154097 -0.030978 42 103 106
0.0608522 -0.154642 -0.0320808 43 102 106
0.0605105 -0.15509 -0.0334834 45 101 103
0.0599031 -0.155635 -0.0345878 55 85 89
0.0592957 -0.15618 -0.0356922 65 63 52
0.0696836 -0.146697 -0.0248298 61 59 54
0.0690681 -0.14725 -0.0259488 57 71 65
0.0684525 -0.147802 -0.027068 46 89 89
0.0672818 -0.148567 -0.0275938 32 93 97
0.0661169 -0.149327 -0.028117 23 87 92
0.0646858 -0.150187 -0.0283422 32 94 98
0.0635347 -0.150938 -0.0288604 39 102 107
0.0623895 -0.151686 -0.0293761 39 102 106
0.0615157 -0.152331 -0.0301844 41 102 107
0.0609092 -0.152875 -0.0312872 42 101 106
0.0603026 -0.15342 -0.0323901 44 100 105
0.0596959 -0.153964 -0.0334931 50 99 98
0.0590892 -0.154509 -0.0345962 59 68 69
0.0691261 -0.145457 -0.0251427 58 61 61
0.0685106 -0.146009 -0.0262619 52 79 79
0.067617 -0.14667 -0.0270852 38 94 95
0.0667256 -0.147329 -0.0279063 23 89 94
0.0652884 -0.148198 -0.0281329 24 89 94
0.0641329 -0.148957 -0.028653 37 100 103
0.0629832 -0.149712 -0.0291705 40 103 107
0.0618393 -0.150463 -0.0296855 41 102 106
0.0612319 -0.151008 -0.0307898 41 102 107
0.0603594 -0.151653 -0.0315964 40 101 106
0.0597528 -0.152198 -0.0326995 45 99 104
0.0591461 -0.152742 -0.0338026 53 88 91
0.0585393 -0.153287 -0.0349058 63 61 53
0.0685686 -0.144216 -0.0254558 54 68 66
0.067953 -0.144768 -0.0265751 47 88 88
0.06706 -0.145431 -0.027398 31 93 97
0.0658942 -0.1462 -0.0279225 20 87 92
0.0647342 -0.146965 -0.0284444 30 93 99
0.06358 -0.147727 -0.0289638 41 103 107
0.0624316 -0.148485 -0.0294806 43 105 106
0.0615555 -0.149135 -0.030291 43 102 105
0.0606815 -0.149784 -0.0310993 42 102 106
0.060074 -0.150329 -0.0322038 41 101 105
0.0594665 -0.150874 -0.0333083 50 99 100
0.058859 -0.15142 -0.0344129 57 71 74
0.0579893 -0.152065 -0.0352154 62 60 51
0.068011 -0.142975 -0.0257689 53 77 77
0.0673953 -0.143527 -0.0268883 39 93 95
0.0662271 -0.144302 -0.0274148 22 89 96
0.0653385 -0.144964 -0.0282347 23 88 96
0.0641798 -0.145732 -0.028756 37 98 104
0.0630269 -0.146497 -0.0292747 40 104 108
0.0624165 -0.147045 -0.0303846 43 105 106
0.0612708 -0.147804 -0.030898 44 102 106
0.0603961 -0.148456 -0.0317067 43 101 106
0.0597878 -0.149001 -0.0328127 43 100 104
0.0591795 -0.149547 -0.0339187 55 91 93
0.0583083 -0.150196 -0.0347229 64 62 58
0.068069 -0.141181 -0.0249626 58 68 62
0.0674533 -0.141733 -0.026082 50 87 87
0.0665609 -0.1424 -0.0269057 32 93 97
0.0653961 -0.143177 -0.0274316 20 88 93
0.0645096 -0.143838 -0.0282506 29 92 99
0.0636253 -0.144499 -0.0290676 40 102 107
0.0624737 -0.145267 -0.0295856 39 102 107
0.0618632 -0.145814 -0.0306956 41 103 107
0.0612526 -0.146362 -0.0318057 43 101 108
0.0601098 -0.147124 -0.0323157 43 101 107
0.0592365 -0.147776 -0.0331229 50 97 99
0.0586281 -0.148322 -0.034229 58 74 77
0.0577575 -0.148972 -0.0350329 63 57 53
0.068127 -0.139387 -0.0241562 57 57 55
0.0675113 -0.139939 -0.0252757 53 78 75
0.0668955 -0.140492 -0.0263952 42 94 93
0.0657284 -0.141275 -0.0269231 25 91 95
0.0648403 -0.14194 -0.0277438 23 90 93
0.0639544 -0.142603 -0.0285625 38 98 101
0.0630707 -0.143265 -0.0293793 41 103 108
0.0619205 -0.144036 -0.0298966 40 102 108
0.0613099 -0.144584 -0.0310067 41 102 109
0.0606992 -0.145132 -0.0321169 42 101 108
0.0600885 -0.14568 -0.0332272 43 99 104
0.0594778 -0.146227 -0.0343375 55 91 91
0.0580765 -0.147096 -0.0345394 61 61 54
0.0572066 -0.147747 -0.035343 58 54 52
0.0675693 -0.138145 -0.0244693 54 60 61
0.0669535 -0.138698 -0.0255888 48 85 86
0.0660616 -0.139368 -0.0264133 34 94 97
0.0651719 -0.140036 -0.0272357 22 86 93
0.064012 -0.140818 -0.0277603 29 91 97
0.0633991 -0.141368 -0.0288745 42 101 106
0.0625161 -0.142031 -0.0296909 42 102 108
0.0616352 -0.142693 -0.0305054 41 102 108
0.0607565 -0.143353 -0.0313178 41 102 109
0.0604122 -0.14379 -0.0327287 42 101 105
0.0598006 -0.144338 -0.0338405 48 98 99
0.059189 -0.144887 -0.0349524 57 75 76
0.0583133 -0.145545 -0.0357596 62 57 45
0.0676273 -0.136351 -0.0236627 56 56 54
0.0670114 -0.136903 -0.0247824 51 73 73
0.0663955 -0.137456 -0.0259021 40 92 94
0.0655042 -0.138127 -0.0267262 25 91 96
0.0646152 -0.138797 -0.0275483 24 88 94
0.0634567 -0.139582 -0.0280722 36 96 102
0.0628437 -0.140132 -0.0291866 39 103 109
0.0619613 -0.140797 -0.0300027 40 102 108
0.0610811 -0.14146 -0.0308169 42 102 108
0.0604695 -0.142009 -0.0319286 42 103 106
0.0601243 -0.142445 -0.0333422 43 101 103
0.0595119 -0.142994 -0.0344555 52 92 92
0.0588995 -0.143543 -0.0355689 61 58 55
0.0580229 -0.144203 -0.0363764 61 56 44
0.0676853 -0.134556 -0.0228562 60 58 55
0.0670694 -0.135109 -0.0239758 57 64 62
0.0664535 -0.135661 -0.0250955 49 83 84
0.0658375 -0.136213 -0.0262153 33 94 98
0.0649469 -0.136887 -0.0270392 21 88 94
0.0640584 -0.137558 -0.027861 29 92 97
0.0631722 -0.138228 -0.0286809 40 102 106
0.0622882 -0.138896 -0.0294987 40 103 108
0.0614064 -0.139563 -0.0303146 41 103 109
0.0607941 -0.140112 -0.0314277 42 102 108
0.0601817 -0.140661 -0.032541 43 102 106
0.0598356 -0.141096 -0.0339572 47 99 100
0.0592223 -0.141646 -0.0350721 52 78 81
0.0586091 -0.142196 -0.036187 66 54 42
0.0671274 -0.133314 -0.0231692 61 59 56
0.0665114 -0.133866 -0.0242889 56 72 72
0.0658954 -0.134419 -0.0254087 44 89 91
0.0650047 -0.135094 -0.0262337 27 91 97
0.0643894 -0.135646 -0.0273522 23 88 93
0.0635016 -0.136319 -0.0281738 35 97 100
0.062616 -0.13699 -0.0289933 40 104 108
0.0617326 -0.13766 -0.0298108 41 102 108
0.0608515 -0.138328 -0.0306264 43 102 109
0.0602391 -0.138877 -0.0317397 42 101 107
0.059893 -0.13931 -0.033155 45 100 104
0.0592797 -0.13986 -0.0342698 53 96 94
0.0586664 -0.14041 -0.0353848 56 61 59
0.0665694 -0.132071 -0.0234822 60 63 59
0.0659533 -0.132624 -0.024602 51 81 82
0.0653372 -0.133176 -0.025722 34 93 96
0.0644472 -0.133853 -0.0265466 20 88 94
0.0635593 -0.134528 -0.0273692 26 92 96
0.0629446 -0.135079 -0.0284865 38 103 105
0.0620597 -0.135752 -0.0293058 39 103 109
0.061177 -0.136424 -0.030123 42 102 108
0.0605637 -0.136974 -0.0312378 43 103 109
0.0599504 -0.137523 -0.0323526 42 102 106
0.0593371 -0.138073 -0.0334675 48 98 100
0.0589894 -0.138505 -0.0348869 57 82 83
0.0583752 -0.139056 -0.0360034 63 54 48
0.0669045 -0.130147 -0.0229662 60 58 51
0.0660113 -0.130828 -0.0237953 56 71 68
0.0653952 -0.131381 -0.0249153 43 89 90
0.064779 -0.131933 -0.0260353 26 92 96
0.0638896 -0.132612 -0.0268596 20 88 92
0.0630023 -0.133289 -0.027682 32 95 100
0.0621172 -0.133964 -0.0285023 40 103 107
0.0612344 -0.134638 -0.0293206 40 102 106
0.0606212 -0.135187 -0.0304353 42 102 106
0.0600079 -0.135737 -0.0315502 43 102 105
0.059661 -0.136166 -0.0329671 43 101 106
0.0590469 -0.136716 -0.0340836 54 96 95
0.0586983 -0.137147 -0.0355057 60 62 64
0.0580832 -0.137698 -0.0366237 65 53 45
0.0663456 -0.128902 -0.0232797 57 59 57
0.0657287 -0.129455 -0.0244011 52 81 81
0.0648369 -0.130138 -0.0252285 36 95 98
0.0642207 -0.13069 -0.0263487 20 89 95
0.0633318 -0.13137 -0.0271727 25 90 95
0.0624452 -0.132049 -0.0279948 39 100 102
0.0615608 -0.132726 -0.0288148 41 103 106
0.0606786 -0.133401 -0.0296328 42 102 105
0.0600653 -0.133951 -0.0307477 42 102 106
0.0597185 -0.134377 -0.0321636 44 102 103
0.0591043 -0.134928 -0.0332801 46 101 101
0.0587557 -0.135356 -0.0347012 59 85 85
0.0581406 -0.135907 -0.0358193 65 60 49
0.0666808 -0.126971 -0.0227627 57 55 54
0.0657867 -0.127657 -0.0235932 54 67 69
0.0651697 -0.12821 -0.0247147 48 88 89
0.0642785 -0.128894 -0.0255418 32 93 99
0.0633896 -0.129577 -0.026367 22 87 96
0.0625029 -0.130258 -0.02719 32 93 100
0.061888 -0.130809 -0.0283076 38 102 105
0.0610043 -0.131487 -0.0291273 40 102 105
0.0603901 -0.132038 -0.0302436 42 103 106
0.0597759 -0.132588 -0.03136 42 102 106
0.0591618 -0.133138 -0.0324765 44 100 103
0.0588132 -0.133564 -0.0338967 52 98 95
0.0584638 -0.133992 -0.0353205 63 64 67
0.0578479 -0.134544 -0.0364401 67 56 46
0.0661212 -0.125724 -0.0230765 52 61 58
0.0655033 -0.126278 -0.0241995 47 80 81
0.0646106 -0.126965 -0.0250284 38 94 95
0.06372 -0.127651 -0.0258552 24 88 95
0.0628318 -0.128335 -0.02668 28 89 97
0.0619457 -0.129017 -0.0275028 38 99 104
0.0610618 -0.129698 -0.0283236 37 102 107
0.0604476 -0.130248 -0.0294399 39 102 107
0.0598334 -0.130799 -0.0305563 42 101 107
0.0592192 -0.131349 -0.0316729 43 101 106
0.0588707 -0.131773 -0.033092 46 100 101
0.0585213 -0.132198 -0.0345149 56 88 84
0.0579054 -0.13275 -0.0356345 67 59 45
0.0655614 -0.124477 -0.0233904 48 66 63
0.0649435 -0.125031 -0.0245135 43 87 88
0.0637779 -0.125855 -0.0250482 30 92 96
0.0631615 -0.126407 -0.0261686 21 86 91
0.0620033 -0.127226 -0.026698 30 92 98
0.0611193 -0.127909 -0.0275198 39 102 107
0.0605052 -0.128459 -0.0286361 39 102 107
0.0598909 -0.129009 -0.0297526 42 102 107
0.0592766 -0.12956 -0.0308691 43 100 106
0.0586623 -0.13011 -0.0319857 44 100 105
0.058313 -0.130532 -0.0334054 51 96 95
0.0579629 -0.130956 -0.0348288 57 67 69
0.0573468 -0.131508 -0.0359485 67 57 47
0.0656194 -0.122676 -0.0225812 57 56 57
0.0650015 -0.12323 -0.0237044 49 76 78
0.0641093 -0.123921 -0.024534 37 93 94
0.0632193 -0.124611 -0.0253616 22 89 94
0.0623316 -0.125299 -0.0261872 25 88 92
0.0614461 -0.125985 -0.0270108 36 98 99
0.0605626 -0.126669 -0.0278323 39 102 106
0.0599484 -0.12722 -0.0289487 42 101 107
0.059068 -0.127902 -0.029767 43 103 106
0.0587197 -0.128321 -0.031182 42 101 104
0.0581053 -0.128871 -0.0322987 44 99 101
0.0577553 -0.129292 -0.0337189 53 89 88
0.0574044 -0.129713 -0.0351428 64 58 50
0.0656776 -0.120875 -0.021772 59 60 51
0.0650596 -0.121429 -0.0228951 56 69 64
0.0644416 -0.121983 -0.0240184 45 86 87
0.06355 -0.122675 -0.0248477 29 93 97
0.0626606 -0.123367 -0.025675 20 87 92
0.0617735 -0.124056 -0.0265004 31 92 97
0.0606202 -0.12488 -0.0270283 38 101 104
0.0600059 -0.12543 -0.0281448 38 102 105
0.0591253 -0.126114 -0.0289641 42 101 107
0.0585118 -0.126664 -0.0300793 42 101 107
0.0578981 -0.127214 -0.0311947 42 100 104
0.0575483 -0.127632 -0.0326117 48 96 95
0.0571974 -0.128051 -0.0340324 47 68 73
0.0568457 -0.128471 -0.0354568 60 58 53
0.0651176 -0.119628 -0.0220858 53 57 55
0.0644996 -0.120181 -0.0232091 49 78 75
0.0636079 -0.120877 -0.0240395 37 94 93
0.0627185 -0.12157 -0.0248679 22 91 95
0.0621018 -0.122122 -0.0259885 24 89 92
0.0609462 -0.122952 -0.0265185 37 97 100
0.0600634 -0.12364 -0.0273408 39 102 107
0.0591828 -0.124327 -0.0281611 41 102 106
0.0585691 -0.124876 -0.0292764 42 102 106
0.0579554 -0.125426 -0.0303918 42 100 108
0.0573417 -0.125976 -0.0315072 44 99 105
0.056991 -0.126392 -0.0329247 54 90 88
0.0566395 -0.126809 -0.0343459 58 60 47
0.0645576 -0.11838 -0.0223997 55 64 61
0.0636658 -0.119077 -0.0232312 44 84 85
0.0630484 -0.11963 -0.0243532 31 93 96
0.0621596 -0.120325 -0.0251813 20 88 92
0.0612731 -0.121019 -0.0260074 26 93 98
0.0603887 -0.12171 -0.0268314 35 101 108
0.0595065 -0.1224 -0.0276534 38 101 108
0.0586265 -0.123088 -0.0284734 41 101 107
0.0580128 -0.123638 -0.0295888 42 102 107
0.0571358 -0.124324 -0.0304055 42 101 107
0.0567852 -0.124737 -0.0318198 49 98 101
0.0561714 -0.125287 -0.0329354 54 68 76
0.0558191 -0.125703 -0.034355 59 55 45
0.0646156 -0.116578 -0.0215903 58 54 58
0.0639975 -0.117132 -0.0227137 55 72 74
0.0631063 -0.117831 -0.0235449 39 91 92
0.0622174 -0.118528 -0.024374 22 90 94
0.0616007 -0.119081 -0.0254947 23 89 92
0.0607148 -0.119775 -0.0263206 37 98 101
0.059831 -0.120469 -0.0271443 40 102 107
0.0589495 -0.12116 -0.027966 42 102 105
0.0580702 -0.12185 -0.0287857 43 103 106
0.0574564 -0.1224 -0.0299012 43 102 107
0.0565799 -0.123087 -0.0307176 44 99 106
0.0562286 -0.123499 -0.0321325 54 94 94
0.0556147 -0.124049 -0.0332482 57 61 56
0.0646737 -0.114777 -0.0207807 61 59 55
0.0640555 -0.11533 -0.0219042 57 63 65
0.0634373 -0.115884 -0.0230277 49 80 84
0.0625467 -0.116584 -0.0238586 31 91 97
0.0616585 -0.117283 -0.0246874 20 86 92
0.0610417 -0.117835 -0.0258083 30 91 95
0.0601564 -0.118532 -0.0266338 40 101 104
0.0592733 -0.119227 -0.0274572 40 102 107
0.0583924 -0.11992 -0.0282787 43 102 106
0.0575137 -0.120611 -0.0290981 43 100 105
0.0568998 -0.121161 -0.0302137 42 99 106
0.0562859 -0.121711 -0.0313294 49 99 100
0.055672 -0.12226 -0.0324452 56 79 79
0.0550579 -0.12281 -0.033561 63 65 53
0.0643881 -0.113377 -0.0213841 58 57 57
0.0634953 -0.114082 -0.0222181 53 71 72
0.0628769 -0.114635 -0.0233418 39 91 91
0.0619871 -0.115337 -0.0241723 22 90 95
0.0610995 -0.116038 -0.0250009 21 87 91
0.0604826 -0.11659 -0.0261219 32 96 99
0.0595979 -0.117288 -0.0269471 34 101 104
0.0587155 -0.117985 -0.0277703 39 101 104
0.0578352 -0.118679 -0.0285914 44 102 104
0.0569571 -0.119372 -0.0294105 43 100 105
0.0563432 -0.119922 -0.0305262 43 98 106
0.0557292 -0.120472 -0.031642 54 95 94
0.0551152 -0.121021 -0.0327579 62 66 61
0.0545011 -0.121571 -0.0338739 66 62 57
0.0638271 -0.112127 -0.0216984 52 57 57
0.0629349 -0.112833 -0.0225322 46 81 81
0.0623166 -0.113387 -0.0236559 33 92 95
0.0611572 -0.11424 -0.0241934 17 86 92
0.0605403 -0.114792 -0.0253144 23 92 94
0.0596556 -0.115493 -0.0261407 37 102 104
0.058773 -0.116191 -0.0269649 37 102 106
0.0578926 -0.116888 -0.0277871 41 103 107
0.0572779 -0.117439 -0.0289042 42 101 107
0.0566632 -0.117989 -0.0300213 42 99 105
0.0557864 -0.118683 -0.0308388 48 96 100
0.0551724 -0.119232 -0.0319548 51 75 83
0.0545583 -0.119782 -0.0330708 57 62 53
0.0632661 -0.110876 -0.0220128 51 66 69
0.0623745 -0.111584 -0.0228462 40 90 88
0.0614852 -0.11229 -0.0236776 24 90 93
0.060598 -0.112995 -0.0245069 20 86 90
0.0599811 -0.113547 -0.025628 31 95 99
0.059097 -0.114249 -0.026454 35 101 105
0.0582151 -0.114949 -0.0272779 41 100 105
0.0573353 -0.115647 -0.0280998 43 103 107
0.0567205 -0.116198 -0.029217 42 101 105
0.0561057 -0.116748 -0.0303343 43 100 103
0.0554908 -0.117298 -0.0314516 52 93 92
0.0546155 -0.117993 -0.0322675 57 62 61
0.0540013 -0.118543 -0.0333836 58 56 52
0.063598 -0.108914 -0.021492 54 56 58
0.0627049 -0.109625 -0.0223272 46 78 82
0.061814 -0.110335 -0.0231603 34 92 95
0.0606558 -0.111196 -0.0236992 20 87 90
0.0600388 -0.111749 -0.0248204 21 92 94
0.0594218 -0.112301 -0.0259417 29 100 103
0.0585383 -0.113004 -0.0267674 33 101 105
0.057657 -0.113706 -0.027591 40 100 106
0.0570414 -0.114257 -0.0287096 42 100 107
0.056163 -0.114957 -0.0295299 43 100 104
0.0555482 -0.115507 -0.0306473 45 98 99
0.0549332 -0.116057 -0.0317647 54 74 80
0.0543182 -0.116608 -0.0328823 66 59 45
0.0636562 -0.107107 -0.0206801 63 51 48
0.0630361 -0.107662 -0.0218068 54 63 64
0.0621436 -0.108375 -0.0226417 41 88 88
0.0609831 -0.109242 -0.0231826 25 90 94
0.0600965 -0.10995 -0.0240127 18 86 89
0.0594794 -0.110503 -0.025134 26 97 97
0.0585959 -0.111208 -0.0259608 34 104 104
0.0579796 -0.11176 -0.0270808 40 102 105
0.0570989 -0.112463 -0.0279041 41 100 106
0.0564832 -0.113014 -0.0290229 41 99 105
0.0558675 -0.113565 -0.0301417 43 98 101
0.0552517 -0.114116 -0.0312606 49 94 93
0.054636 -0.114667 -0.0323796 54 64 62
0.0537604 -0.115366 -0.0331955 65 59 49
0.0628209 -0.106015 -0.0207054 53 54 53
0.0622016 -0.106569 -0.0218308 47 75 79
0.0613112 -0.107283 -0.0226646 33 92 94
0.0604231 -0.107994 -0.0234965 17 87 93
0.0595371 -0.108704 -0.0243263 20 88 94
0.05892 -0.109256 -0.0254477 31 99 102
0.0580371 -0.109964 -0.0262741 32 102 106
0.0574207 -0.110515 -0.0273942 42 101 106
0.0565406 -0.11122 -0.0282173 42 100 106
0.0559249 -0.111771 -0.0293361 42 98 103
0.0553091 -0.112322 -0.0304551 47 97 100
0.0546933 -0.112873 -0.0315741 53 77 82
0.0540774 -0.113424 -0.0326932 55 58 50
0.062879 -0.104209 -0.0198943 51 54 47
0.0622596 -0.104764 -0.0210197 47 65 62
0.0610987 -0.10564 -0.0215649 41 85 84
0.060212 -0.106353 -0.0223971 26 90 93
0.0595948 -0.106905 -0.0235184 19 86 91
0.0589777 -0.107457 -0.0246399 26 93 98
0.0583605 -0.10801 -0.0257614 33 102 105
0.0574782 -0.108719 -0.0265875 34 101 105
0.0568617 -0.10927 -0.0277077 42 101 107
0.0559823 -0.109977 -0.0285305 43 100 104
0.0553665 -0.110528 -0.0296495 44 97 102
0.0550119 -0.110925 -0.0310689 52 95 95
0.0543952 -0.111477 -0.0321895 59 65 62
0.0535188 -0.112181 -0.0330068 57 57 46
0.0617744 -0.103286 -0.0196333 52 56 51
0.0611565 -0.103839 -0.0207559 47 77 77
0.0602697 -0.104554 -0.0215892 35 94 96
0.0596525 -0.105106 -0.0227105 20 88 95
0.0590353 -0.105658 -0.023832 22 89 94
0.0584181 -0.106211 -0.0249535 31 98 103
0.0575357 -0.106922 -0.0257807 34 101 106
0.0569192 -0.107473 -0.026901 39 101 104
0.0563026 -0.108025 -0.0280213 41 100 105
0.055686 -0.108577 -0.0291417 42 99 102
0.0550693 -0.109128 -0.0302622 47 96 100
0.0544526 -0.10968 -0.0313828 56 81 85
0.0538358 -0.110232 -0.0325035 65 60 51
0.05296 -0.110937 -0.0333206 64 60 47
0.0618322 -0.101485 -0.0188242 54 51 46
0.0612144 -0.102038 -0.0199468 54 66 69
0.0603274 -0.102755 -0.0207812 47 92 100
0.0597102 -0.103307 -0.0219025 38 98 112
0.0588262 -0.104022 -0.0227335 25 91 102
0.0582098 -0.104573 -0.0238537 28 95 99
0.0575933 -0.105125 -0.0249738 35 101 104
0.0569767 -0.105676 -0.0260941 38 100 105
0.0563601 -0.106228 -0.0272145 42 101 104
0.0557435 -0.10678 -0.028335 41 100 104
0.0551268 -0.107331 -0.0294555 41 98 101
0.05451 -0.107883 -0.0305761 52 95 93
0.0538932 -0.108435 -0.0316968 58 66 64
0.0532764 -0.108986 -0.0328176 65 59 50
0.0618901 -0.0996836 -0.018015 50 55 47
0.0612722 -0.100236 -0.0191377 52 58 58
0.0603851 -0.100956 -0.0199731 49 82 90
0.059768 -0.101508 -0.0210945 54 118 127
0.0588839 -0.102225 -0.0219265 64 127 134
0.058002 -0.10294 -0.0227564 50 109 115
0.0573862 -0.103491 -0.0238753 37 100 103
0.0570342 -0.103879 -0.0252872 36 101 104
0.0564176 -0.104431 -0.0264076 41 101 105
0.0558009 -0.104982 -0.0275281 42 100 105
0.0551842 -0.105534 -0.0286486 42 98 104
0.0545674 -0.106086 -0.0297693 43 97 100
0.0539506 -0.106637 -0.03089 52 83 83
0.0533337 -0.107189 -0.0320108 58 54 48
0.0613301 -0.0984345 -0.0183284 51 58 50
