ply
format ascii 1.0
element vertex 1202
property float x
property float y
property float z
property uchar diffuse_red
property uchar diffuse_green
property uchar diffuse_blue
end_header
0.0715155 -0.220234 -0.0326537 44 92 94
0.0712247 -0.220676 -0.033832 44 92 96
0.070719 -0.221134 -0.0347825 42 92 97
0.0704269 -0.221577 -0.0359645 49 91 93
0.0699206 -0.222035 -0.0369162 67 84 79
0.0758932 -0.215103 -0.0247045 80 71 61
0.0751684 -0.215581 -0.025435 53 69 65
0.074663 -0.216038 -0.026385 24 69 67
0.0741576 -0.216495 -0.027335 8 51 56
0.0734352 -0.216971 -0.0280621 9 48 52
0.0727145 -0.217445 -0.0287877 16 69 68
0.0722101 -0.217902 -0.0297359 26 84 85
0.0719203 -0.218341 -0.0309097 37 90 93
0.0714152 -0.218797 -0.0318591 43 92 95
0.0711242 -0.219238 -0.0330366 44 92 95
0.0706186 -0.219695 -0.0339871 45 93 96
0.0703263 -0.220137 -0.0351683 46 93 96
0.06982 -0.220595 -0.0361199 55 89 91
0.0693137 -0.221053 -0.0370716 70 80 72
0.075287 -0.214121 -0.0248588 69 79 66
0.0745628 -0.2146 -0.0255893 35 68 67
0.0740573 -0.215057 -0.0265394 15 64 65
0.0733351 -0.215534 -0.0272673 11 42 51
0.0728301 -0.21599 -0.0282165 13 58 64
0.0723251 -0.216447 -0.0291657 22 78 80
0.0718201 -0.216904 -0.030115 31 89 91
0.071315 -0.21736 -0.0310644 38 90 95
0.0710239 -0.217799 -0.032241 43 91 96
0.0705181 -0.218257 -0.0331916 45 93 96
0.0702258 -0.218697 -0.0343719 45 94 95
0.0697195 -0.219155 -0.0353236 50 93 93
0.0692131 -0.219613 -0.0362753 61 83 83
0.0689188 -0.220055 -0.0374605 73 77 69
0.0754059 -0.212658 -0.0242814 71 77 65
0.0746807 -0.213138 -0.0250132 54 72 66
0.0739571 -0.213618 -0.0257436 25 65 66
0.0734516 -0.214075 -0.0266937 9 55 61
0.0727299 -0.214554 -0.0274217 6 47 59
0.0722249 -0.21501 -0.0283709 17 75 73
0.0717198 -0.215467 -0.0293202 28 88 89
0.0712147 -0.215923 -0.0302696 34 93 94
0.0709234 -0.216361 -0.0314455 40 93 96
0.0704177 -0.216818 -0.032396 43 93 96
0.0701252 -0.217257 -0.0335755 43 93 95
0.069832 -0.217697 -0.0347576 45 93 93
0.0693251 -0.218155 -0.0357104 55 92 87
0.0688181 -0.218614 -0.0366633 66 76 71
0.0750179 -0.21165 -0.0246556 63 73 67
0.0740743 -0.212156 -0.0251676 39 70 66
0.0733513 -0.212637 -0.025898 18 61 63
0.0728457 -0.213094 -0.0268482 10 46 57
0.0721247 -0.213573 -0.027576 13 59 63
0.0716196 -0.21403 -0.0285254 24 83 81
0.0711145 -0.214486 -0.0294748 31 91 92
0.070823 -0.214922 -0.0306497 40 94 94
0.0703173 -0.215379 -0.0316003 42 95 95
0.0700246 -0.215817 -0.032779 39 94 97
0.0699448 -0.216235 -0.0341903 39 93 95
0.0694372 -0.216694 -0.0351442 47 93 91
0.0689297 -0.217153 -0.0360981 62 87 82
0.0684221 -0.217612 -0.0370521 73 72 64
0.0755768 -0.210128 -0.0245167 76 72 65
0.0746289 -0.210639 -0.0250307 56 71 68
0.0736852 -0.211148 -0.0255426 30 67 66
0.0727454 -0.211655 -0.0260523 14 58 61
0.0722398 -0.212112 -0.0270026 13 49 56
0.0715193 -0.212592 -0.0277304 19 72 69
0.0710141 -0.213049 -0.0286798 26 89 85
0.0707226 -0.213483 -0.029854 29 93 95
0.0702168 -0.21394 -0.0308045 41 95 96
0.069924 -0.214376 -0.0319824 40 96 96
0.0698439 -0.214792 -0.033392 36 95 97
0.0695497 -0.21523 -0.0345767 41 95 95
0.0690416 -0.215689 -0.0355316 53 89 88
0.0683212 -0.216168 -0.0362539 70 78 75
0.0754078 -0.209085 -0.0251143 69 74 65
0.0742391 -0.209626 -0.0254067 45 72 69
0.0730779 -0.210164 -0.0256972 22 65 67
0.072355 -0.210647 -0.0264279 13 54 60
0.0716337 -0.21113 -0.0271571 16 57 62
0.071128 -0.211587 -0.0281076 21 81 79
0.0706221 -0.212044 -0.0290581 28 92 91
0.0701164 -0.212501 -0.0300087 33 93 96
0.0698234 -0.212935 -0.0311857 37 95 96
0.0697431 -0.213348 -0.0325937 37 95 96
0.0696624 -0.213762 -0.0340078 37 94 97
0.0693673 -0.2142 -0.0351958 45 95 94
0.068858 -0.214661 -0.0361529 64 88 81
0.0681362 -0.215142 -0.0368761 82 78 67
0.075017 -0.208066 -0.0254919 56 73 69
0.0738483 -0.208611 -0.0257834 30 73 71
0.0726871 -0.209153 -0.0260732 14 64 68
0.0717483 -0.209664 -0.0265825 12 58 64
0.0710275 -0.210148 -0.0273116 19 70 71
0.0705217 -0.210605 -0.0282622 24 87 87
0.0700159 -0.211062 -0.0292128 31 92 93
0.0697228 -0.211495 -0.030389 38 94 96
0.0696422 -0.211904 -0.0317952 38 95 95
0.0695613 -0.212315 -0.0332076 38 94 97
0.0696943 -0.212705 -0.0348583 41 94 97
0.0691839 -0.213166 -0.0358175 52 89 91
0.0686735 -0.213628 -0.0367768 69 77 75
0.0758018 -0.206492 -0.0255778 71 73 67
0.0746253 -0.207044 -0.0258704 44 73 72
0.0734565 -0.207593 -0.0261611 21 72 73
0.0722952 -0.208139 -0.02645 10 65 70
0.0713562 -0.208653 -0.0269592 13 67 70
0.070635 -0.209139 -0.0276887 22 82 80
0.0699154 -0.209623 -0.0284168 27 91 91
0.0696222 -0.210054 -0.0295921 32 93 95
0.0695414 -0.21046 -0.0309967 38 94 97
0.0694601 -0.210868 -0.0324074 41 95 97
0.0695928 -0.211253 -0.0340554 39 94 98
0.0692966 -0.21169 -0.0352474 47 95 95
0.0689996 -0.212127 -0.0364421 62 83 80
0.0682744 -0.212613 -0.0371682 73 75 67
0.0761457 -0.204968 -0.0252163 72 67 65
0.0751871 -0.205495 -0.0257341 55 71 70
0.0742326 -0.20602 -0.0262496 38 76 75
0.0732823 -0.206543 -0.0267631 18 70 72
0.0719024 -0.207123 -0.0268276 10 65 69
0.0711783 -0.207611 -0.0275598 17 73 75
0.0702416 -0.208127 -0.0280667 25 85 86
0.0697346 -0.208585 -0.0290194 29 92 94
0.0694405 -0.209016 -0.030198 34 95 96
0.069359 -0.209421 -0.031607 37 94 97
0.0690635 -0.209854 -0.0327924 41 95 98
0.069195 -0.210236 -0.0344436 40 95 97
0.0688978 -0.210672 -0.0356374 53 93 92
0.0683862 -0.211134 -0.0365989 67 79 74
0.0755297 -0.203969 -0.0253729 83 78 66
0.0747937 -0.204466 -0.0261144 45 74 74
0.073839 -0.204994 -0.0266298 26 78 78
0.0726701 -0.205551 -0.0269189 14 70 72
0.0719419 -0.206043 -0.0276541 14 70 69
0.0707842 -0.206594 -0.0279387 22 79 78
0.0700611 -0.207083 -0.0286698 29 88 90
0.0695529 -0.207543 -0.0296247 32 93 96
0.0692579 -0.207973 -0.0308066 38 95 98
0.0689622 -0.208405 -0.0319912 39 94 97
0.0690933 -0.208782 -0.0336398 42 94 96
0.0687961 -0.209216 -0.0348327 44 96 94
0.0682844 -0.209679 -0.0357942 60 87 83
0.0677726 -0.210141 -0.0367558 71 78 69
0.0756505 -0.202471 -0.0247865 76 69 63
0.0751358 -0.202936 -0.0257536 63 71 66
0.0743994 -0.203434 -0.0264957 38 76 73
0.0734444 -0.203965 -0.0270108 21 75 74
0.0724936 -0.204494 -0.0275239 14 68 72
0.0715468 -0.20502 -0.0280348 16 75 75
0.0708198 -0.205513 -0.0287689 22 87 85
0.0700943 -0.206005 -0.0295016 29 92 95
0.0695843 -0.206465 -0.0304597 35 93 98
0.0692883 -0.206896 -0.0316465 42 93 98
0.069206 -0.207299 -0.0330665 45 93 98
0.0686943 -0.207761 -0.0340279 45 94 96
0.0683962 -0.208195 -0.0352226 52 95 91
0.0678839 -0.208657 -0.0361853 67 79 69
0.0673715 -0.20912 -0.037148 72 76 64
0.0750336 -0.201471 -0.0249432 71 70 65
0.0745188 -0.201935 -0.0259105 44 75 72
0.073783 -0.202435 -0.0266524 31 80 77
0.0730488 -0.202934 -0.0273927 19 74 70
0.0720977 -0.203465 -0.0279056 19 71 70
0.0713677 -0.203962 -0.0286423 18 80 78
0.0706392 -0.204457 -0.0293775 26 90 88
0.0701275 -0.204919 -0.0303388 35 93 96
0.0696159 -0.205381 -0.0313001 41 94 98
0.0693189 -0.205812 -0.0324918 45 96 98
0.0688066 -0.206274 -0.0334543 46 98 99
0.0685083 -0.206707 -0.0346498 48 96 97
0.0679954 -0.20717 -0.0356135 60 90 87
0.0674824 -0.207634 -0.0365773 72 75 63
0.0749314 -0.200005 -0.0241328 77 71 63
0.0744166 -0.20047 -0.0251 62 74 72
0.0739018 -0.200935 -0.0260673 35 78 78
0.0731666 -0.201436 -0.0268091 20 80 77
0.072433 -0.201936 -0.0275494 13 72 71
0.0714832 -0.202469 -0.028062 20 75 74
0.0709704 -0.202932 -0.0290253 25 84 84
0.0702415 -0.203429 -0.029761 30 91 93
0.0697293 -0.203892 -0.0307234 36 93 98
0.069432 -0.204322 -0.0319158 42 95 98
0.0691341 -0.204753 -0.0331108 45 98 99
0.0686206 -0.205216 -0.0340755 47 99 99
0.0681071 -0.20568 -0.0350403 53 97 92
0.0675936 -0.206144 -0.0360052 67 79 76
0.0743144 -0.199005 -0.0242895 73 74 67
0.0737995 -0.19947 -0.0252568 53 76 76
0.0732847 -0.199935 -0.0262242 30 80 81
0.0725501 -0.200437 -0.0269659 16 75 73
0.071817 -0.200938 -0.0277061 17 71 69
0.0708685 -0.201473 -0.0282185 23 81 79
0.0703557 -0.201936 -0.0291819 28 88 90
0.0698429 -0.202399 -0.0301454 36 94 98
0.0695454 -0.202828 -0.0313384 43 96 98
0.0692473 -0.203258 -0.0325341 42 92 96
0.0687332 -0.203722 -0.0334999 42 93 97
0.0682191 -0.204186 -0.0344658 48 98 97
0.067705 -0.20465 -0.0354317 58 89 86
0.0671908 -0.205115 -0.0363978 72 66 62
0.0736973 -0.198004 -0.0244462 64 75 70
0.0731823 -0.198469 -0.0254136 39 77 77
0.0726674 -0.198934 -0.0263811 24 79 80
0.0719334 -0.199437 -0.0271227 15 72 70
0.071201 -0.199939 -0.0278628 19 75 72
0.0704702 -0.20044 -0.0286014 23 86 86
0.0699567 -0.200904 -0.029566 29 90 95
0.0694433 -0.201367 -0.0305306 40 94 98
0.069145 -0.201795 -0.0317255 48 94 98
0.068846 -0.202224 -0.032923 51 95 97
0.0683313 -0.202689 -0.03389 49 98 97
0.0678166 -0.203154 -0.034857 52 92 93
0.0673018 -0.203618 -0.0358241 63 74 78
0.073816 -0.196497 -0.0238578 71 73 67
0.0733005 -0.196962 -0.0248263 51 76 75
0.072565 -0.197468 -0.0255704 30 79 80
0.07205 -0.197933 -0.026538 18 76 76
0.0713167 -0.198437 -0.0272796 13 73 70
0.0705848 -0.19894 -0.0280196 18 80 78
0.0700708 -0.199404 -0.0289852 28 89 91
0.0695568 -0.199868 -0.029951 33 91 94
0.0690427 -0.200332 -0.0309168 40 94 96
0.0687436 -0.20076 -0.0321134 45 95 98
0.0684437 -0.201188 -0.0333128 46 94 99
0.0679284 -0.201653 -0.0342809 48 94 96
0.0674131 -0.202119 -0.0352491 58 87 84
0.0668977 -0.202584 -0.0362173 70 74 68
0.0737136 -0.195029 -0.0230461 73 75 64
0.0731981 -0.195495 -0.0240147 60 75 69
0.0726825 -0.19596 -0.0249832 38 79 80
0.0719476 -0.196467 -0.0257273 23 80 82
0.0714325 -0.196932 -0.026695 14 74 73
0.0706998 -0.197437 -0.0274364 16 75 72
0.0701852 -0.197902 -0.0284032 23 85 85
0.0694545 -0.198405 -0.0291421 32 91 94
0.0689404 -0.198869 -0.0301079 35 95 95
0.0686412 -0.199295 -0.0313037 37 95 96
0.0683412 -0.199722 -0.0325022 39 94 97
0.0678258 -0.200187 -0.0334704 40 94 97
0.0673104 -0.200652 -0.0344386 48 93 91
0.066795 -0.201118 -0.0354068 62 81 75
0.0733163 -0.193983 -0.023425 72 76 68
0.07258 -0.194492 -0.0241715 52 78 75
0.0720644 -0.194958 -0.0251402 29 80 82
0.0713301 -0.195466 -0.0258842 16 78 80
0.070815 -0.195931 -0.0268519 13 75 74
0.0700828 -0.196437 -0.0275933 20 81 79
0.0695682 -0.196901 -0.0285602 27 89 90
0.0690534 -0.197366 -0.029527 34 93 96
0.0685387 -0.197831 -0.030494 35 94 97
0.0682386 -0.198256 -0.0316916 38 94 96
0.0677232 -0.198721 -0.0326598 38 93 96
0.0672078 -0.199186 -0.033628 43 94 94
0.0666923 -0.199651 -0.0345962 56 85 83
0.0661768 -0.200116 -0.0355646 69 74 68
0.0729181 -0.192934 -0.0238047 67 72 71
0.0721813 -0.193445 -0.0245517 43 81 79
0.0714461 -0.193955 -0.0252972 23 81 81
0.0707125 -0.194464 -0.0260411 12 76 76
0.0701973 -0.194929 -0.0270089 13 76 77
0.0694658 -0.195437 -0.0277503 21 87 88
0.068951 -0.195901 -0.0287172 29 92 94
0.0684362 -0.196366 -0.0296841 34 94 97
0.0679214 -0.19683 -0.0306512 37 94 98
0.0676205 -0.197254 -0.0318491 40 93 97
0.0671051 -0.197719 -0.0328173 40 92 97
0.0668029 -0.198145 -0.034019 49 93 93
0.0662869 -0.198611 -0.0349885 64 80 77
0.0722985 -0.191929 -0.0239619 59 75 73
0.0715623 -0.192441 -0.0247088 34 80 81
0.071046 -0.192907 -0.0256787 17 79 79
0.0700948 -0.193463 -0.026198 13 77 75
0.0695795 -0.193928 -0.0271659 18 81 81
0.0688486 -0.194436 -0.0279072 23 90 92
0.0683338 -0.194901 -0.0288742 30 94 97
0.0678189 -0.195365 -0.0298413 35 94 98
0.0675179 -0.195788 -0.0310383 40 94 98
0.0670024 -0.196253 -0.0320065 39 93 96
0.0667001 -0.196677 -0.0332074 43 92 95
0.066184 -0.197142 -0.0341769 58 85 86
0.0656678 -0.197608 -0.0351464 69 75 71
0.0730796 -0.190264 -0.024041 68 73 67
0.0718985 -0.190876 -0.0243426 47 79 81
0.0711619 -0.19139 -0.0250901 26 80 84
0.0704269 -0.191903 -0.0258359 14 77 78
0.0696934 -0.192415 -0.0265803 15 79 79
0.0689616 -0.192926 -0.027323 22 87 87
0.0684462 -0.193391 -0.0282911 28 93 95
0.0679307 -0.193856 -0.0292592 33 95 98
0.0674152 -0.194321 -0.0302274 37 94 98
0.0668997 -0.194786 -0.0311957 41 94 97
0.0663842 -0.195251 -0.0321641 38 94 95
0.0660811 -0.195674 -0.0333652 49 93 92
0.0655649 -0.196139 -0.0343347 66 79 75
0.0729006 -0.189154 -0.0246486 57 79 76
0.0714975 -0.189821 -0.0247243 36 82 85
0.070542 -0.190385 -0.0252474 20 79 81
0.0698076 -0.190899 -0.0259932 15 75 76
0.0690748 -0.191412 -0.0267375 19 81 83
0.0683436 -0.191924 -0.0274801 25 90 92
0.0678281 -0.192389 -0.0284483 33 94 96
0.0673126 -0.192854 -0.0294165 38 96 97
0.066797 -0.193319 -0.0303848 39 94 96
0.0662815 -0.193784 -0.0313532 40 93 97
0.0659783 -0.194205 -0.0325534 41 93 96
0.0654621 -0.194671 -0.033523 56 90 90
0.0649458 -0.195136 -0.0344926 70 75 71
0.0734656 -0.187517 -0.0245049 73 78 73
0.0724984 -0.188091 -0.0250326 49 81 83
0.0710955 -0.188763 -0.0251067 26 82 83
0.0699221 -0.189379 -0.0254048 12 76 77
0.0691883 -0.189894 -0.0261505 16 78 78
0.0684561 -0.190409 -0.0268946 23 86 86
0.0677254 -0.190922 -0.0276372 29 92 95
0.0672099 -0.191387 -0.0286055 39 94 97
0.0666943 -0.191852 -0.0295738 41 95 97
0.0661787 -0.192317 -0.0305422 39 95 96
0.0658754 -0.192736 -0.0317416 38 93 96
0.0653591 -0.193202 -0.0327111 45 93 95
0.0648429 -0.193668 -0.0336808 60 81 82
0.0643266 -0.194133 -0.0346505 71 71 70
0.0735855 -0.185977 -0.0239082 76 75 66
0.0730627 -0.186449 -0.02489 59 79 77
0.0723173 -0.186973 -0.0256445 37 85 84
0.0706924 -0.187702 -0.0254901 19 80 80
0.069519 -0.188323 -0.0257873 14 75 75
0.0687848 -0.18884 -0.0265335 21 82 81
0.0680522 -0.189356 -0.0272781 28 90 91
0.0673211 -0.189871 -0.0280212 34 94 96
0.0665916 -0.190384 -0.0287627 40 95 97
0.066076 -0.190849 -0.0297311 40 94 97
0.0657725 -0.191267 -0.0309296 38 95 97
0.0652562 -0.191733 -0.0318992 41 94 95
0.0649514 -0.192152 -0.0331015 53 95 91
0.0644345 -0.192618 -0.0340724 69 76 67
0.0731822 -0.184905 -0.0242929 71 70 69
0.0724358 -0.185432 -0.0250489 50 78 83
0.0716911 -0.185957 -0.0258033 25 82 85
0.0702885 -0.18664 -0.0258744 11 79 79
0.069115 -0.187264 -0.0261707 18 80 77
0.0681646 -0.187834 -0.026691 24 86 86
0.0674325 -0.188351 -0.0274356 29 92 96
0.0667021 -0.188867 -0.0281785 38 94 100
0.0661859 -0.189333 -0.029148 41 95 99
0.0656696 -0.189798 -0.0301176 40 94 98
0.0651533 -0.190264 -0.0310872 40 94 97
0.0648484 -0.190681 -0.0322887 47 93 94
0.0643314 -0.191148 -0.0332595 60 87 83
0.0727779 -0.183831 -0.0246786 63 79 71
0.0718089 -0.184414 -0.0252078 42 83 86
0.0710647 -0.184941 -0.0259621 19 80 82
0.0696648 -0.185628 -0.0260326 14 76 78
0.0684934 -0.186256 -0.0263285 22 83 85
0.0677593 -0.186776 -0.0270751 27 89 92
0.0668128 -0.187346 -0.027593 34 92 96
0.066296 -0.187812 -0.0285636 39 95 98
0.0655667 -0.188329 -0.0293055 40 97 97
0.0652622 -0.188744 -0.030505 41 96 97
0.0647453 -0.18921 -0.0314757 43 95 97
0.0644395 -0.189628 -0.032679 52 92 89
0.0639219 -0.190094 -0.033651 65 75 71
0.0726736 -0.182339 -0.0238536 70 71 68
0.0719269 -0.182868 -0.024611 47 82 84
0.0711818 -0.183397 -0.0253668 27 84 87
0.0704383 -0.183925 -0.026121 14 78 79
0.0688236 -0.184671 -0.0259643 22 77 77
0.0678717 -0.185248 -0.0264863 30 85 87
0.0671382 -0.185769 -0.0272328 34 91 94
0.0664064 -0.186289 -0.0279778 36 94 96
0.0656761 -0.186807 -0.0287212 39 96 98
0.0651591 -0.187273 -0.0296919 41 97 98
0.0648538 -0.187688 -0.0308932 42 95 98
0.0645478 -0.188104 -0.0320972 47 94 95
0.0640296 -0.188571 -0.0330703 59 88 84
0.0635114 -0.189038 -0.0340434 73 74 63
0.0725693 -0.180846 -0.0230285 69 70 62
0.0720452 -0.181319 -0.0240127 61 78 70
0.0712991 -0.18185 -0.0247701 36 87 89
0.0705546 -0.18238 -0.0255258 17 82 83
0.0695924 -0.182965 -0.0260522 9 77 78
0.0682004 -0.18366 -0.0261224 21 83 85
0.0672498 -0.184239 -0.0266442 27 91 93
0.066517 -0.184761 -0.0273906 35 93 97
0.0659989 -0.185228 -0.0283634 40 95 98
0.0652682 -0.185749 -0.0291073 42 96 99
0.0647506 -0.186215 -0.0300792 40 95 99
0.0646564 -0.186577 -0.031514 42 95 98
0.0641376 -0.187045 -0.0324882 53 90 92
0.0636188 -0.187512 -0.0334624 67 80 79
0.0630999 -0.18798 -0.0344367 80 85 64
0.0719408 -0.179826 -0.0231875 68 72 65
0.0714166 -0.180299 -0.0241719 51 82 80
0.0706711 -0.180831 -0.0249292 28 86 88
0.0697076 -0.181421 -0.0254575 13 79 77
0.0689664 -0.18195 -0.0262109 18 78 76
0.0675772 -0.182649 -0.0262805 26 87 89
0.0668424 -0.183174 -0.027029 29 94 96
0.0661092 -0.183698 -0.027776 34 95 99
0.0653775 -0.184221 -0.0285213 39 95 100
0.0650717 -0.184633 -0.029724 42 95 99
0.0647652 -0.185046 -0.0309294 38 95 98
0.0642457 -0.185515 -0.0319047 43 96 96
0.0637263 -0.185983 -0.03288 61 86 86
0.0632069 -0.186451 -0.0338554 71 70 70
0.0713122 -0.178806 -0.0233467 62 78 73
0.0707879 -0.179279 -0.0243311 36 84 89
0.0700431 -0.179812 -0.0250883 21 82 84
0.0690809 -0.180404 -0.0256164 12 77 76
0.0683404 -0.180934 -0.0263697 22 84 80
0.0671692 -0.18158 -0.0266658 28 90 92
0.0662196 -0.182164 -0.0271871 31 94 97
0.0657003 -0.182632 -0.0281622 35 97 99
0.0651809 -0.1831 -0.0291373 40 96 99
0.0653008 -0.1834 -0.0308068 43 94 97
0.0649931 -0.183814 -0.0320189 44 94 96
0.0644714 -0.184284 -0.0329985 52 90 93
0.0637373 -0.184809 -0.0337426 68 80 80
0.0714299 -0.17725 -0.0227461 67 67 67
0.070905 -0.177723 -0.0237316 53 83 79
0.0701592 -0.178258 -0.0244904 27 85 89
0.069415 -0.178793 -0.0252474 15 79 79
0.0684541 -0.179387 -0.0257753 16 75 76
0.0677142 -0.179918 -0.0265285 26 90 88
0.0667602 -0.180508 -0.0270519 27 94 96
0.0660245 -0.181037 -0.0278014 32 95 99
0.065504 -0.181506 -0.0287787 37 96 98
0.0651969 -0.181917 -0.0299872 41 96 98
0.0651029 -0.182271 -0.0314315 42 95 99
0.0645805 -0.182742 -0.0324123 46 95 97
0.0640581 -0.183213 -0.0333931 58 89 84
0.0635357 -0.183683 -0.0343741 69 77 67
0.0708005 -0.176228 -0.0229053 60 69 71
0.0702755 -0.176701 -0.023891 42 86 87
0.0695302 -0.177238 -0.0246496 19 83 87
0.0687867 -0.177773 -0.0254066 11 77 78
0.0678271 -0.17837 -0.0259342 23 79 81
0.0670878 -0.178902 -0.0266874 28 90 94
0.0663502 -0.179434 -0.0274389 29 94 98
0.0656141 -0.179964 -0.0281889 37 97 99
0.0653067 -0.180374 -0.0293981 41 97 98
0.0649986 -0.180785 -0.0306099 42 95 99
0.0646898 -0.181196 -0.0318246 43 95 99
0.0643803 -0.181609 -0.033042 50 94 96
0.0638567 -0.182081 -0.0340251 64 84 79
0.063333 -0.182553 -0.0350083 72 74 63
0.0711399 -0.1746 -0.0225285 63 67 66
0.0703921 -0.17514 -0.0232903 52 77 78
0.0696458 -0.175679 -0.0240504 34 87 89
0.0689012 -0.176217 -0.0248089 14 80 82
0.0681583 -0.176754 -0.0255658 9 78 80
0.067417 -0.177289 -0.0263211 26 88 90
0.0664614 -0.177886 -0.0268462 28 92 96
0.0657244 -0.178419 -0.0275977 34 95 100
0.0652026 -0.178889 -0.0285773 39 97 99
0.0648943 -0.179298 -0.0297883 42 98 98
0.0647994 -0.179647 -0.0312355 43 96 98
0.0644896 -0.180059 -0.0324536 47 95 97
0.0639654 -0.180531 -0.0334379 58 85 86
0.063441 -0.181003 -0.0344222 71 75 70
0.0714808 -0.172965 -0.0221498 69 71 65
0.0707309 -0.173508 -0.0229137 60 72 74
0.0699826 -0.17405 -0.0236761 43 84 87
0.069236 -0.174591 -0.0244367 25 84 85
0.0682721 -0.175196 -0.0249682 13 77 77
0.0675299 -0.175734 -0.0257251 16 81 83
0.0667892 -0.176271 -0.0264803 25 92 96
0.06605 -0.176806 -0.0272338 33 94 97
0.0653126 -0.17734 -0.0279858 40 97 99
0.0647901 -0.177811 -0.0289666 40 96 99
0.0646948 -0.178157 -0.030412 41 96 99
0.0643849 -0.178567 -0.0316292 43 96 99
0.0638606 -0.179039 -0.0326135 52 94 96
0.0633363 -0.179511 -0.0335979 69 75 76
0.0710712 -0.171868 -0.0225355 70 76 69
0.0703208 -0.172413 -0.0232999 55 81 80
0.0695722 -0.172957 -0.0240627 35 86 90
0.0686054 -0.173567 -0.0245963 19 80 81
0.067861 -0.174108 -0.0253552 14 77 77
0.0669013 -0.174714 -0.0258843 26 86 88
0.0661612 -0.175252 -0.0266394 30 93 97
0.0654227 -0.175788 -0.0273929 40 96 98
0.0648997 -0.17626 -0.0283748 42 96 98
0.0645903 -0.176667 -0.0295884 41 97 98
0.0642803 -0.177075 -0.0308048 41 95 99
0.0637559 -0.177547 -0.0317891 45 96 98
0.0634445 -0.177956 -0.0330093 58 87 89
0.0629195 -0.178429 -0.0339949 72 72 71
0.0706607 -0.170769 -0.022922 65 78 71
0.0699098 -0.171315 -0.023687 46 86 85
0.0691606 -0.171861 -0.0244503 25 85 88
0.0679747 -0.172544 -0.0247559 16 78 79
0.067231 -0.173086 -0.0255148 21 81 82
0.0662726 -0.173694 -0.0260436 30 90 94
0.0655331 -0.174233 -0.0267986 33 94 97
0.0650095 -0.174704 -0.0277816 42 97 99
0.0644858 -0.175176 -0.0287647 42 96 99
0.0641755 -0.175582 -0.0299802 40 98 98
0.0636512 -0.176055 -0.0309645 40 96 98
0.0631268 -0.176527 -0.0319489 49 95 95
0.0628146 -0.176935 -0.0331694 64 79 76
0.0622895 -0.177408 -0.034155 72 69 64
0.0705553 -0.169263 -0.0220897 64 71 64
0.0698045 -0.169812 -0.0228557 55 78 76
0.0690554 -0.170359 -0.0236199 36 87 88
0.0678699 -0.171047 -0.0239284 17 81 83
0.0669089 -0.17166 -0.0244612 16 78 80
0.066168 -0.172202 -0.0252189 29 87 88
0.0656438 -0.172674 -0.0262029 30 92 96
0.0649049 -0.173214 -0.0269579 34 94 98
0.0645952 -0.173618 -0.0281712 42 96 99
0.0640708 -0.17409 -0.0291555 42 96 99
0.0635465 -0.174562 -0.0301398 39 97 98
0.0632347 -0.174968 -0.0313583 43 96 96
0.0627097 -0.175441 -0.0323439 53 90 89
0.0621846 -0.175914 -0.0333295 68 74 70
0.0699211 -0.168233 -0.02225 60 73 70
0.0689503 -0.168857 -0.0227895 44 84 83
0.0682029 -0.169404 -0.0235531 27 85 88
0.0672391 -0.170023 -0.024088 14 78 80
0.0662794 -0.170638 -0.0246206 19 80 83
0.0655391 -0.171181 -0.0253781 30 91 94
0.0650149 -0.171653 -0.0263623 33 94 97
0.0644905 -0.172125 -0.0273465 38 95 99
0.0639661 -0.172598 -0.0283308 42 95 100
0.0634418 -0.17307 -0.0293151 42 96 99
0.0631298 -0.173474 -0.0305327 41 96 99
0.0626048 -0.173947 -0.0315183 48 96 95
0.0620797 -0.17442 -0.032504 62 83 77
0.0613437 -0.174958 -0.0332533 73 72 68
0.070038 -0.166652 -0.0216429 68 68 63
0.0690657 -0.167279 -0.0221844 54 77 77
0.0683174 -0.167829 -0.0229495 36 87 88
0.0675706 -0.168378 -0.023713 21 82 85
0.0663912 -0.169072 -0.0240209 14 78 80
0.0656498 -0.169617 -0.0247799 24 84 86
0.0649102 -0.170161 -0.0255374 32 93 96
0.0643858 -0.170633 -0.0265216 36 96 97
0.0638614 -0.171105 -0.0275059 41 96 99
0.063337 -0.171577 -0.0284903 42 96 101
0.0630249 -0.17198 -0.029707 42 97 100
0.0624999 -0.172452 -0.0306926 42 95 100
0.0619747 -0.172925 -0.0316783 57 90 93
0.0614495 -0.173398 -0.0326641 70 75 69
0.0691814 -0.165698 -0.0215777 64 72 68
0.0684321 -0.16625 -0.0223445 47 81 83
0.0674654 -0.166877 -0.0228833 28 85 89
0.0665032 -0.167501 -0.0234199 15 79 82
0.0657609 -0.168048 -0.0241804 17 79 83
0.0650201 -0.168595 -0.0249394 30 89 92
0.0642811 -0.16914 -0.0256967 33 94 96
0.0637567 -0.169612 -0.026681 38 97 98
0.0634451 -0.170012 -0.0278956 43 97 99
0.06292 -0.170485 -0.0288812 42 97 100
0.0626071 -0.170887 -0.0300998 39 97 99
0.0620814 -0.17136 -0.0310866 46 96 97
0.0613445 -0.171903 -0.0318384 65 82 82
0.0608193 -0.172376 -0.0328242 73 68 64
0.0697417 -0.163954 -0.0214203 73 70 59
0.0683267 -0.164745 -0.0215128 59 79 73
0.067579 -0.165298 -0.0222788 39 86 87
0.0666154 -0.165927 -0.0228173 20 83 87
0.0656559 -0.166552 -0.0233535 15 79 81
0.0649154 -0.1671 -0.0241134 26 83 87
0.0643904 -0.167573 -0.0250988 33 93 96
0.0638653 -0.168045 -0.0260842 34 96 97
0.0633402 -0.168518 -0.0270698 39 97 99
0.0628151 -0.16899 -0.0280553 42 96 100
0.0625021 -0.169391 -0.029273 41 97 99
0.0619763 -0.169864 -0.0302599 40 97 97
0.0614505 -0.170337 -0.0312468 55 94 91
0.0609246 -0.17081 -0.0322337 67 76 66
0.0688834 -0.163001 -0.0213553 67 73 66
0.0676928 -0.163716 -0.0216729 51 82 81
0.0667278 -0.164349 -0.0222134 30 85 88
0.065767 -0.164978 -0.0227515 14 79 83
0.0650255 -0.165529 -0.023513 18 81 82
0.0642855 -0.166078 -0.0242728 33 89 92
0.0637604 -0.16655 -0.0252582 36 94 97
0.0632353 -0.167023 -0.0262437 37 96 98
0.0627102 -0.167495 -0.0272294 41 97 100
0.062397 -0.167894 -0.0284462 42 97 100
0.0618712 -0.168367 -0.029433 38 97 99
0.0613453 -0.16884 -0.0304199 48 96 94
0.0608194 -0.169314 -0.0314069 65 81 79
0.0602935 -0.169787 -0.032394 68 70 60
0.0694439 -0.161244 -0.0211965 71 71 61
0.0682473 -0.161968 -0.0215158 59 79 73
0.0670589 -0.162687 -0.021833 40 86 86
0.0660952 -0.163322 -0.0223732 21 83 86
0.0651358 -0.163954 -0.0229111 14 79 80
0.0643949 -0.164505 -0.0236724 23 84 86
0.0636556 -0.165055 -0.0244322 33 92 96
0.0631304 -0.165528 -0.0254177 36 94 98
0.0626052 -0.166 -0.0264033 40 96 99
0.0622919 -0.166397 -0.0276192 44 97 99
0.0617661 -0.16687 -0.0286061 42 98 100
0.0614513 -0.167269 -0.029826 41 99 99
0.0609248 -0.167743 -0.0308141 54 95 91
0.0603983 -0.168216 -0.0318023 72 69 63
0.0688057 -0.160208 -0.0213576 64 72 68
0.0678315 -0.160852 -0.0219024 51 82 82
0.0664248 -0.161657 -0.0219931 30 86 89
0.0654625 -0.162294 -0.0225331 15 80 83
0.0645045 -0.162929 -0.0230707 18 81 82
0.0637642 -0.163481 -0.0238319 30 90 89
0.0632384 -0.163954 -0.0248186 33 95 97
0.0625002 -0.164505 -0.0255772 38 96 98
0.0621868 -0.1649 -0.0267922 43 97 99
0.0616609 -0.165374 -0.0277791 44 97 100
0.0613461 -0.16577 -0.028998 44 97 100
0.0608195 -0.166244 -0.0299862 47 97 96
0.060293 -0.166718 -0.0309744 59 82 81
0.068389 -0.159086 -0.0217453 63 77 73
0.0671946 -0.159818 -0.0220632 44 85 86
0.0657907 -0.160628 -0.0221533 25 83 85
0.0646143 -0.161349 -0.0224675 15 78 81
0.0636591 -0.161984 -0.0230048 22 85 87
0.0631334 -0.162457 -0.0239915 33 93 95
0.0626075 -0.16293 -0.0249782 35 95 98
0.0620816 -0.163403 -0.0259651 39 97 101
0.0615557 -0.163876 -0.026952 41 97 101
0.0612408 -0.164272 -0.02817 43 96 100
0.0607142 -0.164745 -0.0291582 46 97 98
0.0603978 -0.165142 -0.0303802 55 94 91
0.0598706 -0.165616 -0.0313696 66 69 64
0.0685046 -0.157482 -0.0211329 66 70 65
0.0677499 -0.158048 -0.0219065 53 80 79
0.0665576 -0.158783 -0.022224 32 86 88
0.0649402 -0.159681 -0.0220879 16 81 83
0.0639821 -0.160322 -0.0226272 20 79 82
0.0630283 -0.16096 -0.0231642 32 87 90
0.0625024 -0.161433 -0.024151 35 94 96
0.0619765 -0.161906 -0.0251379 37 95 100
0.0614506 -0.162379 -0.0261248 39 97 102
0.0611355 -0.162773 -0.027342 39 97 101
0.0606088 -0.163246 -0.0283301 42 97 99
0.0602924 -0.163641 -0.0295513 47 96 96
0.0599751 -0.164037 -0.0307752 60 86 84
0.0594472 -0.164511 -0.0317658 71 67 57
0.0678647 -0.156442 -0.0212943 60 75 72
0.0668904 -0.157097 -0.0218408 41 84 86
0.0652675 -0.158006 -0.0217065 23 83 86
0.0640914 -0.158737 -0.0220227 15 79 80
0.0633498 -0.159296 -0.022787 25 85 86
0.0623973 -0.159936 -0.0233237 35 92 94
0.0618714 -0.160409 -0.0243106 35 95 97
0.0613454 -0.160882 -0.0252976 39 96 100
0.0610301 -0.161274 -0.0265138 43 96 101
0.0605035 -0.161747 -0.027502 43 96 102
0.0601868 -0.16214 -0.0287222 46 97 99
0.0598694 -0.162534 -0.0299452 54 93 90
0.0595513 -0.162929 -0.031171 67 73 70
0.0679799 -0.154833 -0.0206806 75 71 63
0.0672247 -0.155403 -0.0214557 57 84 80
0.0662517 -0.15606 -0.0220019 34 87 89
0.0646324 -0.156975 -0.0218668 18 81 83
0.0634584 -0.157709 -0.0221826 19 80 81
0.0627174 -0.158269 -0.0229468 28 89 91
0.0621902 -0.158743 -0.0239359 31 95 99
0.0612402 -0.159384 -0.0244702 34 97 101
0.0609248 -0.159774 -0.0256855 41 98 101
0.0606086 -0.160165 -0.0269037 44 97 100
0.0602917 -0.160557 -0.0281246 44 95 101
0.059974 -0.160949 -0.0293483 47 94 97
0.0596556 -0.161343 -0.0305749 61 86 83
0.0591264 -0.161819 -0.0315678 77 67 57
0.0673392 -0.153792 -0.0208421 63 74 71
0.0665846 -0.154363 -0.0216171 45 88 86
0.065613 -0.155022 -0.0221631 26 85 88
0.0642129 -0.155855 -0.0222532 16 78 82
0.0628252 -0.156681 -0.0223425 23 84 85
0.0620849 -0.157242 -0.0231066 32 92 94
0.0615577 -0.157716 -0.0240958 35 94 99
0.0610304 -0.15819 -0.0250851 40 96 101
0.0607139 -0.158579 -0.0263039 44 97 99
0.0603968 -0.15897 -0.0275255 45 96 99
0.0600788 -0.159361 -0.02875 46 94 100
0.0597601 -0.159753 -0.0299773 52 90 92
0.0590205 -0.160312 -0.0307359 65 72 73
0.0666983 -0.152751 -0.0210036 53 83 80
0.0659444 -0.153323 -0.0217786 33 88 90
0.0649741 -0.153985 -0.0223242 19 80 84
0.0635768 -0.154822 -0.0224137 19 78 81
0.0621919 -0.155653 -0.0225024 28 88 89
0.0616641 -0.156127 -0.0234928 33 96 96
0.0611362 -0.156602 -0.0244832 35 97 98
0.0606083 -0.157076 -0.0254736 40 98 100
0.060291 -0.157465 -0.0266944 43 97 99
0.0599729 -0.157855 -0.0279179 44 97 99
0.0596541 -0.158245 -0.0291443 47 96 97
0.0591242 -0.158721 -0.0301383 57 87 84
0.0585944 -0.159198 -0.0311325 68 68 59
0.0668121 -0.151135 -0.0203887 65 70 66
0.0660573 -0.151709 -0.0211652 44 85 85
0.065304 -0.152283 -0.0219401 23 85 86
0.0643352 -0.152947 -0.0224855 14 79 81
0.0629406 -0.153789 -0.0225743 23 84 86
0.0617708 -0.154535 -0.0228883 32 91 93
0.0610306 -0.155099 -0.0236528 35 95 96
0.0605027 -0.155573 -0.0246433 39 98 97
0.0603962 -0.155872 -0.0260929 42 98 100
0.0600778 -0.15626 -0.0273171 44 96 101
0.059548 -0.156737 -0.0283112 45 95 100
0.0590181 -0.157213 -0.0293053 50 91 94
0.0584882 -0.157689 -0.0302995 63 75 75
0.0579582 -0.158166 -0.0312938 70 63 60
0.0661703 -0.150092 -0.0205504 54 83 82
0.0654161 -0.150668 -0.0213268 32 89 92
0.0646635 -0.151242 -0.0221016 16 82 84
0.063696 -0.151909 -0.0226467 16 80 81
0.0623043 -0.152756 -0.0227349 27 87 91
0.0615611 -0.153324 -0.0235022 31 93 97
0.060608 -0.15398 -0.0240401 36 95 98
0.0602903 -0.154366 -0.0252606 42 97 100
0.0603946 -0.154573 -0.0269464 44 97 101
0.0600751 -0.154961 -0.0281759 44 97 100
0.0595434 -0.155439 -0.0291734 48 96 98
0.0588013 -0.156005 -0.0299356 58 86 85
0.0582702 -0.156482 -0.0309321 67 65 59
0.0662837 -0.148471 -0.0199341 61 69 72
0.0657481 -0.148953 -0.0209389 48 87 90
0.0649934 -0.14953 -0.0217159 24 87 91
0.064023 -0.150202 -0.0222631 11 81 83
0.0630569 -0.150871 -0.022808 22 86 85
0.0620951 -0.151536 -0.0233504 30 92 93
0.0611376 -0.152199 -0.0238905 32 95 99
0.0603955 -0.152767 -0.0246567 38 96 102
0.0605003 -0.15297 -0.0263424 43 97 102
0.0603929 -0.153265 -0.0278058 44 98 101
0.0598599 -0.153744 -0.0288056 45 97 99
0.059327 -0.154223 -0.0298054 52 91 92
0.0585834 -0.154791 -0.0305687 64 78 75
0.0663973 -0.146846 -0.0193163 70 66 63
0.065641 -0.147427 -0.0200959 58 81 77
0.0651054 -0.147908 -0.0211008 37 91 90
0.0643514 -0.148487 -0.0218777 17 84 87
0.0633823 -0.149161 -0.0224247 12 81 84
0.0626327 -0.149737 -0.0231976 24 91 93
0.0616707 -0.150406 -0.0237399 34 96 98
0.0609255 -0.150978 -0.0245088 40 95 99
0.0603939 -0.151456 -0.0255062 43 96 101
0.0602862 -0.151747 -0.0269678 44 97 100
0.0599653 -0.152134 -0.0282015 45 97 98
0.0594317 -0.152613 -0.0292025 49 97 96
0.0588981 -0.153093 -0.0302036 60 88 82
0.0581541 -0.153663 -0.0309674 71 70 62
0.0657539 -0.145801 -0.0194783 63 68 66
0.0649983 -0.146382 -0.0202578 47 85 88
0.0644625 -0.146864 -0.0212628 25 86 89
0.0637091 -0.147444 -0.0220396 12 79 82
0.0627415 -0.14812 -0.0225863 24 83 83
0.0619926 -0.148697 -0.0233591 36 91 93
0.0610319 -0.149368 -0.0239011 39 94 97
0.0604997 -0.149847 -0.0248997 43 95 98
0.0601794 -0.15023 -0.0261297 44 97 99
0.0598584 -0.150614 -0.0273625 44 97 98
0.0595367 -0.151 -0.0285982 44 96 98
0.0590024 -0.15148 -0.0296004 52 93 96
0.0582575 -0.152053 -0.0303658 65 80 80
0.0658669 -0.14417 -0.0188591 67 66 62
0.0651103 -0.144755 -0.0196402 56 81 74
0.0643554 -0.145338 -0.0204197 36 88 90
0.0638195 -0.145819 -0.0214248 19 82 85
0.0628505 -0.1465 -0.0219736 14 78 82
0.0621005 -0.147079 -0.0227479 29 90 92
0.0613523 -0.147657 -0.0235206 37 95 98
0.0606057 -0.148234 -0.0242917 41 96 99
0.0600727 -0.148713 -0.0252915 44 99 100
0.0597516 -0.149095 -0.0265234 44 99 100
0.0594296 -0.149479 -0.0277581 44 97 99
0.059107 -0.149863 -0.0289958 48 96 97
0.0585721 -0.150344 -0.0299992 61 85 85
0.0578267 -0.150919 -0.0307651 68 68 66
0.0652226 -0.143123 -0.0190212 67 67 67
0.0644667 -0.143709 -0.0198023 50 83 87
0.0637124 -0.144293 -0.0205816 25 85 91
0.0631765 -0.144774 -0.0215868 11 79 84
0.0622089 -0.145458 -0.0221353 21 83 85
0.0614595 -0.146038 -0.0229096 34 94 93
0.0607119 -0.146617 -0.0236822 46 97 96
0.0601783 -0.147096 -0.0246831 48 97 98
0.0596447 -0.147576 -0.0256841 44 98 101
0.0593226 -0.147957 -0.026918 42 99 101
0.0589998 -0.14834 -0.0281547 43 98 100
0.0584648 -0.148821 -0.0291581 49 95 96
0.0579298 -0.149301 -0.0301617 62 82 75
0.0653352 -0.141488 -0.0184006 69 61 58
0.0645782 -0.142076 -0.0191833 59 75 72
0.0638229 -0.142663 -0.0199643 41 87 89
0.0630693 -0.143248 -0.0207436 19 83 85
0.0623173 -0.143832 -0.0215212 12 80 82
0.061567 -0.144415 -0.0222971 27 90 90
0.0608184 -0.144997 -0.0230713 35 95 95
0.0602842 -0.145476 -0.0240733 42 97 96
0.0595378 -0.146056 -0.0248448 44 99 98
0.0592155 -0.146436 -0.0260777 45 98 100
0.0586812 -0.146916 -0.02708 43 98 101
0.0583576 -0.147298 -0.028317 46 98 98
0.0578226 -0.147778 -0.0293206 54 86 84
0.0572875 -0.148259 -0.0303243 62 69 64
0.06469 -0.140439 -0.0185629 64 64 61
0.0639336 -0.141028 -0.0193455 50 86 85
0.063179 -0.141616 -0.0201264 27 89 92
0.062426 -0.142203 -0.0209056 15 82 82
0.0616747 -0.142788 -0.0216831 22 82 83
0.0609251 -0.143372 -0.0224589 33 92 94
0.0603902 -0.143853 -0.0234621 36 96 100
0.0596429 -0.144435 -0.0242351 41 97 101
0.0591085 -0.144915 -0.0252374 43 98 101
0.0585741 -0.145395 -0.0262397 43 97 100
0.0582504 -0.145774 -0.0274757 44 96 99
0.0579258 -0.146155 -0.0287147 54 94 95
0.0573901 -0.146636 -0.0297195 65 79 73
0.0640446 -0.13939 -0.0187252 56 74 68
0.063289 -0.139981 -0.0195077 41 90 90
0.062535 -0.14057 -0.0202885 21 84 87
0.0617827 -0.141158 -0.0210676 9 82 85
0.0610321 -0.141744 -0.021845 22 91 91
0.0602831 -0.142329 -0.0226207 29 94 99
0.0597482 -0.14281 -0.023624 37 95 102
0.0592132 -0.14329 -0.0246274 44 96 102
0.0586782 -0.14377 -0.0256309 45 98 101
0.0581431 -0.144251 -0.0266344 43 97 100
0.057608 -0.144731 -0.0276381 46 97 97
0.0572827 -0.145111 -0.0288773 55 87 86
0.0567468 -0.145592 -0.0298822 64 71 67
0.0643752 -0.137638 -0.0183285 65 67 66
0.0633992 -0.138341 -0.0188875 50 86 86
0.0626442 -0.138933 -0.0196699 27 87 93
0.0618909 -0.139523 -0.0204506 11 81 85
0.0611393 -0.140112 -0.0212296 17 82 85
0.0603893 -0.1407 -0.0220069 28 93 97
0.0598537 -0.141181 -0.0230114 32 97 101
0.059106 -0.141766 -0.023786 38 98 102
0.058571 -0.142247 -0.0247895 45 97 100
0.0580359 -0.142727 -0.025793 46 98 100
0.0575007 -0.143208 -0.0267967 41 98 100
0.0571752 -0.143585 -0.028035 48 96 96
0.0566394 -0.144066 -0.0290399 61 82 72
0.0561035 -0.144547 -0.0300449 68 68 54
0.0639473 -0.136474 -0.0187169 59 72 71
0.0629711 -0.137181 -0.0192758 40 87 92
0.0622157 -0.137775 -0.0200587 18 84 89
0.0612467 -0.138476 -0.0206128 8 80 85
0.0604957 -0.139066 -0.0213917 29 90 90
0.0599595 -0.139548 -0.0223973 34 96 98
0.0592107 -0.140136 -0.0231735 36 97 100
0.0586751 -0.140617 -0.0241782 41 98 102
0.0581393 -0.141098 -0.0251829 45 97 101
0.0576035 -0.141579 -0.0261877 45 95 101
0.0570678 -0.14206 -0.0271925 46 95 99
0.0567413 -0.142437 -0.0284328 53 84 90
0.0562048 -0.142918 -0.0294389 64 70 69
0.0644992 -0.134595 -0.018545 66 66 63
0.0635184 -0.135308 -0.0191062 52 81 80
0.0623247 -0.13613 -0.0194383 30 88 92
0.06157 -0.136725 -0.0202212 14 81 85
0.0608169 -0.137319 -0.0210023 18 79 85
0.0598521 -0.13802 -0.0215538 32 93 95
0.0593157 -0.138502 -0.0225595 36 96 97
0.0587794 -0.138983 -0.0235653 40 97 99
0.0580319 -0.139572 -0.0243404 43 98 103
0.0574961 -0.140053 -0.0253451 43 98 104
0.0569602 -0.140534 -0.0263501 44 98 101
0.0566337 -0.140909 -0.0275894 51 99 97
0.0560971 -0.141391 -0.0285955 62 81 75
0.0555606 -0.141872 -0.0296018 67 64 56
0.0642902 -0.133306 -0.019163 57 73 66
0.0630884 -0.134139 -0.0194965 42 90 88
0.0618947 -0.134966 -0.0198277 20 85 87
0.0609241 -0.135675 -0.0203837 12 80 82
0.0601717 -0.13627 -0.0211647 24 89 89
0.0592083 -0.136974 -0.0217159 31 97 96
0.0586719 -0.137456 -0.0227218 38 96 97
0.0581354 -0.137937 -0.0237277 43 98 100
0.057599 -0.138418 -0.0247337 43 100 104
0.0570626 -0.1389 -0.0257397 42 99 104
0.056526 -0.139381 -0.0267458 44 97 101
0.0559895 -0.139863 -0.027752 53 85 91
0.0554529 -0.140345 -0.0287583 61 68 70
0.0648464 -0.131404 -0.0189915 62 64 60
0.06408 -0.132011 -0.0197839 52 84 78
0.0628761 -0.13285 -0.0201161 28 87 88
0.0612473 -0.133914 -0.0199905 16 81 82
0.0602781 -0.134626 -0.0205462 19 81 83
0.0595264 -0.135221 -0.0213272 27 94 95
0.0585644 -0.135928 -0.0218781 29 97 98
0.0580279 -0.136409 -0.022884 39 98 99
0.0574914 -0.136891 -0.02389 44 99 101
0.056955 -0.137372 -0.0248961 45 98 101
0.0564184 -0.137854 -0.0259022 44 97 100
0.0558818 -0.138335 -0.0269085 51 98 97
0.0553451 -0.138817 -0.0279148 62 82 77
0.0548085 -0.139298 -0.0289211 69 65 61
0.0644143 -0.13022 -0.0193847 55 70 70
0.0636475 -0.130829 -0.0201776 38 91 91
0.0624436 -0.131674 -0.0205089 18 86 87
0.0608154 -0.132745 -0.020381 12 79 84
0.0596321 -0.133576 -0.0207087 27 89 89
0.058881 -0.134173 -0.0214896 30 95 96
0.0579203 -0.134881 -0.0220402 36 96 98
0.0573838 -0.135363 -0.0230463 42 99 100
0.0568473 -0.135844 -0.0240524 44 99 101
0.0563107 -0.136326 -0.0250586 43 97 101
0.0557741 -0.136807 -0.0260648 47 99 100
0.0552374 -0.137289 -0.0270711 51 88 93
0.0547007 -0.13777 -0.0280775 61 73 71
0.0645274 -0.128544 -0.0187545 73 65 64
0.0637595 -0.129156 -0.0195491 54 79 81
0.0629933 -0.129766 -0.0203419 28 90 93
0.06201 -0.130495 -0.0209026 14 83 85
0.0603823 -0.131574 -0.0207725 18 79 87
0.0591991 -0.132409 -0.0210993 31 90 96
0.0582355 -0.133124 -0.0216521 32 94 100
0.0572762 -0.133835 -0.0222024 38 96 100
0.0567396 -0.134316 -0.0232086 43 99 101
0.056203 -0.134798 -0.0242148 45 98 101
0.0556664 -0.135279 -0.025221 43 96 102
0.0553378 -0.135649 -0.0264607 49 97 97
0.0548005 -0.136131 -0.0274682 61 79 75
0.0638717 -0.127478 -0.0189191 67 70 69
0.0633254 -0.127968 -0.0199434 46 88 92
0.062339 -0.128702 -0.0205064 24 85 89
0.0613571 -0.129433 -0.0210667 13 81 82
0.0599482 -0.1304 -0.0211649 28 86 87
0.0587649 -0.13124 -0.0214908 31 95 96
0.0578012 -0.131958 -0.0220434 35 97 101
0.0568417 -0.132673 -0.0225936 42 99 103
0.0563045 -0.133155 -0.023601 44 98 102
0.0557672 -0.133637 -0.0246084 44 97 100
0.0552299 -0.134119 -0.0256159 46 98 99
0.0549003 -0.134487 -0.0268575 52 91 93
0.0543623 -0.13497 -0.0278663 64 73 72
0.0639842 -0.125796 -0.0182875 63 67 61
0.0632159 -0.126411 -0.0190837 50 81 77
0.0626696 -0.126901 -0.0201081 32 89 92
0.0616846 -0.127638 -0.0206708 19 81 85
0.0607042 -0.128372 -0.0212309 20 78 84
0.0592981 -0.129343 -0.0213283 32 90 93
0.0581171 -0.130187 -0.0216538 32 95 97
0.0573658 -0.130789 -0.0224357 39 96 102
0.0566162 -0.13139 -0.0232158 44 98 102
0.0558683 -0.13199 -0.0239943 44 98 100
0.0553303 -0.132473 -0.025003 44 98 99
0.0550005 -0.13284 -0.0262453 50 98 96
0.0544618 -0.133323 -0.0272553 60 79 78
0.0539231 -0.133806 -0.0282653 70 67 63
0.0633276 -0.124728 -0.0184522 60 66 67
0.06256 -0.125345 -0.0192483 45 88 89
0.0617942 -0.12596 -0.0200426 20 86 89
0.0610301 -0.126574 -0.0208352 13 79 80
0.0598349 -0.127433 -0.0211646 25 84 85
0.0584344 -0.128408 -0.0212623 31 91 95
0.0574691 -0.129134 -0.0218168 35 94 97
0.0569293 -0.129618 -0.0228288 42 96 102
0.0561793 -0.130221 -0.0236095 45 98 102
0.0554309 -0.130823 -0.0243885 44 96 100
0.0551008 -0.131188 -0.0256316 44 96 99
0.0545615 -0.131672 -0.0266427 51 90 93
0.0540221 -0.132156 -0.027654 63 73 67
0.0626709 -0.12366 -0.018617 53 80 74
0.061904 -0.124278 -0.019413 34 90 93
0.0611389 -0.124894 -0.0202072 14 84 85
0.0601585 -0.125635 -0.0207692 13 79 81
0.0591825 -0.126372 -0.0213286 30 91 93
0.0577849 -0.127352 -0.0214257 32 92 97
0.0572439 -0.127837 -0.02244 39 94 99
0.0562812 -0.128565 -0.022992 42 96 101
0.0557413 -0.129049 -0.0240042 45 97 100
0.0554107 -0.129413 -0.0252497 46 98 98
0.0548701 -0.129898 -0.0262632 50 97 95
0.0543295 -0.130383 -0.0272767 58 78 79
0.0537888 -0.130867 -0.0282903 69 64 58
0.062782 -0.121971 -0.0179841 67 68 66
0.0620141 -0.122591 -0.0187818 50 87 86
0.0612479 -0.123211 -0.0195777 23 85 89
0.060266 -0.123956 -0.0201417 11 81 79
0.0595044 -0.124572 -0.0209335 21 86 86
0.0585299 -0.125312 -0.0214926 27 94 97
0.0575598 -0.126048 -0.0220493 31 95 98
0.0565941 -0.126781 -0.0226035 41 94 101
0.056053 -0.127266 -0.023618 44 97 103
0.055722 -0.12763 -0.0248659 43 97 103
0.0556007 -0.127871 -0.0263524 45 96 99
0.0550576 -0.128358 -0.0273706 54 91 93
0.0543051 -0.128966 -0.028151 65 70 70
0.0628935 -0.120278 -0.0173497 73 65 60
0.0621244 -0.120901 -0.018149 59 77 72
0.0613572 -0.121523 -0.0189466 38 89 91
0.0605917 -0.122144 -0.0197424 18 82 85
0.0596113 -0.122892 -0.0203062 10 81 82
0.0588503 -0.123508 -0.0210978 26 90 93
0.0580911 -0.124124 -0.0218877 28 94 97
0.0571208 -0.124864 -0.0224442 39 97 98
0.0565778 -0.125351 -0.0234622 43 96 100
0.0560347 -0.125838 -0.0244803 44 97 101
0.0557025 -0.1262 -0.0257337 43 95 100
0.0553694 -0.126564 -0.02699 49 97 97
0.0548249 -0.127052 -0.0280106 60 82 78
0.0542805 -0.12754 -0.0290314 68 65 61
0.0624559 -0.119073 -0.017743 65 69 63
0.0614667 -0.119831 -0.0183139 49 89 87
0.0607001 -0.120454 -0.0191114 25 87 90
0.0599353 -0.121076 -0.0199071 14 79 83
0.0589564 -0.121827 -0.0204706 23 83 86
0.0581961 -0.122445 -0.0212622 28 92 94
0.0574376 -0.123062 -0.022052 29 95 97
0.0564688 -0.123804 -0.0226081 40 97 100
0.0559256 -0.124291 -0.0236263 43 98 100
0.0555932 -0.124652 -0.0248787 42 96 99
0.05526 -0.125014 -0.026134 43 97 99
0.054926 -0.125376 -0.0273923 56 94 95
0.0543809 -0.125865 -0.0284142 66 73 70
0.0625672 -0.117372 -0.0171067 64 66 61
0.0617967 -0.118 -0.0179083 48 75 74
0.0608089 -0.118761 -0.0184789 33 91 90
0.060043 -0.119386 -0.0192763 18 83 84
0.0592789 -0.120009 -0.0200719 12 79 83
0.0583014 -0.120762 -0.0206351 28 90 93
0.0573283 -0.121511 -0.0211958 28 95 97
0.0567839 -0.121999 -0.0222163 38 98 99
0.0558165 -0.122744 -0.0227722 43 98 101
0.0552734 -0.123231 -0.0237904 45 98 101
0.0551506 -0.123463 -0.025278 43 95 101
0.0548164 -0.123824 -0.0265353 47 96 98
0.0544814 -0.124185 -0.0277956 60 80 81
0.0539356 -0.124675 -0.0288188 70 67 62
0.0619071 -0.116298 -0.0172721 60 67 62
0.0611372 -0.116928 -0.0180736 48 84 85
0.0601509 -0.117691 -0.0186439 25 87 86
0.0593857 -0.118317 -0.0194412 12 81 80
0.0584068 -0.119074 -0.0200066 18 81 85
0.0574324 -0.119828 -0.0205694 29 92 97
0.0566746 -0.120448 -0.0213601 33 94 99
0.0561301 -0.120936 -0.0223806 40 98 100
0.0553747 -0.121554 -0.0231684 45 98 101
0.0548308 -0.122041 -0.0241879 44 96 100
0.0547068 -0.122271 -0.0256782 44 96 99
0.0543717 -0.122631 -0.0269376 53 93 94
0.0538258 -0.12312 -0.0279608 66 74 66
0.0612468 -0.115224 -0.0174375 51 72 67
0.060259 -0.115992 -0.01801 37 87 91
0.0594928 -0.116621 -0.0188089 17 83 84
0.0585125 -0.117383 -0.0193765 10 80 82
0.0577509 -0.118008 -0.0201712 25 90 92
0.0567779 -0.118764 -0.0207337 31 92 99
0.0560208 -0.119385 -0.0215244 36 94 99
0.0554763 -0.119873 -0.022545 42 97 99
0.0549318 -0.120361 -0.0235656 44 97 101
0.0543872 -0.120849 -0.0245864 42 96 101
0.054052 -0.121207 -0.0258431 47 97 100
0.053716 -0.121566 -0.0271027 61 83 83
0.0533793 -0.121925 -0.0283653 67 68 61
0.0611365 -0.113657 -0.016572 65 64 60
0.0605864 -0.11415 -0.0176029 49 83 83
0.0596002 -0.11492 -0.0181752 23 88 89
0.0588346 -0.11555 -0.018974 10 82 79
0.0578558 -0.116315 -0.0195412 15 82 84
0.0568813 -0.117076 -0.0201059 30 92 95
0.0561233 -0.1177 -0.0208981 36 92 96
0.0555781 -0.118188 -0.0219199 41 96 98
0.0548223 -0.11881 -0.0227093 43 97 100
0.0542777 -0.119298 -0.0237301 41 96 100
0.0539424 -0.119654 -0.0249858 41 96 100
0.0536062 -0.120011 -0.0262445 50 96 96
0.0532693 -0.120368 -0.0275061 64 77 72
0.0606955 -0.112441 -0.0169654 57 68 67
0.059926 -0.113075 -0.0177684 39 88 91
0.0589412 -0.113848 -0.0183403 16 84 84
0.0579609 -0.114618 -0.0189097 10 80 80
0.0571989 -0.115247 -0.019706 24 90 90
0.0562259 -0.11601 -0.0202704 28 92 97
0.0554686 -0.116635 -0.0210626 40 94 98
0.0549233 -0.117124 -0.0220844 44 96 100
0.054378 -0.117612 -0.0231064 44 96 100
0.0538327 -0.118101 -0.0241285 43 95 98
0.0532874 -0.118589 -0.0251506 49 97 96
0.0529504 -0.118945 -0.0264096 57 80 83
0.0526126 -0.119301 -0.0276715 66 66 64
0.061025 -0.110583 -0.0165543 63 61 59
0.0600342 -0.111365 -0.0171309 47 82 80
0.0590479 -0.112143 -0.0177051 23 87 90
0.0582821 -0.112776 -0.0185055 11 82 81
0.0573032 -0.113548 -0.0190746 14 81 83
0.0563289 -0.114317 -0.0196411 27 94 95
0.0555704 -0.114944 -0.0204349 30 94 99
0.0550245 -0.115433 -0.021458 40 95 101
0.0542684 -0.116059 -0.022249 43 97 104
0.0537231 -0.116547 -0.0232711 41 96 102
0.0531777 -0.117036 -0.0242932 42 96 99
0.0528405 -0.11739 -0.0255512 52 95 95
0.0525026 -0.117744 -0.0268122 61 74 70
0.0613561 -0.108717 -0.0161411 65 64 60
0.0603622 -0.109504 -0.0167202 56 70 72
0.059155 -0.110433 -0.0170682 38 87 90
0.058388 -0.111069 -0.0178704 14 84 86
0.0574077 -0.111846 -0.0184416 9 81 82
0.056432 -0.112619 -0.0190103 23 89 88
0.0556725 -0.11325 -0.0198058 26 93 95
0.0549148 -0.113878 -0.0205995 36 94 97
0.0543688 -0.114367 -0.0216227 43 96 100
0.0538228 -0.114856 -0.022646 45 96 100
0.0532767 -0.115345 -0.0236693 40 95 100
0.0527306 -0.115835 -0.0246927 45 97 98
0.0523926 -0.116187 -0.0259527 54 81 84
0.0518458 -0.116677 -0.0269775 64 66 61
0.0606916 -0.107635 -0.0163074 63 67 66
0.0599184 -0.108278 -0.0171151 48 80 82
0.0584942 -0.109358 -0.0172337 24 87 91
0.057728 -0.109995 -0.0180358 10 83 82
0.0567492 -0.110775 -0.0186067 12 82 82
0.0557749 -0.111551 -0.0191751 25 93 93
0.0550161 -0.112182 -0.0199704 28 95 97
0.0544695 -0.112672 -0.0209949 39 97 98
0.053713 -0.113301 -0.0217874 44 98 98
0.0531669 -0.11379 -0.0228108 44 95 99
0.0526208 -0.114279 -0.0238342 43 94 100
0.0522826 -0.11463 -0.0250932 51 94 95
0.0517357 -0.11512 -0.026118 61 74 72
0.0598074 -0.106703 -0.0162452 52 70 69
0.0586006 -0.107642 -0.0165954 38 89 91
0.0576175 -0.108429 -0.017171 17 84 89
0.056639 -0.109212 -0.0177439 8 79 83
0.0556649 -0.109992 -0.0183143 22 87 88
0.0551177 -0.110482 -0.0193399 24 93 95
0.0543596 -0.111114 -0.0201352 31 95 98
0.0538129 -0.111604 -0.0211597 40 98 99
0.0532661 -0.112093 -0.0221843 43 97 99
0.0527193 -0.112583 -0.0232089 42 95 98
0.0523808 -0.112932 -0.0244687 48 96 97
0.0518333 -0.113423 -0.0254947 58 81 85
0.0512857 -0.113913 -0.0265207 64 66 64
0.060136 -0.104825 -0.0158306 65 59 61
0.0591435 -0.105622 -0.0164113 48 79 80
0.057939 -0.106566 -0.016761 25 89 91
0.0569574 -0.107355 -0.0173363 11 80 84
0.0559803 -0.10814 -0.017909 14 79 83
0.0550076 -0.108922 -0.0184791 26 91 93
0.0544603 -0.109412 -0.0195047 29 93 95
0.0539129 -0.109902 -0.0205304 38 96 99
0.0531561 -0.110536 -0.0213245 43 97 99
0.0526093 -0.111025 -0.0223492 44 96 98
0.0522706 -0.111373 -0.023608 43 95 99
0.0517231 -0.111863 -0.024634 51 97 96
0.0511755 -0.112353 -0.0256601 63 75 73
0.0600246 -0.103245 -0.0149585 66 62 56
0.0592512 -0.103894 -0.0157689 58 66 70
0.0582619 -0.104693 -0.0163491 42 86 91
0.0570618 -0.105639 -0.0166988 19 85 88
0.0560833 -0.106429 -0.0172736 9 80 83
0.0551093 -0.107216 -0.0178459 21 87 88
0.0543503 -0.107853 -0.0186439 23 93 95
0.0538028 -0.108343 -0.0196696 32 95 96
0.0532554 -0.108833 -0.0206954 41 96 99
0.0527079 -0.109323 -0.0217213 44 97 99
0.0521604 -0.109813 -0.0227472 44 94 98
0.0516129 -0.110303 -0.0237732 48 95 97
0.0510652 -0.110794 -0.0247993 58 84 82
0.0505176 -0.111284 -0.0258255 65 66 63
0.05914 -0.102317 -0.0148977 66 61 60
0.0583684 -0.102966 -0.0157073 52 81 81
0.0571665 -0.103918 -0.0160596 29 91 94
0.0559729 -0.104864 -0.0164096 15 84 85
0.0552111 -0.105505 -0.0172111 16 80 84
0.054451 -0.106145 -0.0180108 25 92 93
0.0536927 -0.106783 -0.0188087 26 94 96
0.0531453 -0.107273 -0.0198345 35 97 98
0.0525978 -0.107763 -0.0208604 43 96 99
0.0520502 -0.108254 -0.0218864 45 96 98
0.0515026 -0.108744 -0.0229124 44 95 98
0.050955 -0.109234 -0.0239386 52 95 96
0.0504073 -0.109724 -0.0249647 63 75 72
0.0592477 -0.100582 -0.0142526 63 59 55
0.0582573 -0.10139 -0.0148371 55 69 74
0.0570557 -0.102348 -0.0151925 45 100 106
0.05629 -0.102994 -0.0159982 46 111 114
0.0551008 -0.103942 -0.016348 29 87 96
0.0543408 -0.104583 -0.0171487 24 86 90
0.0535826 -0.105224 -0.0179477 24 92 96
0.0530351 -0.105714 -0.0189735 32 94 97
0.0524876 -0.106204 -0.0199994 40 97 101
0.05194 -0.106694 -0.0210254 44 97 100
0.0513923 -0.107184 -0.0220515 43 96 100
0.0508447 -0.107674 -0.0230776 46 97 97
0.050297 -0.108164 -0.0241039 55 83 86
0.0497493 -0.108654 -0.0251301 62 67 67
0.058582 -0.0994983 -0.0144189 54 61 61
0.0571605 -0.100621 -0.0145507 49 90 90
0.0561793 -0.101425 -0.015132 43 117 127
0.0552027 -0.102225 -0.0157106 58 133 144
0.0542306 -0.103022 -0.0162866 54 116 120
0.0534725 -0.103664 -0.0170866 39 94 98
0.052925 -0.104154 -0.0181124 26 92 96
0.0523773 -0.104644 -0.0191384 35 96 99
0.0518298 -0.105134 -0.0201644 43 97 102
0.0512821 -0.105624 -0.0211905 43 95 100
0.0507344 -0.106114 -0.0222167 42 95 99
0.0501867 -0.106604 -0.0232429 50 95 94
0.0496389 -0.107094 -0.0242692 59 75 73
0.049091 -0.107584 -0.0252956 63 64 58
0.0582525 -0.0980779 -0.0133212 61 57 51
