ply
format ascii 1.0
element vertex 1109
property float x
property float y
property float z
property uchar diffuse_red
property uchar diffuse_green
property uchar diffuse_blue
end_header
-0.581898 0.0171893 -0.104454 212 51 13
-0.583092 0.00746852 -0.110221 251 60 32
-0.5834 0.00996034 -0.110113 242 56 36
-0.58268 0.0124708 -0.109125 233 56 12
-0.580944 0.0149824 -0.107268 220 56 16
-0.578217 0.0174779 -0.104567 204 51 22
-0.574538 0.0199408 -0.101058 193 45 4
-0.571898 0.0223668 -0.0984419 175 43 26
-0.572198 0.0247952 -0.0983372 157 43 15
-0.57775 0.00288607 -0.109641 255 63 30
-0.579068 0.00532448 -0.110413 255 60 21
-0.580392 0.00777575 -0.111188 252 55 25
-0.580699 0.0102621 -0.111082 245 56 24
-0.578971 0.0127825 -0.109216 226 57 24
-0.576257 0.0152918 -0.106503 215 53 24
-0.572595 0.0177733 -0.102977 208 54 29
-0.569967 0.0202126 -0.100349 190 45 22
-0.568335 0.022627 -0.0985813 176 40 25
-0.568633 0.0250449 -0.0984777 158 36 7
-0.568931 0.0274642 -0.098374 174 36 0
-0.574778 0.000736427 -0.110707 255 64 37
-0.575081 0.00320118 -0.110602 255 62 31
-0.576389 0.00563498 -0.111375 251 58 31
-0.576694 0.00810858 -0.11127 248 58 22
-0.576999 0.0105838 -0.111164 242 58 25
-0.574297 0.0131068 -0.108438 232 57 28
-0.571633 0.0155972 -0.105749 219 50 17
-0.568038 0.0180594 -0.102255 204 52 29
-0.566413 0.0204822 -0.100479 196 47 5
-0.565754 0.0228918 -0.0995463 177 45 8
-0.566051 0.0253045 -0.0994434 154 42 18
-0.566348 0.0277187 -0.0993405 170 34 4
-0.566646 0.0301345 -0.0992376 176 45 25
-0.572814 -0.00145094 -0.112647 255 65 35
-0.571132 0.00109834 -0.110789 251 61 39
-0.571433 0.00355211 -0.110685 254 61 26
-0.571735 0.00600746 -0.110581 250 62 27
-0.572037 0.00846439 -0.110477 247 62 23
-0.571351 0.0109432 -0.109503 239 58 33
-0.569688 0.0134268 -0.107671 232 56 11
-0.566109 0.0159072 -0.10416 214 56 21
-0.564492 0.0183384 -0.102377 201 46 12
-0.563837 0.0207516 -0.10144 190 47 0
-0.563185 0.0231555 -0.100507 170 44 0
-0.56443 0.0255759 -0.101235 156 41 3
-0.564727 0.0279904 -0.101133 167 38 4
-0.565023 0.0304064 -0.101031 175 36 9
-0.566276 0.0328531 -0.101761 186 41 2
-0.564315 -0.000843397 -0.108383 255 62 32
-0.561746 0.00170407 -0.105726 255 60 35
-0.562042 0.0041141 -0.105624 255 67 16
-0.56329 0.0064958 -0.10637 254 64 28
-0.564544 0.00888979 -0.107119 255 61 20
-0.563884 0.0113345 -0.106166 244 57 19
-0.564181 0.0137561 -0.106064 235 55 14
-0.562572 0.0161956 -0.104273 216 52 12
-0.561921 0.0186123 -0.103332 200 46 3
-0.561272 0.0210197 -0.102396 180 40 5
-0.560627 0.023418 -0.101464 157 41 13
-0.561863 0.0258338 -0.102193 151 39 5
-0.563104 0.0282621 -0.102926 168 38 7
-0.563401 0.0306784 -0.102824 177 39 0
-0.564649 0.033126 -0.103559 182 40 0
-0.565903 0.0355861 -0.104298 181 43 0
-0.562384 -0.00299541 -0.110291 233 61 40
-0.556081 -0.000254714 -0.104251 250 59 30
-0.556373 0.00213262 -0.104151 255 65 30
-0.557597 0.00448742 -0.104888 255 58 22
-0.558827 0.00685428 -0.105627 255 63 30
-0.559121 0.00925691 -0.105526 254 59 19
-0.559416 0.0116611 -0.105426 243 61 22
-0.55971 0.0140668 -0.105325 233 54 19
-0.560005 0.0164741 -0.105224 214 54 17
-0.55936 0.018885 -0.104284 201 45 8
-0.558719 0.0212867 -0.103349 180 44 8
-0.559013 0.0236879 -0.103248 152 37 5
-0.559307 0.0260907 -0.103147 155 36 0
-0.56054 0.0285144 -0.103881 172 35 3
-0.561778 0.0309504 -0.104618 177 36 11
-0.563022 0.0333988 -0.105357 181 39 0
-0.565228 0.0358959 -0.106949 179 46 1
-0.55418 -0.00237348 -0.106129 236 57 30
-0.552631 0.000100224 -0.104359 246 58 25
-0.552006 0.00251555 -0.103431 253 59 29
-0.553212 0.00485583 -0.104161 255 62 31
-0.556276 0.00715186 -0.106571 255 60 30
-0.557503 0.00952648 -0.107315 250 58 26
-0.557796 0.0119309 -0.107215 237 55 27
-0.558091 0.0143369 -0.107115 226 53 21
-0.556518 0.0167581 -0.105332 213 54 11
-0.556812 0.0191565 -0.105232 193 50 24
-0.556177 0.0215526 -0.104297 181 43 10
-0.556469 0.0239488 -0.104197 155 38 0
-0.556763 0.0263465 -0.104097 156 35 5
-0.558921 0.0287855 -0.10567 172 38 0
-0.560155 0.0312224 -0.106411 178 41 0
-0.562343 0.0337028 -0.108005 186 42 8
-0.564551 0.0362072 -0.109613 183 44 12
-0.550738 -0.00200939 -0.106229 227 61 24
-0.54921 0.00045208 -0.104466 247 61 18
-0.549499 0.00281892 -0.104368 255 64 27
-0.550696 0.00515497 -0.1051 255 60 17
-0.551899 0.00750289 -0.105835 255 61 28
-0.554028 0.00984067 -0.107413 250 61 29
-0.55432 0.0122347 -0.107313 235 55 26
-0.554613 0.0146302 -0.107214 224 53 28
-0.553062 0.0170397 -0.10544 211 54 19
-0.553354 0.0194278 -0.105341 195 44 11
-0.553645 0.0218174 -0.105242 178 45 5
-0.553937 0.0242085 -0.105143 156 42 8
-0.554229 0.0266012 -0.105044 160 38 7
-0.55637 0.0290362 -0.106618 168 38 11
-0.558531 0.0314945 -0.108206 180 43 12
-0.560711 0.0339764 -0.109808 182 45 7
-0.562912 0.0364822 -0.111424 179 51 12
-0.549756 -0.00417105 -0.108939 215 55 33
-0.547326 -0.00164847 -0.106327 227 61 43
-0.546715 0.000759092 -0.1054 249 67 35
-0.547003 0.00312099 -0.105302 255 61 26
-0.548191 0.00545286 -0.106035 255 60 12
-0.549385 0.00779653 -0.10677 254 58 32
-0.551498 0.0101307 -0.10835 244 56 30
-0.551789 0.0125196 -0.108251 232 59 23
-0.551165 0.014921 -0.107313 224 55 15
-0.550544 0.0173133 -0.106379 210 49 18
-0.549926 0.0196967 -0.105448 193 44 10
-0.550216 0.022076 -0.10535 175 39 0
-0.550506 0.0244569 -0.105252 156 39 6
-0.550796 0.0268393 -0.105154 164 38 2
-0.552912 0.0292648 -0.106722 173 36 7
-0.555047 0.0317135 -0.108304 177 46 21
-0.558139 0.0342177 -0.110754 180 45 13
-0.561272 0.0367573 -0.113236 176 45 7
-0.564448 0.0393332 -0.115752 168 43 21
-0.554961 -0.00917458 -0.117814 245 55 15
-0.548771 -0.00634127 -0.11166 227 50 17
-0.545443 -0.00374798 -0.108187 219 56 21
-0.542173 -0.00119849 -0.104775 234 62 28
-0.542458 0.00114673 -0.104679 249 60 34
-0.541863 0.00352898 -0.103763 255 61 30
-0.544804 0.00578031 -0.106136 254 58 27
-0.546882 0.00808887 -0.107703 253 59 25
-0.548073 0.0104401 -0.108442 242 55 21
-0.549269 0.0128034 -0.109186 233 53 12
-0.548651 0.0151991 -0.108248 220 54 15
-0.548037 0.0175858 -0.107314 202 45 16
-0.547425 0.0199636 -0.106384 177 43 13
-0.546816 0.0223324 -0.105458 171 40 0
-0.547104 0.0247031 -0.105361 157 36 0
-0.548292 0.0270913 -0.106092 162 35 0
-0.549484 0.0294915 -0.106826 177 40 0
-0.551594 0.0319306 -0.108403 183 37 0
-0.555578 0.034458 -0.111696 179 41 12
-0.559633 0.0370325 -0.115048 165 42 2
-0.563762 0.0396554 -0.118461 164 41 0
-0.567967 0.0423281 -0.121937 134 41 14
-0.570251 0.0449356 -0.123648 104 46 26
-0.553034 -0.0113226 -0.119718 255 56 19
-0.548697 -0.00858337 -0.115254 243 53 27
-0.544455 -0.00590312 -0.110888 233 54 25
-0.540307 -0.00327989 -0.106618 227 56 18
-0.538843 -0.000845684 -0.104879 238 64 19
-0.539126 0.00148956 -0.104784 253 61 20
-0.53941 0.00382631 -0.104689 255 59 21
-0.540568 0.00613481 -0.105413 255 62 26
-0.5435 0.00840506 -0.107797 253 57 27
-0.546471 0.0107069 -0.110212 247 59 22
-0.54676 0.0130859 -0.110116 232 55 24
-0.547049 0.0154664 -0.110019 201 54 19
-0.54554 0.0178571 -0.108245 181 41 9
-0.544045 0.0202284 -0.106487 174 38 3
-0.542563 0.0225806 -0.104744 157 44 11
-0.542849 0.0249361 -0.104648 154 39 2
-0.544019 0.0273094 -0.105374 160 35 0
-0.546086 0.0297162 -0.10693 174 36 3
-0.548171 0.0321458 -0.1085 178 42 8
-0.553953 0.0347305 -0.113491 181 40 2
-0.55705 0.0372684 -0.115988 174 41 0
-0.562106 0.0399334 -0.120291 162 41 0
-0.566296 0.0426089 -0.123784 125 45 17
-0.569565 0.0452766 -0.126421 100 53 12
-0.548331 -0.0132457 -0.118976 255 65 25
-0.548622 -0.0108446 -0.118879 255 57 31
-0.546171 -0.00825309 -0.116174 241 51 32
-0.541079 -0.00552629 -0.110966 234 53 16
-0.536985 -0.00291826 -0.106714 229 46 10
-0.536402 -0.00054 -0.1058 236 60 21
-0.535823 0.00182946 -0.104889 252 63 14
-0.536105 0.00415636 -0.104795 251 63 35
-0.538117 0.00642677 -0.106336 252 59 32
-0.541909 0.00866987 -0.109555 248 61 30
-0.544869 0.0109737 -0.111983 240 52 32
-0.545157 0.013353 -0.111887 231 52 26
-0.544549 0.0157428 -0.110946 211 49 23
-0.542169 0.018131 -0.10834 199 45 6
-0.540695 0.020491 -0.106589 181 41 3
-0.540105 0.0228387 -0.105672 161 37 9
-0.540389 0.0251893 -0.105577 145 38 11
-0.540674 0.0275414 -0.105482 161 27 5
-0.542717 0.029939 -0.107033 179 36 6
-0.545671 0.0323868 -0.109432 181 46 15
-0.548665 0.0348686 -0.111864 182 45 5
-0.553548 0.0374637 -0.116054 175 47 12
-0.557593 0.0400734 -0.119455 153 44 21
-0.563649 0.042837 -0.124722 116 48 14
-0.567881 0.0455597 -0.128281 93 53 25
-0.569181 0.0481369 -0.129105 92 52 25
-0.547336 -0.0154563 -0.121747 255 62 30
-0.544886 -0.0128309 -0.119018 255 60 21
-0.545175 -0.0104403 -0.118921 248 55 36
-0.542757 -0.00786272 -0.116229 236 45 34
-0.535992 -0.00504387 -0.109377 230 50 26
-0.534549 -0.0026083 -0.10763 220 49 21
-0.533118 -0.000192279 -0.105899 231 68 37
-0.532547 0.00216648 -0.104993 249 60 15
-0.533679 0.00445052 -0.105713 254 62 27
-0.534816 0.0067459 -0.106436 250 64 39
-0.537691 0.00900583 -0.108812 242 57 32
-0.541487 0.0112783 -0.11206 238 55 30
-0.542662 0.0136338 -0.112809 227 55 19
-0.54206 0.0160179 -0.111869 215 44 4
-0.538827 0.0184025 -0.108434 194 43 13
-0.537373 0.0207514 -0.106691 177 39 11
-0.536792 0.0230886 -0.105778 158 38 12
-0.537075 0.0254292 -0.105684 143 29 3
-0.538224 0.0277887 -0.106408 161 31 3
-0.539378 0.0301599 -0.107135 179 38 9
-0.541415 0.0325708 -0.108693 179 42 22
-0.54436 0.0350377 -0.111105 179 45 16
-0.550995 0.0376972 -0.116986 170 44 11
-0.554072 0.0402573 -0.119507 152 46 9
-0.561981 0.0431172 -0.126565 110 47 6
-0.566198 0.0458428 -0.130142 91 46 26
-0.567492 0.0484209 -0.13097 95 48 19
-0.567797 0.0509404 -0.130869 92 54 29
-0.548182 -0.0178454 -0.126322 255 62 26
-0.544797 -0.015109 -0.122658 255 58 19
-0.543271 -0.0125637 -0.120803 254 60 31
-0.539088 -0.00984177 -0.116378 246 58 25
-0.539373 -0.00747575 -0.116283 236 50 21
-0.532696 -0.00467559 -0.10946 230 48 18
-0.531272 -0.00225187 -0.107722 217 49 18
-0.530705 0.000110096 -0.106812 231 58 20
-0.530985 0.00242602 -0.10672 243 64 28
-0.531264 0.0047434 -0.106627 248 64 38
-0.532393 0.00703473 -0.107351 251 59 27
-0.534384 0.00931472 -0.108901 249 56 23
-0.539892 0.011544 -0.113823 242 54 26
-0.540178 0.0139134 -0.113728 225 52 13
-0.53783 0.0163073 -0.111111 210 43 7
-0.535514 0.0186717 -0.108527 195 40 1
-0.534936 0.0210121 -0.107611 172 38 13
-0.534361 0.0233439 -0.106699 159 41 2
-0.534643 0.0256798 -0.106606 149 22 1
-0.535784 0.028035 -0.10733 166 33 2
-0.536929 0.0304019 -0.108058 178 43 10
-0.53808 0.0327806 -0.108789 184 42 8
-0.540111 0.0352047 -0.110355 177 45 17
-0.547543 0.0378894 -0.117048 170 41 18
-0.550582 0.0404396 -0.119559 148 43 9
-0.55935 0.0433437 -0.127496 105 44 9
-0.563532 0.0460654 -0.131073 92 37 22
-0.565804 0.0487051 -0.132836 92 48 22
-0.545624 -0.0174907 -0.127228 255 69 31
-0.542269 -0.0147634 -0.123565 255 62 28
-0.539863 -0.0121538 -0.120836 253 56 30
-0.53661 -0.0095125 -0.117286 246 50 22
-0.536895 -0.00715139 -0.117192 234 51 19
-0.529428 -0.00431044 -0.109544 230 50 8
-0.528864 -0.00194528 -0.108631 212 45 10
-0.528302 0.000411247 -0.107721 209 56 16
-0.527744 0.00275911 -0.106816 237 51 11
-0.528859 0.00503508 -0.107538 251 61 21
-0.52998 0.00732238 -0.108262 248 57 32
-0.531106 0.00962103 -0.10899 244 57 38
-0.534811 0.0118796 -0.112213 236 54 35
-0.535094 0.0142285 -0.11212 221 52 19
-0.535377 0.016579 -0.112026 206 47 11
-0.533937 0.0189348 -0.110269 196 41 7
-0.533363 0.0212749 -0.10935 175 40 15
-0.532791 0.0236064 -0.108435 153 40 8
-0.532222 0.0259294 -0.107523 155 21 0
-0.533354 0.0282803 -0.108249 169 35 0
-0.534491 0.0306429 -0.108978 175 37 0
-0.535634 0.0330172 -0.10971 181 39 0
-0.537649 0.0354373 -0.111277 178 41 11
-0.544121 0.0380799 -0.11711 169 43 2
-0.548035 0.0406667 -0.120484 147 46 4
-0.552954 0.0433548 -0.124811 104 43 11
-0.561852 0.046348 -0.13293 92 39 16
-0.543078 -0.0171375 -0.12813 255 62 29
-0.539752 -0.0144192 -0.124468 255 59 27
-0.537368 -0.0118174 -0.12174 253 56 27
-0.530695 -0.00893187 -0.114793 248 57 19
-0.530976 -0.00659622 -0.114701 237 50 12
-0.527024 -0.00399964 -0.110448 224 51 12
-0.526465 -0.00163992 -0.109535 200 47 24
-0.52591 0.000711114 -0.108627 214 48 28
-0.525357 0.00305356 -0.107722 237 63 24
-0.525634 0.00535661 -0.107631 252 62 29
-0.526742 0.00763501 -0.108353 248 60 37
-0.527856 0.0099247 -0.109079 245 55 31
-0.529818 0.0122094 -0.110631 236 50 23
-0.532653 0.0145039 -0.113031 219 50 26
-0.532079 0.0168559 -0.112104 204 50 21
-0.531508 0.0191993 -0.111181 192 43 15
-0.530939 0.021534 -0.110263 176 41 2
-0.530374 0.0238602 -0.109348 148 41 18
-0.530654 0.0261916 -0.109256 151 28 0
-0.530934 0.0285245 -0.109164 166 36 5
-0.532063 0.0308828 -0.109894 185 35 0
-0.533198 0.0332527 -0.110627 186 43 0
-0.536062 0.0357034 -0.113031 180 42 4
-0.541617 0.0383096 -0.11803 173 41 0
-0.544595 0.0408461 -0.120531 144 39 5
-0.552242 0.0436852 -0.12753 103 39 14
-0.560171 0.0466306 -0.134787 89 35 23
-0.538743 -0.0166221 -0.127237 255 65 38
-0.537246 -0.0140765 -0.125367 255 70 32
-0.533137 -0.0113446 -0.120903 247 63 23
-0.527422 -0.0085471 -0.114853 246 56 8
-0.527701 -0.00622135 -0.114762 237 51 2
-0.525462 -0.00374075 -0.112174 223 50 6
-0.524077 -0.00133587 -0.110437 196 43 2
-0.523527 0.00100973 -0.109528 214 48 18
-0.52298 0.00334683 -0.108624 234 60 24
-0.523256 0.00564518 -0.108534 249 62 22
-0.523532 0.007945 -0.108444 250 58 38
-0.523808 0.0102463 -0.108353 244 56 29
-0.52574 0.0125179 -0.109893 234 55 18
-0.528529 0.0147998 -0.112273 219 52 16
-0.528809 0.0171305 -0.112181 199 46 21
-0.529089 0.0194626 -0.11209 186 43 17
-0.528526 0.0217921 -0.111172 169 39 9
-0.528806 0.0241222 -0.11108 147 25 8
-0.529086 0.0264539 -0.110989 154 23 1
-0.529366 0.0287871 -0.110897 168 33 4
-0.530491 0.0311461 -0.111631 181 33 15
-0.531621 0.033517 -0.112369 182 41 10
-0.534475 0.0359696 -0.114785 171 47 14
-0.540008 0.0385796 -0.119808 171 43 5
-0.541185 0.0410239 -0.120579 139 41 7
-0.547814 0.0437997 -0.126651 94 24 25
-0.536234 -0.016274 -0.128132 235 57 30
-0.533872 -0.0136609 -0.125381 247 48 14
-0.528108 -0.0108109 -0.119223 245 54 8
-0.524177 -0.00816564 -0.114913 237 48 8
-0.524454 -0.00584967 -0.114823 229 47 4
-0.5239 -0.00348186 -0.1139 213 39 1
-0.521699 -0.00103309 -0.111334 191 41 9
-0.519526 0.00138592 -0.108801 199 42 5
-0.51899 0.00370756 -0.107905 230 56 23
-0.517654 0.00604999 -0.106212 249 64 15
-0.517926 0.0083258 -0.106123 252 60 20
-0.518199 0.010603 -0.106034 242 59 18
-0.520898 0.0128375 -0.108355 229 54 21
-0.523632 0.0151021 -0.110705 217 53 8
-0.525566 0.0174027 -0.112259 195 45 13
-0.52668 0.0197249 -0.112995 175 38 18
-0.526959 0.0220539 -0.112904 160 38 15
-0.527238 0.0243843 -0.112813 146 24 0
-0.527517 0.0267162 -0.112722 160 29 0
-0.527797 0.0290496 -0.112631 170 36 7
-0.528918 0.0314095 -0.11337 176 38 39
-0.530044 0.0337812 -0.114111 183 45 9
-0.53203 0.0362002 -0.115696 182 43 0
-0.537518 0.0388076 -0.12072 168 43 0
-0.542252 0.0414383 -0.124994 134 42 5
-0.543444 0.0439127 -0.125784 95 22 14
-0.532857 -0.0158479 -0.128133 248 60 17
-0.531395 -0.0133221 -0.126273 254 55 5
-0.524839 -0.0104174 -0.119264 251 55 6
-0.521784 -0.00784692 -0.115806 233 51 12
-0.521236 -0.00548113 -0.114883 218 49 18
-0.521511 -0.00317339 -0.114794 202 41 15
-0.517709 -0.000644079 -0.110596 182 34 11
-0.516374 0.00171908 -0.108888 172 33 9
-0.514258 0.00409693 -0.106398 219 56 24
-0.513739 0.00639022 -0.105516 250 65 19
-0.514009 0.0086519 -0.105429 253 64 18
-0.51428 0.0109151 -0.105341 239 60 28
-0.516936 0.0131375 -0.107643 226 55 15
-0.519626 0.0153899 -0.109974 213 53 7
-0.522352 0.0176727 -0.112335 188 45 10
-0.524281 0.0199861 -0.113896 167 37 16
-0.524559 0.0223103 -0.113806 151 39 5
-0.524837 0.024636 -0.113716 143 17 0
-0.525949 0.0269785 -0.114456 158 30 0
-0.526228 0.0293122 -0.114365 178 36 0
-0.526507 0.0316474 -0.114275 184 42 16
-0.527625 0.0340147 -0.115017 190 43 4
-0.529595 0.0364298 -0.116603 185 45 5
-0.533303 0.0389507 -0.119908 167 44 1
-0.538844 0.0416139 -0.125022 135 45 0
-0.541816 0.0441863 -0.127584 94 28 7
-0.52951 -0.0154256 -0.128134 250 59 29
-0.528929 -0.0129847 -0.127161 253 59 26
-0.521598 -0.0100271 -0.119305 253 55 17
-0.520223 -0.00758847 -0.117531 237 51 14
-0.518859 -0.00516924 -0.115773 217 47 16
-0.519133 -0.00286615 -0.115684 195 42 24
-0.514565 -0.000302541 -0.110674 175 32 12
-0.51246 0.00208687 -0.108173 156 26 8
-0.511161 0.00441555 -0.106494 215 55 5
-0.510649 0.0066988 -0.105617 248 63 4
-0.510918 0.0089513 -0.10553 248 58 22
-0.511969 0.0111872 -0.106234 233 62 37
-0.513024 0.0134339 -0.10694 218 54 23
-0.515672 0.0156741 -0.109252 204 51 7
-0.519978 0.0179364 -0.113232 180 47 17
-0.521892 0.0202462 -0.114794 161 38 20
-0.522994 0.0225716 -0.115535 148 34 10
-0.523272 0.0248975 -0.115445 148 16 0
-0.52355 0.0272249 -0.115356 155 34 9
-0.524658 0.0295749 -0.1161 181 34 0
-0.524937 0.0319103 -0.11601 191 40 0
-0.526051 0.0342785 -0.116756 192 49 8
-0.527171 0.0366584 -0.117506 186 42 6
-0.53257 0.039261 -0.122533 174 39 18
-0.534592 0.0417397 -0.124177 135 45 18
-0.539293 0.0444051 -0.12849 95 30 13
-0.527049 -0.0150838 -0.129018 255 60 29
-0.525621 -0.0125774 -0.127167 255 63 35
-0.519206 -0.00970386 -0.12019 254 57 22
-0.518661 -0.00732995 -0.119257 236 51 20
-0.516492 -0.00485865 -0.116659 213 45 17
-0.516765 -0.00256024 -0.116571 192 37 17
-0.510663 7.78031e-05 -0.109948 167 32 25
-0.50937 0.00241371 -0.108262 156 22 0
-0.508089 0.00473151 -0.10659 213 46 3
-0.508357 0.00697812 -0.106504 239 64 15
-0.508624 0.00922614 -0.106418 243 57 20
-0.509667 0.0114582 -0.107123 223 58 33
-0.510715 0.013701 -0.10783 208 57 18
-0.512553 0.0159466 -0.10934 193 44 7
-0.516807 0.0182024 -0.113304 177 37 5
-0.519513 0.0205053 -0.115688 159 35 2
-0.520607 0.0228264 -0.11643 145 31 1
-0.520884 0.0251476 -0.116341 150 17 0
-0.521984 0.0274868 -0.117086 163 27 0
-0.523089 0.0298375 -0.117834 177 35 11
-0.523367 0.0321733 -0.117745 187 38 10
-0.524477 0.0345423 -0.118496 192 45 8
-0.525593 0.036923 -0.11925 184 43 19
-0.528405 0.0394006 -0.121714 169 42 9
-0.531255 0.0419122 -0.12421 140 48 3
-0.535897 0.044568 -0.128505 99 33 18
-0.523749 -0.0146675 -0.129016 255 66 21
-0.523183 -0.0122438 -0.128048 255 65 24
-0.517641 -0.00944504 -0.121919 249 56 15
-0.516284 -0.0070136 -0.120139 220 55 25
-0.514134 -0.00454931 -0.117541 203 46 22
-0.514407 -0.00225559 -0.117454 185 38 17
-0.507581 0.000412851 -0.110029 166 31 7
-0.506306 0.00273782 -0.108351 154 22 3
-0.505806 0.00501414 -0.107474 203 40 10
-0.506073 0.00725629 -0.107389 228 67 35
-0.507108 0.00947836 -0.108094 238 56 11
-0.507375 0.0117281 -0.108009 223 52 13
-0.508416 0.0139671 -0.108717 193 43 11
-0.50946 0.0162169 -0.109428 169 35 10
-0.513663 0.0184663 -0.113376 151 34 21
-0.517144 0.0207632 -0.116578 149 22 9
-0.518231 0.0230803 -0.117321 139 16 5
-0.518506 0.0253967 -0.117233 148 14 0
-0.519598 0.0277317 -0.117979 165 34 0
-0.521519 0.0301003 -0.119569 181 40 13
-0.521796 0.0324363 -0.11948 195 37 4
-0.522903 0.0348061 -0.120236 199 43 3
-0.524851 0.0372253 -0.121846 188 45 12
-0.525972 0.039624 -0.122611 171 47 0
-0.527098 0.0420347 -0.12338 138 44 0
-0.534279 0.0448399 -0.130293 98 28 5
-0.520478 -0.0142549 -0.129014 255 65 27
-0.51909 -0.0117734 -0.127181 251 56 18
-0.516076 -0.00918615 -0.123648 240 49 7
-0.513918 -0.00669856 -0.121017 219 53 11
-0.511787 -0.00424129 -0.11842 202 44 10
-0.505792 -0.00158702 -0.111795 180 39 10
-0.50606 0.000665123 -0.11171 160 35 7
-0.504791 0.00298932 -0.110025 146 24 14
-0.504294 0.00526534 -0.109145 188 40 10
-0.50456 0.00750777 -0.109061 227 61 19
-0.504826 0.00975161 -0.108976 237 61 15
-0.505858 0.0119806 -0.109685 219 55 14
-0.506125 0.014232 -0.1096 192 48 17
-0.507163 0.016478 -0.110312 171 41 10
-0.510545 0.0187279 -0.113448 154 37 4
-0.514785 0.0210201 -0.117465 147 22 0
-0.515864 0.023333 -0.118209 143 19 0
-0.516947 0.0256573 -0.118956 155 17 0
-0.517222 0.0279756 -0.118868 168 25 0
-0.519128 0.0303403 -0.12046 185 42 4
-0.520226 0.0326993 -0.121216 194 43 7
-0.520503 0.0350371 -0.121128 197 41 3
-0.522436 0.0374524 -0.122739 187 46 5
-0.523549 0.0398466 -0.123505 168 42 0
-0.524666 0.0422528 -0.124274 122 39 0
-0.517235 -0.0138457 -0.129012 251 61 21
-0.516687 -0.0114444 -0.128054 248 58 22
-0.51451 -0.00892725 -0.125378 235 53 13
-0.512362 -0.00644103 -0.122737 222 47 1
-0.510241 -0.00398515 -0.120129 198 43 4
-0.504271 -0.00133496 -0.113476 176 36 0
-0.504538 0.000917472 -0.113391 154 36 7
-0.503275 0.00324084 -0.1117 132 29 25
-0.502781 0.00551658 -0.110817 182 32 4
-0.503047 0.00775926 -0.110733 224 70 32
-0.503312 0.0100034 -0.110649 237 59 19
-0.504341 0.0122331 -0.111362 220 55 16
-0.504607 0.0144848 -0.111277 188 44 31
-0.505641 0.0167315 -0.111993 170 43 10
-0.50901 0.0189839 -0.115144 156 39 2
-0.512436 0.021276 -0.118349 145 21 0
-0.513507 0.0235848 -0.119093 147 9 0
-0.514582 0.0259049 -0.119841 158 37 0
-0.515662 0.0282364 -0.120592 175 36 0
-0.517561 0.0306026 -0.122191 186 42 4
-0.518655 0.0329624 -0.122952 188 45 15
-0.518932 0.0353004 -0.122864 194 44 8
-0.520032 0.0376784 -0.123628 184 50 8
-0.521136 0.0400683 -0.124395 159 42 0
-0.522246 0.04247 -0.125165 110 37 0
-0.514836 -0.0135124 -0.129882 251 65 28
-0.514294 -0.0111168 -0.128925 245 62 34
-0.512137 -0.00860691 -0.126249 237 53 15
-0.510805 -0.0061835 -0.124456 214 48 9
-0.508694 -0.00372901 -0.121838 197 39 4
-0.503516 -0.00112678 -0.115969 184 37 0
-0.503783 0.00113064 -0.115885 150 26 10
-0.50176 0.00349238 -0.113375 116 11 21
-0.501268 0.00576789 -0.112489 160 29 12
-0.501533 0.00801082 -0.112405 221 70 32
-0.501798 0.0102552 -0.112322 234 59 26
-0.502823 0.0124857 -0.113039 216 52 22
-0.503089 0.0147377 -0.112955 190 48 12
-0.504119 0.0169851 -0.113675 168 41 6
-0.507475 0.0192399 -0.116841 156 42 0
-0.510888 0.0215345 -0.12006 142 26 4
-0.51116 0.0238355 -0.119974 148 14 0
-0.512227 0.0261514 -0.120723 158 22 5
-0.514102 0.0284973 -0.122316 176 37 1
-0.515994 0.0308649 -0.123923 189 40 10
-0.51627 0.0331967 -0.123836 189 46 24
-0.51736 0.0355638 -0.124601 191 38 24
-0.517637 0.0379036 -0.124514 181 44 17
-0.517914 0.0402449 -0.124426 153 40 11
-0.519835 0.0426863 -0.126053 100 40 15
-0.512448 -0.0131805 -0.130748 251 65 26
-0.511105 -0.0107244 -0.128924 244 55 11
-0.510575 -0.00834846 -0.127976 227 50 9
-0.509249 -0.0059259 -0.126176 209 39 4
-0.507147 -0.00347283 -0.123547 191 34 6
-0.501991 -0.000874079 -0.117654 176 37 0
-0.502257 0.00138356 -0.11757 144 29 1
-0.500244 0.003744 -0.11505 92 4 9
-0.499754 0.0060192 -0.114161 140 18 8
-0.500019 0.00826239 -0.114078 208 66 38
-0.500284 0.010507 -0.113995 216 55 25
-0.501305 0.0127383 -0.114716 199 46 19
-0.501571 0.0149905 -0.114633 182 36 2
-0.502597 0.0172388 -0.115357 168 38 7
-0.505939 0.0194959 -0.118537 153 34 2
-0.509339 0.021793 -0.121772 148 21 1
-0.50961 0.0240942 -0.121686 152 15 0
-0.510674 0.026411 -0.122439 159 29 5
-0.512542 0.0287583 -0.12404 181 37 0
-0.514426 0.0311272 -0.125655 188 38 6
-0.515513 0.0334886 -0.126425 198 45 3
-0.515788 0.0358272 -0.126338 197 45 3
-0.516065 0.0381673 -0.126251 182 40 12
-0.516341 0.0405089 -0.126165 150 41 15
-0.516618 0.042852 -0.126078 98 25 10
-0.509267 -0.0127795 -0.13074 248 55 23
-0.50874 -0.0104004 -0.129788 240 55 21
-0.509012 -0.00809 -0.129703 221 47 6
-0.506902 -0.00561371 -0.127041 202 37 2
-0.5056 -0.00321658 -0.125257 183 38 12
-0.501228 -0.00066441 -0.120161 163 36 0
-0.499216 0.00171263 -0.11762 128 13 0
-0.499481 0.00396253 -0.117537 70 3 6
-0.498241 0.00627059 -0.115834 101 4 7
-0.498505 0.00851403 -0.115751 180 52 24
-0.49877 0.0107589 -0.115669 184 44 16
-0.499787 0.012991 -0.116394 179 45 12
-0.500052 0.0152434 -0.116311 166 37 6
-0.501075 0.0174925 -0.117039 155 39 9
-0.503633 0.0197522 -0.11941 119 42 12
-0.50779 0.0220515 -0.123484 138 37 0
-0.508061 0.024353 -0.123399 151 28 0
-0.509121 0.0266706 -0.124156 161 28 5
-0.510185 0.0289996 -0.124916 178 33 3
-0.512055 0.0313648 -0.126532 191 37 4
-0.513133 0.0337219 -0.127302 198 46 15
-0.513408 0.0360557 -0.127216 197 45 4
-0.514492 0.038431 -0.127989 182 48 1
-0.514768 0.0407729 -0.127903 148 44 8
-0.515044 0.0431162 -0.127817 100 25 7
-0.506905 -0.0124512 -0.131599 243 56 15
-0.507177 -0.0101421 -0.131514 235 52 9
-0.506655 -0.007772 -0.130563 211 47 5
-0.505348 -0.00535661 -0.128757 190 39 0
-0.504053 -0.00296032 -0.126966 174 36 1
-0.500462 -0.000453781 -0.12268 150 26 0
-0.49845 0.00192714 -0.120118 91 6 4
-0.498715 0.00418203 -0.120036 47 0 7
-0.497475 0.00649422 -0.118319 62 1 14
-0.496991 0.00876567 -0.117424 168 43 26
-0.498004 0.0109924 -0.118154 180 47 9
-0.498269 0.0132437 -0.118072 172 45 9
-0.498534 0.0154964 -0.117989 160 39 4
-0.499553 0.0177462 -0.118722 142 38 3
-0.502101 0.0200077 -0.121103 92 14 2
-0.50624 0.02231 -0.125196 128 14 0
-0.507296 0.024622 -0.125957 149 21 0
-0.507567 0.0269302 -0.125873 168 30 0
-0.508628 0.02926 -0.126637 174 36 0
-0.51049 0.0316266 -0.128261 174 41 0
-0.510764 0.0339541 -0.128176 190 37 5
-0.511839 0.0363186 -0.12895 195 43 6
-0.512919 0.0386948 -0.129727 179 41 0
-0.513195 0.0410369 -0.129642 143 45 0
-0.504554 -0.0121243 -0.132455 235 54 16
-0.504824 -0.00981992 -0.132371 234 58 19
-0.504308 -0.00745536 -0.13142 228 49 8
-0.503794 -0.00509944 -0.130474 203 44 1
-0.503283 -0.00275212 -0.129532 173 38 8
-0.500458 -0.000284763 -0.12605 134 14 0
-0.497681 0.00214262 -0.122627 70 0 2
-0.496442 0.00446697 -0.120896 42 2 0
-0.496706 0.00671885 -0.120814 51 2 1
-0.496222 0.00899483 -0.119914 142 32 2
-0.496486 0.0112449 -0.119832 168 46 14
-0.49675 0.0134964 -0.11975 171 47 15
-0.497765 0.0157409 -0.120486 155 35 0
-0.499541 0.0179923 -0.122051 110 27 0
-0.501332 0.0202643 -0.123629 57 5 0
-0.505472 0.0225745 -0.127758 118 9 0
-0.505742 0.0248815 -0.127674 143 38 16
-0.506013 0.0271899 -0.12759 170 34 7
-0.50707 0.0295205 -0.128359 183 41 0
-0.508132 0.0318626 -0.129131 184 42 0
-0.509199 0.0342163 -0.129906 188 44 13
-0.509472 0.0365456 -0.129821 190 45 6
-0.510544 0.0389174 -0.130599 170 41 1
-0.511621 0.041301 -0.131381 122 32 6
-0.502212 -0.0117988 -0.133307 226 54 19
-0.502482 -0.00949907 -0.133224 233 54 28
-0.501971 -0.00714001 -0.132274 234 52 21
-0.50224 -0.00484227 -0.132191 209 45 13
-0.501732 -0.00249523 -0.131246 162 39 20
-0.500453 -0.00011423 -0.129449 102 13 7
-0.498424 0.00228518 -0.126824 45 0 5
-0.496419 0.00465583 -0.124232 35 0 0
-0.496684 0.00691742 -0.12415 37 3 0
-0.495449 0.00922495 -0.122413 102 6 0
-0.495713 0.01148 -0.122332 153 45 13
-0.495978 0.0137365 -0.12225 159 43 18
-0.496992 0.0159864 -0.122994 131 34 10
-0.499529 0.0182406 -0.125409 83 7 1
-0.501327 0.0205235 -0.127008 45 4 3
-0.503918 0.0228337 -0.129474 87 0 2
-0.504189 0.0251409 -0.129391 145 31 7
-0.505241 0.0274659 -0.130164 170 37 11
-0.505513 0.0297811 -0.13008 190 47 0
-0.505784 0.0320977 -0.129997 191 41 14
-0.506843 0.0344471 -0.130773 185 42 14
-0.507906 0.036808 -0.131552 179 44 8
-0.508974 0.0391807 -0.132334 158 40 0
-0.510047 0.041565 -0.13312 103 31 14
-0.510322 0.0439092 -0.133035 85 23 13
-0.500656 -0.0115418 -0.135026 213 51 9
-0.500925 -0.00924183 -0.134944 238 55 24
-0.500417 -0.00688305 -0.133991 235 51 17
-0.500686 -0.00458502 -0.133909 203 44 20
-0.500955 -0.00228551 -0.133826 144 36 24
-0.500449 5.77603e-05 -0.132878 80 2 6
-0.499176 0.00242963 -0.131075 37 1 1
-0.496397 0.00484628 -0.127596 33 0 5
-0.495157 0.00717104 -0.125838 38 8 4
-0.495422 0.00943434 -0.125757 63 4 0
-0.494937 0.0117161 -0.124843 116 22 1
-0.495951 0.0139653 -0.125594 117 20 10
-0.497726 0.0162178 -0.127188 86 5 11
-0.499516 0.018491 -0.128795 52 6 7
-0.501322 0.0207849 -0.130416 44 8 3
-0.503143 0.0230999 -0.132051 55 6 0
-0.503413 0.0254124 -0.131968 140 24 0
-0.503684 0.0277262 -0.131885 170 37 0
-0.503954 0.0300417 -0.131802 184 38 1
-0.504225 0.0323585 -0.131719 189 41 19
-0.50528 0.0347088 -0.132499 183 43 14
-0.50634 0.0370705 -0.133283 164 42 22
-0.507404 0.039444 -0.134069 148 33 1
-0.508473 0.0418292 -0.13486 92 16 13
-0.508748 0.0441737 -0.134775 86 25 8
-3.88776 0.383951 -3.82255 87 37 21
-0.4991 -0.0112848 -0.136746 190 45 8
-0.499368 -0.00898451 -0.136664 226 58 26
-0.499637 -0.00668281 -0.136582 222 58 25
-0.499132 -0.00432777 -0.135626 185 46 10
-0.4994 -0.002028 -0.135544 124 17 2
-0.499668 0.00027325 -0.135462 60 3 1
-0.499165 0.00261279 -0.134511 33 8 0
-0.497897 0.00497552 -0.132701 35 5 4
-0.495128 0.00737243 -0.129209 34 5 8
-0.495394 0.00964553 -0.129128 41 8 1
-0.495659 0.0119201 -0.129047 62 6 0
-0.495925 0.0141961 -0.128966 64 4 1
-0.499235 0.0164452 -0.132293 47 7 9
-0.499504 0.0187435 -0.132211 36 4 10
-0.501316 0.0210486 -0.133854 41 2 0
-0.501586 0.0233598 -0.133772 50 8 0
-0.501856 0.0256724 -0.133689 119 19 0
-0.502126 0.0279866 -0.133607 167 44 3
-0.502396 0.0303023 -0.133524 189 36 3
-0.502666 0.0326194 -0.133442 192 39 5
-0.504501 0.035003 -0.135097 178 40 9
-0.505561 0.0373707 -0.135888 151 45 28
-0.506626 0.0397502 -0.136683 126 25 5
-0.506899 0.0420934 -0.136599 86 7 13
-0.507173 0.0444381 -0.136516 82 27 13
-0.510656 0.0470188 -0.13998 89 39 4
-3.87185 0.386632 -3.84013 88 37 19
-0.499091 -0.0111607 -0.140233 132 33 13
-0.49936 -0.00885023 -0.140151 184 51 10
-0.49963 -0.00653831 -0.140069 182 42 8
-0.499122 -0.0041732 -0.139103 147 30 2
-0.499391 -0.00186328 -0.139021 91 1 0
-0.49966 0.000448096 -0.138939 42 1 0
-0.499929 0.00276099 -0.138857 36 5 0
-0.49788 0.00516989 -0.136145 41 1 8
-0.497381 0.00749721 -0.135195 37 11 9
-0.497648 0.00979482 -0.135113 39 3 4
-0.497916 0.0120939 -0.135032 43 11 0
-0.498953 0.0143829 -0.135819 38 7 2
-0.499994 0.0166831 -0.13661 38 7 1
-0.500264 0.0189965 -0.136528 33 8 5
-0.500533 0.0213114 -0.136446 37 4 0
-0.500029 0.0236196 -0.135492 34 6 2
-0.500298 0.0259326 -0.135411 78 1 4
-0.500568 0.028247 -0.135329 152 42 3
-0.500837 0.0305629 -0.135247 189 41 11
-0.501884 0.0329083 -0.136036 191 46 13
-0.502935 0.0352653 -0.136828 175 41 1
-0.503991 0.0376339 -0.137623 140 38 7
-0.505052 0.0400142 -0.138422 90 8 16
-0.506117 0.0424063 -0.139225 68 16 11
-0.507187 0.0448103 -0.14003 76 34 17
-0.509874 0.0473457 -0.142636 81 40 21
-0.515907 0.0501823 -0.148965 88 32 15
-0.498303 -0.0109688 -0.142854 84 14 12
-0.498572 -0.00865308 -0.142772 122 35 3
-0.498842 -0.00633594 -0.142691 121 29 9
-0.499111 -0.00401728 -0.142609 90 7 9
-0.499381 -0.00169712 -0.142528 53 0 8
-0.499651 0.000624529 -0.142446 43 0 0
-0.499921 0.00294764 -0.142365 50 1 0
-0.499412 0.00530364 -0.141391 54 4 1
-0.499681 0.00762476 -0.14131 51 7 1
-0.499951 0.00994738 -0.141228 45 7 5
-0.500222 0.0122715 -0.141146 50 7 0
-0.500492 0.0145971 -0.141065 45 1 2
-0.499207 0.0169366 -0.139212 40 10 1
-0.498704 0.0192565 -0.138251 39 11 1
-0.498973 0.0215716 -0.13817 40 8 2
-0.499242 0.0238883 -0.138089 45 3 7
-0.49874 0.0261928 -0.137132 58 6 12
-0.499009 0.0285074 -0.137051 146 39 0
-0.499279 0.0308236 -0.136969 186 40 2
-0.500321 0.0331698 -0.137763 185 48 13
-0.501369 0.0355276 -0.138559 168 43 0
-0.503205 0.037936 -0.140244 115 26 2
-0.504266 0.0403224 -0.141051 61 6 17
-0.505331 0.0427206 -0.141862 62 24 21
-0.507202 0.0451858 -0.143576 76 33 25
-0.5099 0.047735 -0.146217 79 33 28
-0.514289 0.0504545 -0.150753 83 36 24
-0.517083 0.0530874 -0.153489 83 37 21
-0.499073 -0.010909 -0.147299 57 14 6
-0.49856 -0.00851641 -0.146309 62 6 4
-0.49883 -0.00618893 -0.146228 54 4 9
-0.499101 -0.00385995 -0.146147 40 2 7
-0.500156 -0.00157587 -0.146973 33 4 6
-0.500427 0.000761151 -0.146892 45 1 5
-0.500698 0.00309971 -0.14681 51 4 4
-0.50097 0.00543978 -0.146728 46 11 4
-0.501242 0.00778135 -0.146647 48 15 5
-0.502304 0.0101033 -0.147476 48 7 4
-0.502577 0.012453 -0.147394 50 9 2
-0.499701 0.0148475 -0.143693 51 5 0
-0.499193 0.0171856 -0.142717 46 3 0
-0.498687 0.0195152 -0.141745 41 9 0
-0.498183 0.0218362 -0.140777 42 3 5
-0.497681 0.0241488 -0.139814 48 0 14
-0.49795 0.0264672 -0.139733 43 8 9
-0.497451 0.0287679 -0.138773 135 30 5
-0.498489 0.0311085 -0.139571 173 45 6
-0.499532 0.0334606 -0.140372 173 40 7
-0.500579 0.0358243 -0.141176 147 36 3
-0.501631 0.0381998 -0.141984 88 2 13
-0.503477 0.0406319 -0.143692 54 6 12
-0.506137 0.0431375 -0.146323 71 24 17
-0.507216 0.0455646 -0.147152 79 34 24
-0.509925 0.0481278 -0.149829 81 33 26
-0.512671 0.0507266 -0.152542 81 37 26
-0.515453 0.0533617 -0.15529 80 34 33
-0.503851 -0.0111878 -0.156486 58 17 7
-0.504125 -0.00881517 -0.156404 43 5 5
-0.502788 -0.00632543 -0.154437 29 2 9
-0.503062 -0.00396027 -0.154355 30 1 10
-0.504951 -0.00168833 -0.156157 29 2 11
-0.505226 0.000690357 -0.156074 42 8 9
-0.506316 0.00303344 -0.15694 54 10 9
-0.506592 0.00542044 -0.156857 53 10 1
-0.510166 0.00770153 -0.160607 50 13 8
-0.510445 0.010113 -0.160523 43 11 19
-0.505793 0.0126227 -0.154718 43 10 13
-0.501263 0.0150682 -0.149065 46 8 1
-0.499178 0.0174368 -0.146253 41 6 0
-0.497893 0.0197762 -0.144371 36 13 1
-0.498163 0.0221068 -0.14429 33 6 8
-0.496888 0.0244192 -0.142425 32 4 22
-0.497157 0.0267428 -0.142345 35 3 1
-0.496657 0.0290482 -0.141378 96 7 11
-0.496926 0.0313698 -0.141298 147 40 15
-0.498738 0.0337526 -0.142992 153 37 1
-0.499786 0.0361224 -0.143805 107 30 0
-0.501622 0.0385443 -0.145521 51 5 1
-0.503475 0.0409888 -0.147253 46 17 11
-0.504545 0.0434047 -0.148083 74 21 21
-0.508041 0.0460042 -0.151689 78 35 28
-0.509951 0.0485241 -0.153474 82 31 23
-0.511879 0.0510679 -0.155275 82 35 23
-0.513823 0.053636 -0.157092 82 32 27
-0.505493 -0.011197 -0.162097 65 17 5
-0.50577 -0.00880301 -0.162015 45 9 3
-0.505228 -0.00634903 -0.160967 28 6 4
-0.505504 -0.00395727 -0.160885 28 4 8
-0.506601 -0.00161169 -0.161768 37 6 3
-0.506878 0.00078847 -0.161685 55 9 2
-0.50881 0.00311564 -0.163545 53 14 10
-0.512443 0.00540039 -0.167398 61 15 5
-0.515283 0.00775598 -0.170313 59 17 9
-0.512161 0.0102984 -0.16624 48 9 19
-0.509927 0.0127812 -0.163212 44 9 7
-0.507722 0.0152324 -0.160224 45 8 7
-0.500738 0.0176809 -0.151659 41 10 0
-0.497872 0.0200389 -0.147915 44 12 0
-0.496592 0.0223689 -0.146027 39 9 2
-0.496861 0.0247013 -0.145946 37 8 10
-0.495591 0.0270042 -0.144075 35 3 4
-0.49586 0.0293296 -0.143995 50 4 3
-0.496129 0.0316565 -0.143915 93 16 3
-0.497941 0.034046 -0.145625 92 4 6
-0.498212 0.036386 -0.145544 50 8 5
-0.500826 0.0388505 -0.148177 44 6 0
-0.502679 0.041302 -0.149924 58 18 10
-0.503748 0.0437241 -0.150763 79 24 8
-0.507244 0.0463324 -0.154401 82 41 18
-0.509155 0.0488596 -0.156203 86 27 15
-0.511082 0.0514108 -0.15802 85 33 21
-0.512193 0.0539103 -0.158893 84 38 24
-0.505512 -0.0110673 -0.16584 74 18 2
-0.506615 -0.00872626 -0.166741 69 6 2
-0.506893 -0.00631428 -0.166658 39 8 9
-0.507171 -0.00390078 -0.166576 36 7 10
-0.508281 -0.00153367 -0.16748 53 9 2
-0.50856 0.000888425 -0.167397 67 14 1
-0.512208 0.003162 -0.171304 70 17 6
-0.515922 0.00547889 -0.175282 63 19 6
-0.516207 0.00795019 -0.175198 54 15 8
-0.514766 0.010466 -0.173074 54 14 7
-0.514192 0.0129448 -0.171977 46 11 4
-0.51108 0.0154439 -0.167889 45 16 1
-0.49707 0.0203029 -0.150572 48 13 0
-0.49579 0.022637 -0.148669 48 7 0
-0.495289 0.0249636 -0.147683 45 9 3
-0.494791 0.0272817 -0.146702 43 7 14
-0.49506 0.0296124 -0.146623 34 1 7
-0.495329 0.0319446 -0.146543 42 7 6
-0.496368 0.0343094 -0.147364 36 0 4
-0.496638 0.0366496 -0.147284 36 3 1
-0.500025 0.0391581 -0.150845 48 9 1
-0.501086 0.041569 -0.151684 61 17 14
-0.502152 0.043992 -0.152527 80 35 14
-0.505633 0.0466029 -0.156181 82 32 23
-0.507536 0.0491316 -0.157991 83 30 25
-0.509456 0.0516843 -0.159818 83 42 24
-0.506359 -0.0110058 -0.170613 81 20 6
-0.506637 -0.0085842 -0.170531 73 15 18
-0.508588 -0.00627889 -0.172453 53 13 22
-0.510556 -0.00395099 -0.174393 58 12 14
-0.510838 -0.00150261 -0.17431 68 14 9
-0.511971 0.000904261 -0.175244 68 18 5
-0.514832 0.00324785 -0.178241 71 20 7
-0.516857 0.0056584 -0.180235 69 18 5
-0.517143 0.0081471 -0.18015 55 12 6
-0.515688 0.0106796 -0.177989 54 14 4
-0.515107 0.0131754 -0.176874 49 16 6
-0.494986 0.0229063 -0.151322 49 9 13
-0.493717 0.0252259 -0.149421 46 11 11
-0.493986 0.0275604 -0.149341 40 9 15
-0.49349 0.0298747 -0.148357 33 4 8
-0.493758 0.0322071 -0.148278 25 5 6
-0.494794 0.0345728 -0.149103 25 5 4
-0.495833 0.0369502 -0.149932 36 8 4
-0.498436 0.0394243 -0.152601 52 11 5
-0.499493 0.0418361 -0.153444 77 24 10
-0.500555 0.0442599 -0.154292 83 36 15
-0.504829 0.0469332 -0.15891 79 33 23
-0.505917 0.0494036 -0.159781 80 39 25
-0.506381 -0.0108736 -0.174438 81 29 18
-0.507497 -0.00850501 -0.175369 79 25 15
-0.508619 -0.00612403 -0.176305 76 19 11
-0.509746 -0.0037306 -0.177244 76 19 11
-0.511733 -0.00137316 -0.17922 75 26 14
-0.512875 0.00105088 -0.180173 72 22 10
-0.515762 0.00341207 -0.183226 67 24 6
-0.516048 0.0059052 -0.183142 72 18 7
-0.516335 0.00839994 -0.183058 61 17 5
-0.516622 0.0108963 -0.182974 52 17 6
-0.516035 0.0134091 -0.18184 54 17 6
-0.495727 0.0231915 -0.155842 56 13 12
-0.492145 0.0254883 -0.151158 53 21 12
-0.492413 0.0278231 -0.151079 46 10 9
-0.49192 0.030137 -0.150092 38 10 1
-0.492188 0.0324698 -0.150013 27 6 1
-0.493219 0.0348363 -0.150843 31 9 1
-0.494255 0.0372145 -0.151676 52 13 5
-0.49607 0.0396475 -0.153433 64 18 1
-0.497119 0.0420548 -0.154277 82 33 14
-0.498959 0.0445279 -0.156056 83 33 26
-0.503214 0.0472044 -0.160695 82 33 22
-0.505925 0.0498084 -0.163495 81 34 19
-0.506403 -0.0107402 -0.178297 84 37 21
-0.508368 -0.00842472 -0.180274 82 33 16
-0.509499 -0.0060269 -0.181228 84 30 12
-0.511493 -0.00367046 -0.183231 83 32 19
-0.51264 -0.00124185 -0.184198 85 40 8
-0.513792 0.00119961 -0.18517 85 21 3
-0.514949 0.003654 -0.186146 76 23 8
-0.515236 0.0061532 -0.186063 71 23 14
-0.515522 0.00865401 -0.185979 64 19 4
-0.514936 0.0111765 -0.184836 62 15 1
-0.511766 0.0137311 -0.180567 64 11 1
-0.51205 0.016208 -0.180484 53 14 10
-0.491333 0.0257636 -0.153812 56 21 11
-0.49084 0.0280857 -0.152818 57 16 1
-0.49035 0.0303994 -0.151827 46 16 0
-0.490618 0.0327324 -0.151749 35 14 0
-0.491645 0.0350997 -0.152583 43 15 3
-0.492677 0.0374788 -0.153421 65 17 2
-0.494484 0.0399133 -0.155185 79 28 0
-0.49553 0.0423214 -0.156034 83 33 13
-0.497362 0.0447959 -0.157821 82 34 17
-0.501599 0.0474757 -0.16248 81 40 19
-0.506424 -0.0106056 -0.182193 87 40 19
-0.509251 -0.00834324 -0.185247 84 34 21
-0.510392 -0.00592834 -0.186219 83 37 17
-0.511538 -0.00350066 -0.187196 85 34 18
-0.512689 -0.0010601 -0.188178 85 32 13
-0.512975 0.00143617 -0.188095 85 23 14
-0.514132 0.00389706 -0.189081 82 24 19
-0.513547 0.00643348 -0.187929 75 24 13
-0.513833 0.0089346 -0.187846 68 19 1
-0.512384 0.011476 -0.185641 64 20 6
-0.510094 0.014009 -0.182414 67 18 3
-0.510378 0.0164862 -0.182331 58 14 7
-0.489267 0.0283485 -0.154556 64 16 13
-0.48878 0.0306619 -0.153563 59 18 10
-0.489047 0.0329951 -0.153485 60 14 5
-0.489314 0.0353299 -0.153407 64 19 10
-0.490338 0.0377046 -0.154246 76 26 12
-0.491367 0.0400911 -0.155087 81 31 15
-0.493168 0.0425386 -0.15686 85 31 8
-0.495764 0.045064 -0.159587 88 29 3
-4.57526 0.450171 -5.06101 83 32 26
-0.510146 -0.00826059 -0.190289 86 38 18
-0.510431 -0.00576889 -0.190207 84 40 18
-0.511582 -0.00332927 -0.191198 84 35 21
-0.511868 -0.000828529 -0.191116 82 31 22
-0.512153 0.00167383 -0.191034 82 36 15
-0.51244 0.00417779 -0.190951 80 29 21
-0.512726 0.00668337 -0.190868 78 20 15
-0.511278 0.00923975 -0.188645 71 21 10
-0.510702 0.0117556 -0.187501 67 21 15
-0.509274 0.0142743 -0.185308 66 19 7
-0.487694 0.0286113 -0.156295 70 35 19
-0.48646 0.0309005 -0.154382 71 30 20
-0.485981 0.0332003 -0.153394 75 26 17
-0.486993 0.035559 -0.154229 78 21 12
-0.488009 0.0379294 -0.155067 80 28 15
-0.490548 0.0404002 -0.15776 81 31 24
-0.492349 0.0428547 -0.159548 83 35 16
-3.93623 0.367607 -4.3366 80 42 26
-4.22419 0.420977 -4.68131 82 41 23
-0.509321 -0.00804655 -0.193231 84 37 20
-0.510471 -0.00560788 -0.194232 82 37 25
-0.510756 -0.00310264 -0.19415 83 37 25
-0.511042 -0.000595791 -0.194068 82 32 25
-0.510461 0.00195432 -0.192904 80 37 17
-0.510747 0.00445857 -0.192822 79 35 20
-0.511032 0.00696442 -0.19274 76 26 20
-0.509592 0.00951979 -0.190509 72 17 14
-0.509877 0.0120173 -0.190427 74 22 14
-0.485638 0.0311869 -0.157034 74 30 29
-0.484416 0.033462 -0.155123 80 33 20
-0.485424 0.0358215 -0.155962 83 30 20
-3.82762 0.312935 -4.25189 82 33 26
-3.83044 0.33771 -4.25108 80 36 24
-3.9192 0.370472 -4.35543 80 36 31
-4.20587 0.424059 -4.70156 82 34 22
-0.508491 -0.00783144 -0.196186 83 38 21
-0.509641 -0.00538629 -0.197198 82 38 27
-0.509927 -0.00287492 -0.197116 81 37 27
-0.510213 -0.000361925 -0.197035 81 35 23
-0.509632 0.00219387 -0.195861 77 36 22
-0.509917 0.00470423 -0.195779 82 34 19
-0.509339 0.00724552 -0.194611 78 28 21
-0.511359 0.00970623 -0.196707 76 18 15
-3.72661 0.284941 -4.17014 82 37 29
-3.72937 0.309153 -4.16935 84 30 24
-3.8138 0.340507 -4.26948 85 35 12
-4.18444 0.39985 -4.72269 82 35 22
-4.51585 0.460168 -5.12667 78 40 23
-0.509093 -0.00264612 -0.200096 83 41 23
-0.509379 -0.000126955 -0.200015 83 39 20
-0.509666 0.00239383 -0.199934 81 36 19
-0.509952 0.00491623 -0.199852 82 32 14
-3.63 0.258175 -4.09193 82 36 17
-3.63269 0.281848 -4.09117 82 34 27
-3.63538 0.305537 -4.0904 81 38 27
-3.97138 0.358709 -4.50499 84 38 16
-4.2694 0.412754 -4.87151 81 39 24
-4.49605 0.463502 -5.14856 78 38 27
-3.46927 0.250801 -3.92697 84 35 15
-3.61678 0.284519 -4.10876 83 34 27
-3.61946 0.30821 -4.108 81 34 26
-3.95393 0.361641 -4.52427 82 37 23
-4.25061 0.415914 -4.89228 81 40 22
-4.47623 0.466836 -5.17046 80 33 21
-3.44889 0.208018 -3.94526 85 36 5
-3.45146 0.230681 -3.94455 85 34 10
-3.45402 0.253358 -3.94383 84 37 11
-3.45659 0.27605 -3.9431 84 39 20
-3.60354 0.310885 -4.1256 81 33 27
-3.76385 0.348902 -4.32468 84 35 15
-4.23181 0.419075 -4.91305 83 39 15
-4.34279 0.458319 -5.04857 77 33 21
-3.43365 0.210571 -3.96211 84 38 18
-3.43621 0.233237 -3.9614 85 35 15
-3.43877 0.255916 -3.96068 81 37 17
-3.51161 0.284117 -4.05 80 40 20
-3.58761 0.313559 -4.1432 82 40 21
-3.667 0.344326 -4.24054 86 31 13
-4.11115 0.412175 -4.80369 81 34 18
-4.55599 0.486109 -5.36664 77 36 23
-4.76178 0.22878 -5.73116 83 37 20
-3.71658 0.230698 -4.36537 87 40 16
-3.80265 0.260905 -4.47241 83 35 19
-3.56634 0.268851 -4.16228 80 37 19
-3.56901 0.292535 -4.16154 82 36 14
-3.57168 0.316234 -4.1608 82 33 21
-3.65071 0.347063 -4.25854 84 31 17
-4.19422 0.425397 -4.9546 81 29 19
-4.53562 0.489537 -5.38916 81 34 12
-1.79772 0.0505317 -1.90969 84 37 16
-1.79902 0.0620631 -1.90933 80 41 21
-1.80032 0.0736021 -1.90898 82 38 18
-4.73667 0.200435 -5.75592 80 37 19
-4.48461 0.220569 -5.42013 83 39 21
-4.488 0.250757 -5.41919 88 40 12
-4.37375 0.273906 -5.26448 86 38 12
-4.4948 0.311191 -5.41732 83 34 20
-3.78847 0.289082 -4.49044 82 44 18
-3.62897 0.301327 -4.27805 83 34 18
-3.63169 0.325556 -4.2773 83 25 25
-4.07142 0.391048 -4.84505 82 36 18
-4.51183 0.462621 -5.41262 83 33 14
-1.78995 0.0518279 -1.91828 84 37 14
-1.79124 0.0633608 -1.91793 81 45 17
-1.79254 0.0749009 -1.91757 83 37 20
-4.4609 0.193796 -5.44352 82 39 16
-4.71875 0.235977 -5.77871 86 40 10
-4.72234 0.267944 -5.77773 85 43 5
-4.72593 0.299931 -5.77674 82 39 13
-4.72952 0.33194 -5.77576 83 36 21
-4.47786 0.34485 -5.43887 84 37 18
-4.36388 0.365517 -5.28362 79 39 30
-4.36719 0.394988 -5.28272 81 28 27
-4.48806 0.435718 -5.43607 79 37 23
-1.78347 0.0646585 -1.92652 81 43 21
-1.78476 0.0762001 -1.92617 82 35 26
-4.69365 0.207625 -5.80347 86 37 15
-4.83537 0.246234 -5.98655 84 38 9
-4.83906 0.279174 -5.98555 82 41 10
-4.84276 0.312135 -5.98454 82 38 15
-4.99358 0.355284 -6.179 84 38 17
-4.99739 0.389318 -6.17796 85 34 22
-4.71516 0.399637 -5.7976 75 41 38
-4.71875 0.431712 -5.79662 78 38 27
-4.80952 0.217021 -6.01206 88 33 16
-4.8132 0.249943 -6.01106 83 32 15
-4.81688 0.282886 -6.01006 79 40 19
-4.96689 0.325103 -6.20533 83 34 16
-5.12657 0.370065 -6.4132 85 38 10
-5.1305 0.405202 -6.41213 85 37 21
-5.13443 0.440362 -6.41107 78 37 28
