ply
format ascii 1.0
element vertex 1239
property float x
property float y
property float z
property uchar diffuse_red
property uchar diffuse_green
property uchar diffuse_blue
end_header
-0.316046 -0.00679817 0.236689 70 65 59
-0.316625 -0.00570156 0.236485 68 65 56
-0.318511 -0.0044288 0.235817 68 62 56
-0.319324 -0.00328405 0.23553 67 62 54
-0.319701 -0.00219289 0.235398 65 61 55
-0.319636 -0.00116196 0.235422 66 60 56
-0.319571 -0.000131556 0.235446 65 59 50
-0.319728 0.000932191 0.235391 63 59 47
-0.320106 0.00203248 0.235258 62 59 47
-0.322994 0.00671042 0.234239 59 56 45
-0.324303 0.0080025 0.233776 58 54 47
-0.324699 0.00913734 0.233636 59 53 48
-0.324402 0.0101443 0.233743 60 53 48
-0.324336 0.0111936 0.233767 61 51 45
-0.32404 0.0121964 0.233873 61 51 46
-0.323744 0.0131968 0.233979 57 52 46
-0.322536 0.0140047 0.234408 56 52 47
-0.322017 0.0149481 0.234593 59 53 48
-0.3215 0.0158874 0.234777 58 51 50
-0.321435 0.016922 0.234801 60 49 47
-0.32137 0.0179562 0.234825 60 52 43
-0.321757 0.0190939 0.234689 51 44 37
-0.322145 0.0202356 0.234553 45 38 35
-0.326474 0.0223255 0.23302 42 39 40
-0.327116 0.0235544 0.232793 49 46 41
-0.327287 0.0246717 0.232734 54 55 45
-0.327221 0.0257305 0.232758 52 54 50
-0.327392 0.02685 0.232699 75 75 67
-0.343101 -0.0871843 0.225803 218 123 104
-0.322141 -0.0691282 0.233355 77 50 39
-0.322296 -0.0680999 0.2333 78 43 33
-0.322675 -0.0671019 0.233165 73 43 32
-0.322609 -0.0660392 0.23319 62 39 31
-0.307333 -0.0413059 0.238704 78 68 63
-0.30649 -0.0402975 0.239008 75 68 63
-0.306429 -0.0393152 0.239031 75 69 64
-0.306367 -0.0383333 0.239054 80 72 68
-0.306695 -0.0373577 0.238937 87 73 67
-0.306634 -0.0363751 0.23896 90 80 69
-0.306767 -0.0353941 0.238913 88 82 71
-0.307293 -0.0344122 0.238725 87 83 71
-0.307624 -0.0334263 0.238607 84 76 68
-0.308155 -0.0324356 0.238417 81 71 64
-0.308888 -0.0314375 0.238155 76 69 66
-0.309025 -0.030443 0.238106 73 66 62
-0.309163 -0.0294472 0.238058 73 68 64
-0.309301 -0.0284501 0.238009 83 73 67
-0.309238 -0.027458 0.238032 87 87 77
-0.309577 -0.0264521 0.237912 82 78 68
-0.309918 -0.025443 0.23779 74 70 67
-0.310057 -0.0244398 0.237741 78 72 68
-0.310197 -0.0234353 0.237692 86 82 73
-0.310946 -0.0223967 0.237423 90 81 74
-0.311496 -0.0213629 0.237227 84 73 67
-0.311843 -0.0203368 0.237103 74 68 61
-0.311986 -0.0193212 0.237052 76 68 64
-0.312542 -0.0182746 0.236854 76 69 64
-0.312686 -0.0172544 0.236803 76 69 61
-0.313038 -0.016216 0.236677 72 66 62
-0.312975 -0.0152099 0.236701 76 67 61
-0.31312 -0.0141856 0.23665 78 72 63
-0.313474 -0.0131402 0.236524 73 68 62
-0.31362 -0.0121121 0.236472 69 65 61
-0.313557 -0.0111043 0.236496 67 63 59
-0.313913 -0.0100517 0.236369 69 63 58
-0.314904 -0.00892426 0.236014 68 65 58
-0.315477 -0.00783671 0.235809 67 63 57
-0.31584 -0.00676956 0.235679 66 62 52
-0.315991 -0.005726 0.235626 66 62 49
-0.317435 -0.00451151 0.235108 64 62 51
-0.318899 -0.00328122 0.234583 64 61 52
-0.319054 -0.00222086 0.234528 63 59 47
-0.318989 -0.00119084 0.234553 64 56 47
-0.318925 -0.000161371 0.234577 62 54 45
-0.319522 0.000969279 0.234363 59 55 45
-0.324924 0.00606461 0.232426 60 51 43
-0.324858 0.00711926 0.232451 55 52 42
-0.32456 0.00813143 0.232559 56 51 44
-0.324494 0.00918393 0.232584 58 51 44
-0.324428 0.0102359 0.232608 59 50 43
-0.324363 0.0112873 0.232633 60 48 44
-0.324297 0.0123381 0.232658 58 50 47
-0.32377 0.0132944 0.232848 53 51 48
-0.323245 0.0142463 0.233038 54 52 45
-0.322039 0.0150487 0.233472 55 53 45
-0.321747 0.0160387 0.233578 57 48 46
-0.321456 0.0170264 0.233683 58 47 47
-0.321617 0.0181138 0.233626 55 49 41
-0.321779 0.0192028 0.233569 52 46 40
-0.323771 0.0207249 0.232855 51 43 40
-0.326742 0.0225001 0.231788 50 43 38
-0.326913 0.023617 0.231728 47 42 37
-0.327084 0.0247355 0.231668 51 52 40
-0.327255 0.0258558 0.231607 51 53 45
-0.327188 0.0269163 0.231632 67 68 62
-0.341846 -0.0870223 0.225043 230 127 109
-0.341254 -0.0857582 0.22526 211 116 97
-0.322376 -0.0692306 0.232152 73 43 36
-0.32231 -0.0681667 0.232177 64 29 25
-0.322243 -0.0671034 0.232203 73 36 31
-0.3224 -0.0660713 0.232147 70 37 35
-0.305052 -0.0422205 0.238488 78 75 67
-0.304799 -0.041236 0.238581 82 68 62
-0.304738 -0.0402592 0.238605 83 72 62
-0.304869 -0.0392875 0.238558 86 78 68
-0.305 -0.0383145 0.238511 92 84 74
-0.304938 -0.0373375 0.238534 98 84 73
-0.30507 -0.036363 0.238487 93 85 74
-0.305975 -0.0353914 0.238158 81 76 73
-0.306303 -0.0344111 0.23804 82 73 67
-0.306828 -0.033427 0.23785 84 71 63
-0.307158 -0.0324397 0.23773 80 71 61
-0.307688 -0.0314468 0.237538 75 68 62
-0.308419 -0.0304455 0.237273 71 63 59
-0.308556 -0.0294506 0.237224 71 65 59
-0.308693 -0.0284543 0.237175 86 78 66
-0.308831 -0.0274568 0.237126 83 81 72
-0.308969 -0.026458 0.237076 75 70 63
-0.309308 -0.0254498 0.236954 72 70 62
-0.309447 -0.0244474 0.236904 81 75 67
-0.309586 -0.0234438 0.236854 80 73 66
-0.310535 -0.0223952 0.236509 82 75 72
-0.311084 -0.0213613 0.23631 81 74 67
-0.311226 -0.020348 0.23626 74 69 61
-0.311368 -0.0193333 0.236209 74 69 62
-0.311922 -0.0182877 0.236008 73 65 61
-0.312272 -0.0172526 0.235881 70 64 61
-0.312624 -0.0162141 0.235754 70 64 59
-0.312561 -0.0152079 0.235778 69 65 59
-0.312705 -0.0141835 0.235727 69 69 61
-0.313059 -0.013138 0.235599 69 63 59
-0.313204 -0.0121099 0.235547 68 60 57
-0.31356 -0.0110586 0.235418 64 60 58
-0.315848 -0.00671478 0.234589 62 56 50
-0.315357 -0.00575039 0.234769 63 58 49
-0.315507 -0.00470631 0.234715 64 60 49
-0.318254 -0.00330814 0.233716 63 57 47
-0.318408 -0.00224876 0.23366 62 53 46
-0.318564 -0.00118787 0.233605 62 51 42
-0.318499 -0.000158332 0.233629 58 52 42
-0.324421 0.00712281 0.231479 57 49 39
-0.324355 0.00817699 0.231504 57 50 39
-0.324289 0.0092306 0.231529 59 50 40
-0.324455 0.0103278 0.23147 59 49 40
-0.324389 0.0113813 0.231495 59 48 43
-0.324092 0.0123881 0.231604 55 51 47
-0.323795 0.0133923 0.231713 52 55 47
-0.323269 0.0143461 0.231905 53 51 41
-0.322745 0.0152955 0.232097 54 50 41
-0.322224 0.0162406 0.232288 56 46 43
-0.322386 0.0173332 0.23223 54 47 45
-0.322321 0.0183757 0.232254 52 48 40
-0.323402 0.0196828 0.231862 53 44 42
-0.324959 0.0211125 0.231296 54 46 41
-0.326538 0.0225616 0.230722 56 47 42
-0.326709 0.0236797 0.230661 49 43 41
-0.32688 0.0247995 0.2306 51 48 38
-0.326813 0.0258606 0.230625 51 51 43
-0.326747 0.0269211 0.23065 61 63 63
-0.340786 -0.085761 0.224219 223 121 102
-0.340455 -0.0845548 0.224343 206 114 95
-0.338841 -0.083099 0.22494 185 104 88
-0.32239 -0.0692997 0.231025 71 48 43
-0.322547 -0.0682665 0.230968 50 27 23
-0.32248 -0.0672001 0.230994 60 31 25
-0.322637 -0.0661651 0.230936 70 41 31
-0.306762 -0.0482138 0.236813 73 66 57
-0.306505 -0.0472126 0.236908 78 69 59
-0.306055 -0.046203 0.237076 74 66 59
-0.304713 -0.0431991 0.237574 79 70 63
-0.303887 -0.0421918 0.237879 75 75 68
-0.303826 -0.041217 0.237903 82 67 64
-0.303766 -0.0402428 0.237926 81 70 65
-0.303895 -0.0392736 0.237879 90 82 74
-0.304025 -0.0383031 0.237832 96 91 81
-0.304155 -0.0373315 0.237785 87 78 75
-0.304477 -0.0363605 0.237667 82 69 66
-0.304608 -0.0353856 0.237619 80 67 67
-0.305512 -0.0344101 0.237287 77 67 66
-0.306034 -0.0334277 0.237095 79 70 63
-0.306558 -0.0324405 0.236902 80 74 63
-0.307086 -0.0314484 0.236709 75 65 61
-0.307616 -0.0304515 0.236514 72 65 61
-0.30795 -0.0294539 0.236391 72 65 58
-0.308286 -0.0284532 0.236268 85 77 65
-0.308224 -0.0274618 0.236292 86 77 66
-0.308561 -0.0264568 0.236169 76 66 60
-0.308899 -0.0254485 0.236045 70 66 63
-0.309038 -0.0244461 0.235994 75 70 61
-0.309177 -0.0234423 0.235944 78 71 66
-0.310125 -0.0223937 0.235595 75 70 64
-0.310673 -0.0213597 0.235394 75 71 63
-0.310814 -0.0203463 0.235343 74 66 61
-0.310956 -0.0193316 0.235291 71 66 59
-0.311509 -0.0182859 0.235088 70 65 61
-0.311858 -0.0172507 0.23496 66 61 59
-0.312209 -0.0162122 0.234832 67 60 59
-0.312146 -0.0152059 0.234856 66 61 55
-0.312291 -0.0141815 0.234803 64 61 57
-0.312852 -0.0131161 0.234597 66 60 57
-0.313625 -0.0120243 0.234313 66 60 49
-0.315087 -0.00470359 0.23378 65 55 43
-0.317828 -0.00330532 0.232769 62 54 43
-0.317983 -0.00224585 0.232713 59 52 45
-0.317919 -0.00121669 0.232738 56 49 42
-0.318293 -0.000122423 0.232601 54 50 42
-0.324447 0.00720841 0.230336 57 46 38
-0.324381 0.00826474 0.230361 57 46 35
-0.324315 0.00932052 0.230386 55 46 35
-0.324249 0.0103757 0.230412 55 47 37
-0.324183 0.0114304 0.230437 57 48 41
-0.324118 0.0124845 0.230462 55 50 44
-0.32359 0.0134435 0.230658 53 53 42
-0.323294 0.0144462 0.230768 53 50 38
-0.322769 0.0153974 0.230963 55 47 39
-0.322475 0.0163941 0.231072 54 45 41
-0.323097 0.0175925 0.230844 53 46 40
-0.323032 0.0186401 0.230869 52 49 37
-0.322966 0.0196872 0.230894 50 46 42
-0.324521 0.021117 0.230321 54 50 41
-0.326097 0.0225662 0.229741 55 47 43
-0.326504 0.0237426 0.229592 53 45 44
-0.326438 0.0248043 0.229617 54 47 39
-0.326371 0.0258654 0.229643 54 49 44
-0.326542 0.0269875 0.22958 57 57 66
-0.339988 -0.0845575 0.223303 217 121 99
-0.338633 -0.0831519 0.223811 200 112 95
-0.323753 -0.0695739 0.229388 74 54 47
-0.32301 -0.0684 0.229667 44 29 24
-0.322943 -0.0673294 0.229693 47 25 20
-0.323101 -0.0662903 0.229635 65 39 27
-0.30642 -0.049204 0.235889 70 64 57
-0.306163 -0.0482014 0.235986 69 68 57
-0.305713 -0.0471895 0.236155 69 63 59
-0.304687 -0.0461495 0.236539 69 63 61
-0.304626 -0.0451682 0.236563 71 63 63
-0.30361 -0.0441429 0.236944 81 76 66
-0.30298 -0.0431431 0.237181 78 60 59
-0.30292 -0.0421704 0.237204 78 76 61
-0.302859 -0.0411982 0.237228 109 62 59
-0.302798 -0.0402265 0.237251 96 94 73
-0.303116 -0.0392642 0.237133 82 73 65
-0.303246 -0.0382955 0.237086 94 88 76
-0.303565 -0.0373283 0.236967 94 84 78
-0.303695 -0.0363562 0.236919 83 74 66
-0.304017 -0.035384 0.2368 77 70 64
-0.304917 -0.0344092 0.236464 76 67 63
-0.305243 -0.0334284 0.236343 81 68 62
-0.305959 -0.0324413 0.236076 90 82 69
-0.306288 -0.0314526 0.235954 75 67 62
-0.306816 -0.0304574 0.235758 72 66 61
-0.307346 -0.0294573 0.23556 72 66 61
-0.30768 -0.0284574 0.235436 79 75 66
-0.307817 -0.0274607 0.235386 80 77 64
-0.308153 -0.0264555 0.235261 70 64 59
-0.308491 -0.0254472 0.235136 68 64 60
-0.308629 -0.0244447 0.235085 70 63 60
-0.308969 -0.023431 0.234959 69 63 58
-0.309714 -0.0223922 0.234681 68 62 60
-0.310261 -0.0213582 0.234477 69 63 54
-0.310606 -0.0203318 0.234349 68 63 57
-0.310953 -0.0193022 0.23422 67 61 57
-0.311096 -0.0182841 0.234168 64 60 58
-0.311444 -0.0172488 0.234038 64 59 50
-0.311794 -0.0162102 0.233908 66 61 54
-0.311938 -0.0151861 0.233855 64 59 48
-0.312083 -0.0141606 0.233802 62 60 49
-0.313271 -0.0130344 0.233359 64 58 47
-0.314261 -0.0119171 0.23299 65 54 43
-0.315093 -0.00464469 0.232685 61 50 39
-0.316534 -0.00342097 0.232147 60 53 40
-0.317121 -0.0023044 0.231929 58 53 43
-0.317275 -0.00124546 0.231872 54 49 41
-0.317866 -0.000119387 0.231652 53 47 40
-0.325173 0.00741854 0.228926 53 47 38
-0.32464 0.00839522 0.229127 53 47 34
-0.324109 0.00936747 0.229326 52 48 34
-0.324043 0.0104238 0.229351 53 47 36
-0.323978 0.0114796 0.229377 54 45 38
-0.32368 0.0124884 0.229489 53 46 39
-0.323615 0.013542 0.229515 51 47 38
-0.323088 0.0144984 0.229713 50 48 38
-0.322792 0.0154996 0.229824 51 46 39
-0.322957 0.0165987 0.229763 53 44 39
-0.322892 0.017648 0.229789 54 44 36
-0.323287 0.0188018 0.229642 51 48 39
-0.324148 0.0200675 0.229321 49 48 40
-0.325486 0.0214542 0.228822 56 48 40
-0.325892 0.0226278 0.228671 53 46 44
-0.326062 0.0237473 0.228608 56 50 45
-0.325996 0.0248091 0.228634 56 48 41
-0.326167 0.0259307 0.228571 55 49 46
-0.3261 0.0269925 0.228597 55 53 66
-0.33978 -0.0846124 0.222165 225 125 104
-0.338936 -0.0833062 0.222486 209 113 97
-0.323997 -0.0696789 0.228158 81 59 46
-0.32325 -0.0685012 0.228442 51 31 21
-0.323183 -0.0674274 0.228468 39 22 17
-0.323342 -0.0663853 0.228409 50 27 25
-0.306077 -0.050195 0.234964 76 62 59
-0.305821 -0.0491909 0.235062 78 60 58
-0.305565 -0.0481891 0.23516 76 68 54
-0.30531 -0.0471897 0.235257 66 65 52
-0.304286 -0.0461496 0.235646 59 61 60
-0.303462 -0.0451291 0.23596 56 55 55
-0.302643 -0.0441164 0.236271 65 58 45
-0.302205 -0.0431272 0.236437 73 60 53
-0.302145 -0.0421561 0.236461 70 56 55
-0.302085 -0.0411856 0.236485 73 56 54
-0.302212 -0.0402209 0.236437 89 78 74
-0.30234 -0.0392549 0.23639 79 72 68
-0.302658 -0.0382915 0.23627 81 75 67
-0.302786 -0.0373223 0.236222 92 87 75
-0.303106 -0.0363538 0.236102 89 80 72
-0.303426 -0.0353823 0.235982 79 75 62
-0.304323 -0.0344084 0.235643 73 67 59
-0.304647 -0.0334284 0.235521 73 70 61
-0.305167 -0.0324437 0.235325 74 72 67
-0.305494 -0.0314567 0.235202 68 66 58
-0.306018 -0.0304633 0.235004 69 65 57
-0.306545 -0.0294649 0.234805 70 65 60
-0.307075 -0.0284616 0.234605 71 67 60
-0.307212 -0.0274657 0.234554 70 67 59
-0.307746 -0.0264543 0.234353 69 61 55
-0.308282 -0.0254379 0.234151 69 64 57
-0.308421 -0.0244344 0.234099 68 64 58
-0.308559 -0.0234295 0.234047 66 64 56
-0.309911 -0.0223578 0.233536 65 61 57
-0.310256 -0.0213327 0.233406 66 58 52
-0.310398 -0.0203173 0.233354 65 61 50
-0.310745 -0.0192866 0.233223 64 62 52
-0.310887 -0.0182675 0.23317 63 62 53
-0.31103 -0.017247 0.233117 66 54 44
-0.311379 -0.0162083 0.232985 65 61 43
-0.311523 -0.0151841 0.232932 58 59 46
-0.312082 -0.0141209 0.232721 60 59 47
-0.313273 -0.0129923 0.232271 62 58 44
-0.314053 -0.0118937 0.231976 62 53 44
-0.316326 -0.00338861 0.231122 62 49 38
-0.316263 -0.00236271 0.231147 60 49 39
-0.316632 -0.00127418 0.231008 53 44 39
-0.31876 8.21571e-05 0.230203 50 44 41
-0.324667 0.00848387 0.227973 54 46 35
-0.324135 0.00945793 0.228175 52 47 34
-0.323837 0.010472 0.228289 52 48 35
-0.32354 0.0114834 0.228403 53 48 36
-0.323474 0.0125387 0.228428 52 47 37
-0.323177 0.013546 0.228542 49 48 38
-0.322881 0.0145508 0.228655 47 48 38
-0.322586 0.015553 0.228767 48 44 39
-0.322751 0.0166533 0.228706 52 43 39
-0.322916 0.0177552 0.228645 55 46 38
-0.324708 0.0192304 0.227967 49 51 41
-0.325111 0.0203984 0.227815 52 48 41
-0.325281 0.0215146 0.227752 57 46 41
-0.32545 0.0226324 0.227689 54 48 45
-0.32562 0.023752 0.227625 56 51 44
-0.32579 0.0248732 0.227562 56 51 42
-0.325724 0.0259355 0.227588 55 52 48
-0.325658 0.0269974 0.227614 54 52 62
-0.339241 -0.0834614 0.221153 218 116 102
-0.338399 -0.0821593 0.221477 201 111 95
-0.323786 -0.0697152 0.227096 92 62 48
-0.323719 -0.0686365 0.227122 61 32 25
-0.323198 -0.0674936 0.227323 42 20 16
-0.323132 -0.0664181 0.227349 44 21 20
-0.305734 -0.0511866 0.234039 76 62 56
-0.305478 -0.050181 0.234138 66 60 61
-0.305417 -0.0491912 0.234163 57 44 55
-0.305162 -0.0481894 0.234261 62 33 31
-0.304907 -0.0471899 0.23436 56 37 28
-0.303885 -0.0461498 0.234753 58 47 36
-0.302683 -0.0451098 0.235215 66 46 39
-0.301868 -0.0440989 0.235529 65 61 50
-0.301808 -0.0431272 0.235553 68 62 57
-0.30156 -0.042149 0.235649 72 64 57
-0.3015 -0.0411792 0.235673 67 56 45
-0.301627 -0.0402153 0.235625 75 50 55
-0.301755 -0.0392501 0.235577 97 94 83
-0.302071 -0.0382874 0.235456 83 62 60
-0.302388 -0.0373218 0.235335 82 74 68
-0.302517 -0.0363513 0.235287 85 81 72
-0.302836 -0.0353807 0.235165 82 76 66
-0.303538 -0.0344074 0.234896 73 67 58
-0.304245 -0.0334276 0.234626 67 64 57
-0.30457 -0.0324445 0.234502 68 59 53
-0.30509 -0.0314559 0.234303 67 60 52
-0.305419 -0.0304658 0.234178 68 59 59
-0.305748 -0.0294726 0.234053 68 62 60
-0.306078 -0.0284763 0.233927 69 61 57
-0.306607 -0.0274708 0.233724 69 62 56
-0.307139 -0.0264602 0.233521 67 60 54
-0.307873 -0.0254366 0.23324 67 61 52
-0.308212 -0.024424 0.233111 64 60 53
-0.30835 -0.0234182 0.233059 65 59 52
-0.309499 -0.0223563 0.232619 65 59 51
-0.310047 -0.0213191 0.23241 63 59 49
-0.310189 -0.0203027 0.232356 64 62 47
-0.310331 -0.0192849 0.232303 62 59 47
-0.310473 -0.0182657 0.232249 61 55 49
-0.310616 -0.0172451 0.232195 65 53 46
-0.310965 -0.0162064 0.232062 61 53 39
-0.311729 -0.0151285 0.23177 56 52 43
-0.31229 -0.0140621 0.231555 59 53 44
-0.313485 -0.0129299 0.231097 59 52 42
-0.313633 -0.0118915 0.231042 56 49 45
-0.316271 -0.0022986 0.230037 56 48 38
-0.316424 -0.00123953 0.22998 55 46 38
-0.318552 0.000118533 0.229164 52 44 37
-0.32363 0.0105202 0.227224 50 47 35
-0.323333 0.0115327 0.227339 53 47 36
-0.322805 0.0124963 0.227543 52 46 35
-0.32274 0.01355 0.227569 50 45 35
-0.322675 0.0146032 0.227595 49 46 37
-0.322609 0.0156559 0.227621 51 43 38
-0.322544 0.016708 0.227647 52 43 38
-0.324334 0.0181754 0.226961 55 46 37
-0.324971 0.0193956 0.226717 49 49 40
-0.324905 0.0204576 0.226744 53 50 39
-0.325074 0.0215751 0.22668 55 50 42
-0.325008 0.022637 0.226706 56 51 44
-0.325414 0.023815 0.226551 56 49 44
-0.325348 0.024878 0.226577 59 53 41
-0.325282 0.0259404 0.226604 56 53 46
-0.325452 0.0270639 0.226539 55 55 59
-0.338702 -0.0823109 0.220141 211 116 100
-0.338373 -0.0811098 0.220269 194 108 91
-0.323347 -0.0697169 0.226119 99 62 51
-0.323281 -0.0686382 0.226146 65 38 32
-0.322987 -0.0675275 0.226261 42 22 20
-0.32292 -0.066451 0.226288 35 21 21
-0.32308 -0.0654054 0.226227 46 25 24
-0.305003 -0.0521465 0.233264 60 37 39
-0.304942 -0.0511565 0.233289 68 40 38
-0.305074 -0.0501814 0.233238 66 41 34
-0.305013 -0.0491916 0.233263 54 42 32
-0.304565 -0.0481771 0.233438 61 42 32
-0.304119 -0.0471668 0.233612 61 49 36
-0.303293 -0.0461392 0.233934 64 52 44
-0.302095 -0.0451001 0.2344 66 60 49
-0.301471 -0.0440989 0.234644 67 60 51
-0.301223 -0.0431192 0.234741 67 64 57
-0.300977 -0.0421418 0.234838 71 64 57
-0.300916 -0.0411728 0.234862 67 62 54
-0.30123 -0.040215 0.234741 62 51 64
-0.30117 -0.0392454 0.234765 122 110 87
-0.301485 -0.0382834 0.234643 90 58 59
-0.301801 -0.0373186 0.234521 74 66 60
-0.302118 -0.0363508 0.234399 77 73 67
-0.302247 -0.0353791 0.23435 78 75 67
-0.303137 -0.0344068 0.234004 75 68 62
-0.303651 -0.0334276 0.233806 67 63 57
-0.304167 -0.0324437 0.233606 66 58 50
-0.304493 -0.0314575 0.23348 66 60 51
-0.30482 -0.0304682 0.233354 66 61 50
-0.305148 -0.0294759 0.233227 65 63 54
-0.305477 -0.0284805 0.2331 68 61 50
-0.305808 -0.0274819 0.232972 65 61 54
-0.306732 -0.026459 0.232614 63 61 53
-0.307464 -0.0254353 0.23233 64 60 50
-0.308002 -0.0244136 0.232122 67 59 46
-0.307941 -0.0234167 0.232147 63 53 45
-0.309087 -0.0223548 0.231702 64 55 46
-0.309634 -0.0213176 0.23149 65 52 42
-0.309775 -0.020301 0.231436 61 55 43
-0.309917 -0.0192831 0.231382 60 54 44
-0.310059 -0.0182639 0.231327 53 57 41
-0.310202 -0.0172433 0.231273 61 52 48
-0.311168 -0.0161538 0.230898 59 46 42
-0.311312 -0.0151265 0.230843 57 50 37
-0.313129 -0.0139455 0.230138 61 54 39
-0.313065 -0.0129277 0.230163 60 51 42
-0.313213 -0.0118893 0.230107 58 47 41
-0.323125 0.0115821 0.226274 53 46 39
-0.322829 0.0125931 0.22639 53 45 36
-0.322303 0.013554 0.226595 53 44 34
-0.322237 0.0146073 0.226622 52 44 37
-0.322172 0.01566 0.226648 54 41 37
-0.322798 0.0168642 0.226406 51 42 36
-0.32483 0.0183901 0.225617 50 46 37
-0.324764 0.0194539 0.225644 50 47 41
-0.324698 0.020517 0.22567 51 50 37
-0.324632 0.0215796 0.225697 53 50 43
-0.324802 0.0226988 0.225632 57 51 45
-0.324971 0.0238197 0.225567 59 51 46
-0.325141 0.0249422 0.225502 63 54 45
-0.325076 0.0260058 0.225528 59 50 47
-0.32501 0.0270688 0.225555 57 58 60
-0.338163 -0.0811609 0.219129 205 113 98
-0.338092 -0.0800089 0.219158 190 102 87
-0.322842 -0.0686398 0.22517 71 45 31
-0.322775 -0.0675616 0.225197 43 29 22
-0.322709 -0.0664839 0.225224 34 24 20
-0.322642 -0.0654068 0.225251 43 22 20
-0.304406 -0.0521309 0.23244 52 40 35
-0.303578 -0.051081 0.232767 61 45 38
-0.304284 -0.0501531 0.23249 61 46 42
-0.304223 -0.049165 0.232515 61 51 41
-0.303778 -0.0481523 0.232691 66 54 44
-0.302953 -0.0471206 0.233016 65 59 50
-0.302323 -0.0461074 0.233265 64 59 51
-0.301509 -0.0450905 0.233587 64 59 51
-0.300886 -0.0440901 0.233832 66 60 51
-0.30064 -0.0431113 0.23393 66 59 53
-0.30058 -0.0421417 0.233955 65 61 50
-0.30052 -0.0411727 0.233979 63 58 47
-0.300646 -0.0402094 0.23393 71 53 60
-0.300773 -0.039245 0.233881 83 77 75
-0.301087 -0.038283 0.233758 75 60 53
-0.301403 -0.0373181 0.233635 74 70 61
-0.301531 -0.0363484 0.233585 72 65 58
-0.301848 -0.0353785 0.233461 70 66 60
-0.302736 -0.0344061 0.233112 69 65 59
-0.303249 -0.0334269 0.232911 67 61 56
-0.303572 -0.0324445 0.232785 67 59 55
-0.303897 -0.0314591 0.232658 65 61 51
-0.304416 -0.0304673 0.232454 66 62 50
-0.304743 -0.0294749 0.232326 63 58 49
-0.305072 -0.0284794 0.232198 64 59 45
-0.305011 -0.0274931 0.232223 66 61 51
-0.306324 -0.0264578 0.231707 62 61 54
-0.307055 -0.025434 0.231419 64 57 46
-0.307592 -0.0244122 0.231209 62 49 46
-0.308737 -0.0233552 0.230759 57 55 50
-0.308675 -0.0223533 0.230785 63 56 48
-0.309018 -0.021328 0.23065 67 54 41
-0.309362 -0.0202994 0.230516 59 48 42
-0.309503 -0.0192814 0.230461 53 49 42
-0.309645 -0.0182621 0.230406 52 51 44
-0.309992 -0.0172255 0.23027 54 53 47
-0.310959 -0.0161349 0.229891 56 48 42
-0.311934 -0.0150345 0.229508 57 49 38
-0.312919 -0.0139242 0.229121 57 46 38
-0.312646 -0.0129255 0.229229 60 48 41
-0.312793 -0.011887 0.229172 62 49 38
-0.322621 0.0126436 0.225324 52 47 38
-0.322325 0.013653 0.225441 51 47 36
-0.32249 0.0147571 0.225377 50 46 38
-0.322425 0.015813 0.225404 50 42 39
-0.324689 0.0173819 0.224514 51 44 37
-0.324623 0.0184473 0.224541 51 45 37
-0.324557 0.0195122 0.224567 51 47 39
-0.324256 0.0205215 0.224687 50 48 39
-0.324425 0.0216402 0.224621 51 49 42
-0.324595 0.0227607 0.224555 56 53 45
-0.324764 0.0238828 0.224489 63 52 47
-0.324935 0.0250067 0.224423 64 54 50
-0.324869 0.0260714 0.22445 59 50 51
-0.324803 0.0271355 0.224477 58 59 63
-0.337881 -0.0800588 0.218015 207 111 96
-0.322537 -0.0707999 0.224139 161 93 76
-0.322404 -0.0686415 0.224193 83 54 42
-0.322337 -0.0675632 0.224221 49 30 24
-0.322271 -0.0664854 0.224248 35 22 19
-0.322204 -0.0654082 0.224276 36 20 19
-0.302605 -0.0510362 0.232099 60 49 38
-0.302354 -0.0500395 0.2322 67 47 38
-0.302294 -0.0490584 0.232225 65 52 37
-0.302044 -0.0480654 0.232325 65 57 41
-0.301984 -0.0470863 0.23235 64 54 46
-0.301358 -0.0460758 0.2326 67 61 50
-0.300923 -0.045081 0.232774 68 59 52
-0.300303 -0.0440814 0.233022 68 62 48
-0.300243 -0.0431112 0.233047 64 58 48
-0.300183 -0.0421416 0.233072 58 49 37
-0.300123 -0.0411725 0.233096 50 45 39
-0.30025 -0.0402092 0.233047 67 42 36
-0.30019 -0.0392403 0.233071 70 58 41
-0.300503 -0.038279 0.232947 67 61 56
-0.301004 -0.0373177 0.232748 67 65 59
-0.301132 -0.0363479 0.232698 66 64 53
-0.301449 -0.0353779 0.232573 66 61 54
-0.302336 -0.0344054 0.23222 64 60 50
-0.302847 -0.0334262 0.232017 63 58 52
-0.30317 -0.0324437 0.231889 65 58 52
-0.303494 -0.0314583 0.231761 64 54 51
-0.303818 -0.0304698 0.231632 62 56 46
-0.304145 -0.0294782 0.231503 58 61 44
-0.304472 -0.0284835 0.231373 64 56 44
-0.304606 -0.0274919 0.231321 65 53 47
-0.305523 -0.0264708 0.230956 62 59 50
-0.307244 -0.0254084 0.230271 63 57 46
-0.308325 -0.0233538 0.229842 60 51 39
-0.308667 -0.0223297 0.229706 62 53 40
-0.308605 -0.0213264 0.229731 63 52 45
-0.309152 -0.0202847 0.229514 59 49 39
-0.30909 -0.0192797 0.22954 55 41 35
-0.309435 -0.0182454 0.229403 54 51 43
-0.309782 -0.0172078 0.229266 49 48 39
-0.310542 -0.016133 0.228964 49 45 37
-0.3111 -0.0150686 0.228742 50 43 42
-0.312289 -0.0139413 0.228269 51 44 39
-0.311807 -0.0129636 0.228462 47 42 39
-0.311954 -0.011927 0.228404 48 43 37
-0.325018 0.016473 0.22322 49 46 40
-0.324952 0.0175422 0.223247 50 46 37
-0.324415 0.0185046 0.223462 50 47 41
-0.324114 0.0195166 0.223582 50 48 41
-0.324048 0.020581 0.22361 52 47 41
-0.323983 0.0216448 0.223637 55 51 42
-0.324152 0.0227653 0.22357 57 54 45
-0.324557 0.0239461 0.22341 61 54 47
-0.324727 0.0250712 0.223343 62 55 50
-0.324661 0.026137 0.22337 60 51 50
-0.324595 0.0272023 0.223397 58 56 61
-0.322032 -0.0697221 0.223189 150 98 84
-0.321965 -0.0686431 0.223217 96 71 62
-0.321899 -0.0675647 0.223245 58 33 28
-0.321832 -0.0664869 0.223272 38 22 19
-0.321766 -0.0654097 0.2233 35 21 15
-0.302014 -0.0510217 0.231282 56 41 38
-0.301576 -0.0500117 0.23146 57 46 40
-0.301328 -0.0490191 0.231561 59 45 37
-0.30108 -0.0480287 0.231662 63 52 37
-0.301019 -0.0470521 0.231687 65 52 43
-0.300585 -0.0460549 0.231863 67 57 48
-0.299966 -0.0450521 0.232114 64 58 47
-0.299535 -0.0440639 0.232288 51 55 41
-0.299476 -0.0430954 0.232313 47 41 36
-0.299601 -0.0421345 0.232263 49 37 28
-0.299727 -0.0411723 0.232213 51 38 33
-0.299667 -0.0402036 0.232238 58 46 38
-0.299793 -0.0392399 0.232188 63 58 45
-0.300105 -0.0382787 0.232063 63 58 52
-0.300606 -0.0373172 0.231861 64 54 45
-0.300734 -0.0363473 0.231811 64 57 48
-0.301238 -0.0353783 0.231608 65 54 47
-0.302315 -0.0344051 0.231174 65 52 47
-0.302636 -0.0334247 0.231045 65 56 37
-0.302767 -0.0324429 0.230993 57 61 38
-0.30309 -0.0314574 0.230863 62 58 44
-0.303415 -0.0304688 0.230733 58 56 45
-0.303547 -0.0294815 0.230681 54 54 43
-0.304067 -0.0284825 0.230472 64 51 43
-0.3042 -0.0274908 0.230418 61 52 47
-0.306299 -0.0264268 0.229573 59 53 45
-0.308456 -0.0223171 0.228705 61 53 41
-0.308394 -0.0213128 0.228731 56 51 37
-0.308738 -0.0202831 0.228593 50 46 38
-0.309083 -0.0192501 0.228455 51 47 38
-0.309225 -0.0182287 0.228398 56 46 37
-0.309776 -0.0171741 0.228176 54 43 35
-0.310125 -0.016131 0.228036 57 42 32
-0.310682 -0.0150666 0.227812 54 41 40
-0.310827 -0.0140347 0.227755 52 45 39
-0.310972 -0.0130015 0.227697 49 41 35
-0.311326 -0.0119459 0.227555 49 41 31
-0.324574 0.0164772 0.222231 48 48 42
-0.323803 0.0173904 0.222543 50 47 40
-0.323737 0.018456 0.22257 51 44 41
-0.323671 0.019521 0.222597 52 44 40
-0.323372 0.0205304 0.222719 54 47 39
-0.323306 0.0215932 0.222746 56 50 41
-0.323709 0.0227699 0.222585 57 55 44
-0.324349 0.0240095 0.222328 57 58 46
-0.324519 0.0251359 0.22226 59 59 49
-0.324453 0.0262029 0.222287 62 53 47
-0.324388 0.0272693 0.222315 60 53 56
-0.321527 -0.0686448 0.22224 114 83 72
-0.32146 -0.0675663 0.222268 68 39 35
-0.321394 -0.0664884 0.222296 41 23 18
-0.321328 -0.0654111 0.222324 35 22 15
-0.321712 -0.0643932 0.222168 37 22 16
-0.301176 -0.0500121 0.230569 51 42 34
-0.300741 -0.0490062 0.230748 51 43 37
-0.299934 -0.04798 0.231078 54 50 37
-0.299874 -0.0470067 0.231103 58 48 36
-0.299629 -0.0460235 0.231204 68 44 43
-0.299014 -0.0450235 0.231456 54 39 38
-0.29877 -0.0440465 0.231557 47 36 28
-0.298711 -0.0430797 0.231582 52 40 32
-0.298835 -0.0421203 0.231531 54 40 38
-0.298776 -0.0411537 0.231556 51 43 36
-0.29927 -0.0402034 0.231355 52 40 33
-0.299211 -0.0392352 0.23138 62 44 40
-0.299522 -0.0382747 0.231254 60 48 41
-0.300208 -0.0373168 0.230974 61 53 38
-0.300335 -0.0363468 0.230923 61 49 39
-0.300838 -0.0353777 0.230718 59 51 39
-0.302104 -0.0344046 0.230202 58 52 39
-0.302425 -0.0334233 0.230071 59 48 40
-0.302556 -0.0324405 0.230019 58 51 38
-0.302687 -0.0314565 0.229966 62 47 41
-0.303011 -0.0304679 0.229834 62 52 42
-0.303143 -0.0294805 0.229781 58 45 40
-0.303662 -0.0284814 0.22957 62 44 41
-0.303795 -0.0274896 0.229516 58 51 44
-0.308386 -0.0212872 0.227645 55 45 33
-0.30873 -0.0202554 0.227506 51 47 39
-0.308872 -0.0192344 0.227448 51 43 41
-0.309013 -0.018212 0.227391 54 44 35
-0.30936 -0.0171722 0.22725 53 47 35
-0.309298 -0.016163 0.227276 51 45 37
-0.309441 -0.0151364 0.227219 51 47 40
-0.309379 -0.0141273 0.227245 56 45 38
-0.310347 -0.0130193 0.226851 52 40 36
-0.32413 0.0164814 0.221242 50 46 40
-0.323594 0.0174466 0.221461 49 46 42
-0.323294 0.0184603 0.221585 49 44 41
-0.323229 0.0195254 0.221612 52 47 40
-0.323163 0.0205899 0.22164 54 49 40
-0.323098 0.0216539 0.221667 56 49 44
-0.3235 0.0228319 0.221504 54 52 44
-0.32414 0.024073 0.221243 54 54 45
-0.324311 0.0252007 0.221175 57 57 50
-0.324245 0.0262688 0.221202 61 58 48
-0.324179 0.0273364 0.22123 61 57 54
-0.321313 -0.06868 0.22117 135 82 71
-0.321247 -0.0676004 0.221199 80 47 41
-0.32118 -0.0665214 0.221227 43 28 21
-0.321339 -0.0654735 0.221162 34 23 18
-0.321273 -0.0643945 0.22119 34 21 17
-0.299968 -0.0489803 0.230013 49 39 33
-0.298797 -0.0479316 0.230498 45 38 34
-0.298186 -0.046928 0.230752 44 45 31
-0.297944 -0.0459509 0.230853 74 49 36
-0.297884 -0.0449855 0.230878 62 37 38
-0.297825 -0.0440206 0.230903 50 40 32
-0.297766 -0.0430562 0.230928 50 43 32
-0.297706 -0.0420924 0.230953 53 41 34
-0.29783 -0.0411351 0.230903 48 40 39
-0.298137 -0.040182 0.230777 52 43 35
-0.298445 -0.039226 0.23065 56 43 34
-0.298755 -0.0382671 0.230523 55 47 38
-0.299437 -0.0373108 0.230241 58 45 37
-0.299749 -0.0363444 0.230113 56 47 38
-0.300064 -0.0353751 0.229984 55 50 37
-0.301702 -0.0344039 0.229307 54 50 36
-0.302213 -0.0334218 0.229096 55 43 38
-0.302153 -0.0324397 0.229122 56 53 40
-0.302284 -0.0314557 0.229068 58 51 41
-0.302607 -0.0304669 0.228935 65 53 39
-0.302547 -0.0294838 0.228961 62 55 38
-0.303257 -0.0284803 0.228668 61 48 39
-0.30339 -0.0274885 0.228614 57 47 40
-0.308518 -0.0202407 0.226498 52 50 39
-0.30866 -0.0192186 0.22644 53 46 36
-0.309006 -0.0181802 0.226298 49 43 35
-0.309025 -0.0151344 0.226292 50 45 40
-0.309991 -0.0140306 0.225894 51 44 37
-0.323619 0.0175551 0.220281 51 49 42
-0.323554 0.018624 0.220309 49 49 42
-0.323019 0.0195839 0.22053 50 51 41
-0.322954 0.0206495 0.220558 53 52 39
-0.323122 0.021771 0.22049 52 50 43
-0.323526 0.0229517 0.220323 54 53 45
-0.323931 0.0241367 0.220157 56 52 46
-0.324102 0.0252656 0.220087 61 55 49
-0.324036 0.0263349 0.220115 60 56 47
-0.324207 0.0274661 0.220045 59 57 56
-0.324496 -0.0724841 0.218674 185 112 92
-0.321099 -0.0687153 0.220098 151 91 76
-0.321032 -0.0676346 0.220127 89 60 50
-0.320966 -0.0665545 0.220155 50 33 23
-0.3209 -0.0654749 0.220184 39 22 16
-0.320834 -0.0643959 0.220212 35 20 17
-0.29785 -0.0478955 0.229846 45 33 27
-0.297608 -0.046917 0.229948 43 35 29
-0.297184 -0.0459304 0.230126 62 56 39
-0.297125 -0.0449666 0.230151 86 66 57
-0.297066 -0.0440033 0.230177 65 36 44
-0.297007 -0.0430406 0.230202 45 42 34
-0.296948 -0.0420784 0.230228 51 44 37
-0.297071 -0.0411228 0.230177 43 41 40
-0.297194 -0.040166 0.230126 45 38 37
-0.2975 -0.0392124 0.229999 51 39 33
-0.29799 -0.0382595 0.229794 53 40 37
-0.298853 -0.0373076 0.229434 56 46 36
-0.299351 -0.0363439 0.229226 49 47 42
-0.299478 -0.0353735 0.229174 52 46 36
-0.3013 -0.0344033 0.228412 52 41 31
-0.30181 -0.0334211 0.228199 52 41 32
-0.301941 -0.0324373 0.228145 50 39 36
-0.301881 -0.0314548 0.22817 49 46 32
-0.302203 -0.030466 0.228036 55 39 31
-0.302527 -0.0294742 0.227901 53 42 33
-0.335761 0.00779623 0.214016 49 43 36
-0.335692 0.00892613 0.214046 51 41 35
-0.32388 0.0177164 0.218997 49 48 40
-0.323344 0.0186817 0.219222 50 47 40
-0.323278 0.0197512 0.21925 53 47 42
-0.323213 0.0208201 0.219278 53 51 42
-0.323147 0.0218885 0.219307 53 53 44
-0.323082 0.0229563 0.219335 53 54 48
-0.323722 0.0242005 0.219068 57 56 50
-0.324366 0.0254516 0.218799 68 59 52
-0.3243 0.0265242 0.218827 64 58 51
-0.324235 0.0275963 0.218856 60 56 56
-0.328766 -0.073259 0.215682 192 115 99
-0.323521 -0.071315 0.217905 186 114 94
-0.321043 -0.0677016 0.218958 102 81 71
-0.320977 -0.0666192 0.218986 63 38 34
-0.320911 -0.0655375 0.219015 44 21 19
-0.32107 -0.0644859 0.218948 37 22 16
-0.297272 -0.0478838 0.229043 43 31 24
-0.296849 -0.0468949 0.229223 45 34 29
-0.29679 -0.0459305 0.229248 40 34 35
-0.29655 -0.0449572 0.229351 64 72 57
-0.296491 -0.0439948 0.229376 92 71 66
-0.296432 -0.0430328 0.229402 71 64 42
-0.296554 -0.0420783 0.229351 47 33 36
-0.296495 -0.0411165 0.229377 44 37 29
-0.296618 -0.0401605 0.229325 46 40 31
-0.296741 -0.0392033 0.229274 51 42 32
-0.297046 -0.0382485 0.229145 48 41 35
-0.298271 -0.0373044 0.228627 58 37 33
-0.298582 -0.0363396 0.228496 57 43 37
-0.299079 -0.0353729 0.228286 54 44 32
-0.300897 -0.0344026 0.227516 47 39 37
-0.301598 -0.0334196 0.22722 50 37 30
-0.301538 -0.0324365 0.227246 50 39 34
-0.335881 0.00675612 0.212723 48 42 41
-0.335293 0.00779987 0.212974 45 45 42
-0.335223 0.00892985 0.213004 49 45 39
-0.335154 0.0100592 0.213034 52 44 38
-0.334568 0.011092 0.213283 52 43 38
-0.323199 0.0176682 0.218104 52 48 37
-0.322899 0.018686 0.218232 51 47 35
-0.322833 0.0197556 0.218261 55 48 39
-0.322768 0.0208246 0.218289 54 49 40
-0.322937 0.0219498 0.218218 56 49 44
-0.322872 0.0230187 0.218247 57 50 51
-0.323985 0.0243831 0.217776 59 57 54
-0.324156 0.0255171 0.217704 77 64 59
-0.324328 0.0266527 0.217632 68 58 51
-0.324262 0.027727 0.217661 62 58 51
-0.323009 -0.070222 0.216943 190 115 96
-0.321506 -0.0678347 0.217589 124 90 77
-0.32144 -0.0667481 0.217618 75 47 40
-0.321374 -0.065662 0.217648 44 25 21
-0.321307 -0.0645765 0.217677 35 20 18
-0.296514 -0.04786 0.228319 36 33 27
-0.296455 -0.0468951 0.228345 37 31 25
-0.296215 -0.0459204 0.228448 35 30 24
-0.296156 -0.0449573 0.228474 39 28 23
-0.295917 -0.0439862 0.228577 67 32 34
-0.296038 -0.0430328 0.228526 68 77 64
-0.29598 -0.0420713 0.228552 76 75 48
-0.296102 -0.0411163 0.2285 50 33 37
-0.296043 -0.040155 0.228526 42 38 30
-0.296165 -0.0391986 0.228474 45 34 32
-0.296469 -0.0382445 0.228344 43 40 34
-0.297323 -0.0372958 0.227979 48 43 34
-0.297999 -0.0363372 0.22769 52 38 31
-0.29868 -0.0353723 0.227398 55 39 31
-0.301064 -0.0344024 0.226377 59 46 30
-0.337773 0.00715505 0.210666 47 45 38
-0.337175 0.00820808 0.210923 46 44 40
-0.336317 0.00920965 0.211292 49 43 40
-0.335986 0.0102989 0.211435 53 44 39
-0.334617 0.0111919 0.212022 51 44 42
-0.334548 0.0123202 0.212053 49 46 43
-0.322519 0.0176201 0.217213 53 47 37
-0.322454 0.0186904 0.217242 52 50 37
-0.322389 0.01976 0.217271 53 50 42
-0.322323 0.0208291 0.2173 50 52 44
-0.322492 0.0219543 0.217228 54 52 46
-0.323603 0.023314 0.216753 58 53 50
-0.323538 0.0243879 0.216781 61 61 59
-0.323946 0.0255826 0.216607 74 72 66
-0.32388 0.0266576 0.216636 66 56 51
-0.324052 0.0277951 0.216563 61 56 52
-0.323649 -0.0693027 0.215482 187 113 96
-0.32289 -0.0681026 0.215812 154 95 80
-0.322364 -0.0669424 0.216041 88 52 51
-0.322297 -0.0658498 0.216071 45 30 25
-0.322002 -0.0647277 0.2162 37 22 18
-0.322853 -0.0637539 0.215831 34 24 19
-0.296119 -0.0478603 0.22744 40 33 20
-0.29588 -0.0468841 0.227545 38 29 21
-0.295821 -0.0459205 0.227571 37 29 23
-0.295582 -0.044948 0.227675 38 28 24
-0.295523 -0.0439862 0.227701 39 29 25
-0.295465 -0.043025 0.227727 48 29 31
-0.295586 -0.0420711 0.227675 73 72 51
-0.295708 -0.0411161 0.227623 75 66 56
-0.295649 -0.0401548 0.227649 50 33 31
-0.295771 -0.0391983 0.227597 41 36 30
-0.296075 -0.0382441 0.227466 45 35 31
-0.296926 -0.0372953 0.227097 45 40 34
-0.297602 -0.0363367 0.226805 51 40 37
-0.298282 -0.0353717 0.22651 52 39 37
-0.337299 0.00715868 0.209611 48 43 37
-0.337229 0.00830274 0.209642 47 42 38
-0.336896 0.00939944 0.209787 49 44 39
-0.336563 0.0104932 0.209933 49 45 39
-0.334149 0.0111958 0.21098 49 43 40
-0.33408 0.0123241 0.211011 50 42 40
-0.322074 0.0176244 0.216223 53 48 36
-0.321776 0.0186414 0.216353 52 51 37
-0.32171 0.01971 0.216382 49 47 41
-0.321878 0.0208336 0.21631 49 51 43
-0.322047 0.0219589 0.216238 54 55 44
-0.323156 0.0233186 0.215758 58 55 44
-0.323564 0.0245119 0.215582 77 66 59
-0.323498 0.0255875 0.215611 67 64 65
-0.32367 0.0267245 0.215537 62 55 53
-0.323841 0.0278633 0.215463 59 56 54
-0.325535 -0.0696563 0.213462 200 118 101
-0.324062 -0.0683406 0.214109 171 108 90
-0.323299 -0.0671391 0.214445 101 75 67
-0.323001 -0.0660083 0.214576 53 35 31
-0.322703 -0.0648803 0.214708 34 24 19
-0.322637 -0.0637845 0.214738 34 23 20
-0.295725 -0.0478606 0.226562 40 33 22
-0.295485 -0.0468844 0.226667 35 35 26
-0.295427 -0.0459207 0.226694 33 26 24
-0.295188 -0.044948 0.226799 35 25 23
-0.29513 -0.0439862 0.226825 35 27 25
-0.295071 -0.0430249 0.226852 33 30 26
-0.295192 -0.042071 0.226799 47 33 32
-0.295314 -0.041116 0.226746 67 64 48
-0.295255 -0.0401545 0.226773 73 73 58
-0.295558 -0.0392023 0.226641 53 30 33
-0.295861 -0.0382473 0.226508 46 38 33
-0.296713 -0.0372976 0.226135 48 40 33
-0.297204 -0.0363362 0.22592 49 39 33
-0.297883 -0.0353711 0.225622 50 41 32
-0.338657 -0.00533953 0.207743 50 42 40
-0.33832 -0.00421602 0.207892 51 45 36
-0.337984 -0.00309557 0.20804 51 43 38
-0.337648 -0.00197813 0.208188 46 47 40
-0.337313 -0.000863687 0.208336 51 47 34
-0.336979 0.000247764 0.208483 50 48 40
-0.33691 0.00139432 0.208514 51 46 35
-0.33684 0.00254026 0.208546 49 47 37
-0.337424 0.006104 0.208292 50 48 39
-0.336825 0.0071623 0.208555 49 45 40
-0.336492 0.0082609 0.208702 49 43 35
-0.336422 0.00940321 0.208734 48 45 36
-0.336352 0.0105449 0.208765 48 43 38
-0.321396 0.0175764 0.215335 51 48 37
-0.321331 0.0186457 0.215364 52 50 38
-0.321266 0.0197144 0.215393 51 47 39
-0.321201 0.0207826 0.215423 52 52 39
-0.321602 0.0219635 0.215248 56 55 43
-0.322709 0.0233233 0.214762 54 58 54
-0.323352 0.0245764 0.214481 81 83 67
-0.323287 0.0256532 0.21451 66 60 55
-0.323458 0.0267915 0.214436 59 54 53
-0.323868 0.0279951 0.214256 58 57 60
-0.325015 -0.0685476 0.212486 188 120 102
-0.324245 -0.0673381 0.212829 128 94 82
-0.323711 -0.0661684 0.213067 72 46 37
-0.32318 -0.0650039 0.213304 41 24 20
-0.322651 -0.0638446 0.213539 36 22 19
-0.322815 -0.0627755 0.213467 36 20 15
-0.295691 -0.0478849 0.225523 31 25 20
-0.295271 -0.0468957 0.22571 31 29 25
-0.295033 -0.0459208 0.225816 38 31 21
-0.294795 -0.0449481 0.225923 39 27 20
-0.294736 -0.0439862 0.225949 38 27 25
-0.294857 -0.0430326 0.225896 36 29 28
-0.294978 -0.0420778 0.225843 38 31 27
-0.29492 -0.0411158 0.225869 45 30 28
-0.295222 -0.0401647 0.225736 67 62 41
-0.295525 -0.0392108 0.225602 61 62 50
-0.295829 -0.0382541 0.225468 50 30 31
-0.296682 -0.0373026 0.225089 44 38 35
-0.29699 -0.0363375 0.224953 49 39 34
-0.297484 -0.0353705 0.224734 47 42 33
-0.298352 -0.0343992 0.224349 43 43 32
-0.338179 -0.00533675 0.20668 51 43 39
-0.337577 -0.00424541 0.206948 53 42 35
-0.337242 -0.00312605 0.207097 50 44 38
-0.337172 -0.00197513 0.207129 47 46 39
-0.336575 -0.000896332 0.207395 49 46 41
-0.336505 0.000250916 0.207427 51 44 39
-0.33591 0.00132143 0.207692 49 41 37
-0.336103 0.00250424 0.207607 51 44 36
-0.336559 0.00372962 0.207405 53 47 36
-0.337018 0.00495966 0.207202 52 45 37
-0.336948 0.00610755 0.207234 48 47 36
-0.336614 0.00721032 0.207383 50 47 36
-0.336281 0.00831013 0.207531 51 48 33
-0.336211 0.00945374 0.207563 50 47 35
-0.320719 0.0175285 0.214448 53 47 39
-0.320654 0.0185968 0.214478 50 48 40
-0.320821 0.0197189 0.214404 49 49 41
-0.320756 0.0207871 0.214434 50 51 46
-0.32139 0.0220249 0.214153 56 57 47
-0.322733 0.0234451 0.213558 73 60 57
-0.32314 0.0246411 0.213378 67 61 65
-0.32355 0.0258415 0.213196 63 54 48
-0.323484 0.0269211 0.213226 52 57 51
-0.323895 0.0281275 0.213044 51 59 68
-0.324966 -0.0675061 0.2113 173 109 94
-0.324429 -0.0663301 0.211542 98 48 53
-0.32366 -0.0651284 0.211888 50 27 26
-0.322896 -0.0639345 0.212232 38 22 20
-0.32283 -0.0628337 0.212263 37 22 16
-0.322763 -0.0617334 0.212294 34 22 18
-0.295237 -0.0469183 0.224669 24 22 20
-0.294818 -0.0459312 0.224858 35 22 21
-0.29476 -0.0449671 0.224885 42 29 22
-0.294701 -0.0440034 0.224912 37 29 25
-0.294643 -0.0430403 0.224939 38 29 29
-0.294584 -0.0420777 0.224965 43 32 26
-0.294886 -0.0411277 0.224831 43 33 26
-0.295188 -0.040175 0.224695 48 31 34
-0.295492 -0.0392193 0.22456 73 59 49
-0.296161 -0.038268 0.22426 52 38 32
-0.296468 -0.0373049 0.224122 43 35 37
-0.296592 -0.036337 0.224067 48 41 32
-0.297085 -0.0353699 0.223846 44 41 28
-0.297766 -0.0343984 0.223541 46 40 29
-0.29939 -0.0334167 0.222812 47 43 32
-0.337701 -0.00533395 0.205616 53 45 38
-0.337101 -0.00424256 0.205887 49 43 40
-0.336766 -0.00312312 0.206038 53 48 39
-0.336696 -0.00197211 0.20607 50 49 43
-0.3361 -0.000893243 0.206339 46 48 42
-0.335768 0.000217189 0.206489 48 45 39
-0.335436 0.00132467 0.206638 50 41 41
-0.335629 0.00250756 0.206552 49 45 41
-0.336084 0.00373303 0.206348 51 48 43
-0.336542 0.00496313 0.206144 50 46 40
-0.336737 0.00615448 0.206057 52 44 36
-0.336403 0.00725847 0.206208 52 46 39
-0.33607 0.00835948 0.206358 52 46 39
-0.320506 0.017585 0.213356 52 49 40
-0.32021 0.0186012 0.213489 49 45 43
-0.320145 0.0196689 0.213519 51 47 44
-0.320312 0.0207916 0.213445 52 48 46
-0.320944 0.0220294 0.213162 57 56 48
-0.322757 0.0235673 0.212348 86 65 57
-0.323403 0.0248265 0.212059 67 58 55
-0.323815 0.026031 0.211874 59 53 49
-0.324228 0.0272399 0.21169 54 56 52
-0.324162 0.0283245 0.21172 55 62 75
-0.324447 -0.0663961 0.210324 107 77 75
-0.32391 -0.0652228 0.210568 55 37 33
-0.323376 -0.0640548 0.210811 40 25 19
-0.322613 -0.0628634 0.211159 39 23 15
-0.322315 -0.0617346 0.211295 34 20 13
-0.297765 -0.0471002 0.222461 21 17 14
-0.295325 -0.0459832 0.22357 26 15 16
-0.295085 -0.0450051 0.22368 32 25 24
-0.295027 -0.044038 0.223707 34 30 27
-0.294968 -0.0430714 0.223734 36 31 26
-0.29491 -0.0421053 0.223761 42 29 21
-0.295032 -0.0411459 0.223706 41 29 23
-0.295517 -0.0401958 0.223486 41 32 26
-0.295822 -0.0392367 0.223348 57 55 36
-0.296128 -0.0382748 0.223209 54 61 54
-0.296253 -0.0373072 0.223154 46 30 27
-0.296561 -0.0363402 0.223014 45 37 30
-0.296686 -0.0353693 0.222958 45 39 31
-0.297365 -0.0343977 0.22265 44 42 29
-0.298987 -0.033416 0.221913 41 39 30
-0.336624 -0.00423971 0.204826 52 44 38
-0.33629 -0.00312018 0.204978 55 43 36
-0.335957 -0.00200368 0.20513 51 46 38
-0.335363 -0.000925827 0.205401 49 47 39
-0.335293 0.000220348 0.205433 51 46 37
-0.335224 0.0013659 0.205466 51 48 43
-0.335417 0.0025502 0.205379 49 48 43
-0.33561 0.00373641 0.205292 48 49 42
-0.335803 0.00492456 0.205205 50 48 41
-0.320062 0.0175892 0.212366 51 50 42
-0.319997 0.0186588 0.212396 51 48 43
-0.319932 0.0197277 0.212426 55 50 43
-0.320099 0.0208516 0.212351 53 50 44
-0.322373 0.0224928 0.211318 57 52 44
-0.323256 0.0238086 0.210918 72 62 53
-0.323429 0.0249523 0.21084 62 59 52
-0.324081 0.0262217 0.210544 58 57 52
-0.324979 0.027562 0.210137 61 59 56
-0.324464 -0.0664624 0.2091 123 98 91
-0.323927 -0.0652865 0.209348 69 45 39
-0.323392 -0.0641159 0.209594 44 22 20
-0.322859 -0.0629507 0.20984 40 21 18
-0.322097 -0.0617632 0.210191 34 19 14
-0.322262 -0.0606887 0.210116 31 20 14
-0.298854 -0.0471932 0.220883 18 15 11
-0.298047 -0.0461628 0.221254 17 15 12
-0.29706 -0.0451305 0.221708 31 19 16
-0.296266 -0.0441167 0.222074 40 25 24
-0.295842 -0.0431264 0.22227 38 29 23
-0.295783 -0.0421542 0.222297 42 30 21
-0.295724 -0.0411826 0.222325 37 30 25
-0.295848 -0.0402168 0.222268 37 31 27
-0.295972 -0.0392498 0.222212 40 32 30
-0.295913 -0.038278 0.222239 68 60 43
-0.296221 -0.0373122 0.222099 51 32 27
-0.296345 -0.0363416 0.222042 42 42 30
-0.29647 -0.0353698 0.221985 44 40 29
-0.29715 -0.0343972 0.221673 47 35 29
-0.298395 -0.033416 0.221101 39 34 35
-0.335884 -0.00426902 0.203886 51 46 38
-0.335551 -0.00315059 0.20404 51 43 35
-0.335219 -0.00203517 0.204193 49 47 35
-0.334888 -0.000922748 0.204345 51 40 35
-0.334819 0.000223503 0.204378 49 45 35
-0.335011 0.00140725 0.20429 49 45 38
-0.334942 0.0025535 0.204323 50 51 41
-0.335135 0.0037398 0.204235 52 50 42
-0.335328 0.00492804 0.204147 50 48 41
-0.319848 0.0176458 0.21127 53 48 39
-0.319552 0.0186631 0.211406 56 45 38
-0.319718 0.0197866 0.21133 53 46 39
-0.328336 0.0263218 0.207373 59 60 59
-0.326784 0.0270451 0.208087 61 60 55
-0.324246 -0.0664963 0.207981 160 105 90
-0.323943 -0.0653505 0.208122 93 49 49
-0.323407 -0.0641774 0.208372 50 25 25
-0.322874 -0.0630096 0.208621 38 20 22
-0.322342 -0.061847 0.208868 33 22 19
-0.321812 -0.0606897 0.209115 30 19 17
-0.299073 -0.0482193 0.219693 18 16 13
-0.29845 -0.0471934 0.219983 17 15 9
-0.298203 -0.0461952 0.220098 18 14 12
-0.297585 -0.0451795 0.220386 23 17 12
-0.297155 -0.0441788 0.220587 36 32 24
-0.296358 -0.0431661 0.220958 37 31 24
-0.295932 -0.0421753 0.221156 38 31 25
-0.295874 -0.041201 0.221184 39 31 27
-0.295815 -0.0402272 0.221212 38 33 27
-0.295756 -0.039254 0.22124 40 31 27
-0.29588 -0.0382848 0.221183 71 44 30
-0.296005 -0.0373145 0.221125 49 38 37
-0.29613 -0.036343 0.221068 37 37 34
-0.296439 -0.0353712 0.220925 44 35 33
-0.29712 -0.0343969 0.220609 46 37 31
-0.297992 -0.0334152 0.220203 42 35 30
-0.337218 -0.0122283 0.20198 52 44 36
-0.336882 -0.0110908 0.202137 52 46 39
-0.336547 -0.00995649 0.202293 50 46 36
-0.336477 -0.00879784 0.202326 49 48 43
-0.334622 -0.00436229 0.203191 53 43 37
-0.334552 -0.00321414 0.203224 55 46 35
-0.334483 -0.0020666 0.203257 52 47 39
-0.334675 -0.000884012 0.203168 53 44 39
-0.334606 0.000263544 0.203201 53 45 36
-0.334537 0.00141048 0.203234 51 47 36
-0.334467 0.00255683 0.203267 56 47 38
-0.334398 0.00370254 0.203299 52 45 39
-0.33459 0.00488955 0.203211 49 46 39
-0.334783 0.00607849 0.203122 51 47 39
-0.334714 0.00722485 0.203155 50 46 40
-0.333626 0.0208748 0.203668 51 47 40
-0.333038 0.0218918 0.203942 50 51 42
-0.333229 0.0230874 0.203854 51 54 40
-0.330388 0.0269681 0.205177 61 61 59
-0.324027 -0.0665304 0.206859 187 119 103
-0.323725 -0.0653832 0.207002 107 70 66
-0.323423 -0.064239 0.207144 58 36 33
-0.322888 -0.0630687 0.207396 40 22 18
-0.322123 -0.0618759 0.207757 32 26 18
-0.321825 -0.0607438 0.207897 29 18 16
-0.298668 -0.0482196 0.218791 23 16 13
-0.298046 -0.0471936 0.219084 17 14 15
-0.297986 -0.0462061 0.219112 19 14 15
-0.29774 -0.0452092 0.219228 21 14 17
-0.297309 -0.0442056 0.219432 52 29 21
-0.296694 -0.0431981 0.219721 42 31 22
-0.296083 -0.0421965 0.220009 38 33 28
-0.29584 -0.0412133 0.220124 42 32 27
-0.295782 -0.0402377 0.220152 40 36 28
-0.295723 -0.0392626 0.22018 36 36 29
-0.295664 -0.0382881 0.220208 50 38 37
-0.295972 -0.0373196 0.220064 44 46 47
-0.296097 -0.0363462 0.220005 40 35 34
-0.296592 -0.0353737 0.219773 45 33 30
-0.297089 -0.0343965 0.21954 42 37 29
-0.297776 -0.0334138 0.219218 41 42 28
-0.337074 -0.0133665 0.200753 49 46 36
-0.336473 -0.0122497 0.201037 54 44 35
-0.336138 -0.0111134 0.201195 53 46 35
-0.336068 -0.00995402 0.201228 50 45 35
-0.335735 -0.00882265 0.201385 52 45 34
-0.335665 -0.00766579 0.201419 52 44 32
-0.334808 -0.00659864 0.201822 54 47 38
-0.334216 -0.0055083 0.202101 49 46 41
-0.334147 -0.00435945 0.202134 47 49 39
-0.334078 -0.00321122 0.202167 51 47 36
-0.334009 -0.00206361 0.202201 52 48 38
-0.3342 -0.000880936 0.202111 53 44 39
-0.334392 0.000303666 0.202022 52 45 39
-0.334323 0.00145193 0.202055 50 48 39
-0.334254 0.00259956 0.202088 48 47 41
-0.334446 0.00378734 0.201998 50 45 41
-0.334377 0.00493498 0.202031 51 46 42
-0.334308 0.00608204 0.202064 47 48 40
-0.333978 0.00718404 0.20222 46 47 41
-0.333909 0.00832864 0.202253 47 48 43
-0.334101 0.00951952 0.202163 49 51 43
-0.33329 0.0186029 0.202549 46 49 45
-0.332961 0.0196836 0.202704 47 48 45
-0.333153 0.0208794 0.202615 49 47 43
-0.333084 0.0220168 0.202648 50 48 44
-0.333016 0.0231535 0.202681 50 52 45
-0.333207 0.0243525 0.202591 48 51 46
-0.332619 0.0253614 0.202868 50 51 49
-0.331263 0.0261718 0.203506 65 60 49
-0.323271 -0.0653847 0.205991 119 98 98
-0.323204 -0.0642706 0.206023 63 43 42
-0.322669 -0.0630989 0.206278 40 23 21
-0.321606 -0.0607715 0.206785 32 20 19
-0.32154 -0.0596665 0.206817 29 22 21
-0.29845 -0.0482325 0.217799 26 13 11
-0.298015 -0.0472173 0.218006 21 11 15
-0.297582 -0.0462062 0.218213 21 14 14
-0.297523 -0.0452191 0.218241 24 19 14
-0.297464 -0.0442326 0.21827 59 37 20
-0.297218 -0.0432384 0.218387 47 30 23
-0.296418 -0.042225 0.218768 44 31 29
-0.295991 -0.0412319 0.218972 41 32 26
-0.295932 -0.0402536 0.219 38 32 27
-0.295873 -0.0392758 0.219029 36 33 29
-0.295998 -0.0383023 0.21897 41 32 35
-0.296124 -0.0373275 0.218911 42 43 52
-0.296249 -0.0363514 0.218851 40 35 31
-0.296746 -0.0353762 0.218616 39 36 32
-0.297058 -0.0343962 0.218468 42 37 34
-0.297372 -0.033413 0.218319 44 35 32
-0.337351 -0.0215188 0.19932 44 40 31
-0.337548 -0.0203338 0.199227 46 40 31
-0.337196 -0.0144867 0.199397 48 40 35
-0.336593 -0.0133643 0.199684 49 46 32
-0.336258 -0.0122236 0.199844 50 48 39
-0.335924 -0.0110861 0.200004 51 43 38
-0.335326 -0.00997765 0.200288 51 46 38
-0.334994 -0.00884739 0.200447 51 47 39
-0.334401 -0.00774857 0.200729 56 42 40
-0.33407 -0.00662553 0.200887 51 44 37
-0.333741 -0.00550552 0.201044 48 44 38
-0.333672 -0.00435661 0.201077 51 43 39
-0.333603 -0.0032083 0.201111 51 47 38
-0.334316 -0.00195708 0.200772 52 44 39
-0.334247 -0.000806286 0.200806 54 48 44
-0.334177 0.000343887 0.200839 50 47 42
-0.334108 0.00149344 0.200873 48 46 40
-0.334039 0.00264238 0.200906 50 45 40
-0.33397 0.00379073 0.20094 52 47 38
-0.334163 0.00498053 0.200849 51 47 40
-0.334094 0.00612887 0.200882 48 48 38
-0.333763 0.00723211 0.20104 48 47 38
-0.333434 0.00833235 0.201197 50 45 41
